# .PCD v0.7 - Point Cloud Data file format
VERSION 0.7
FIELDS x y z rgba
SIZE 4 4 4 4
TYPE F F F U
COUNT 1 1 1 1
WIDTH 1098
HEIGHT 1
VIEWPOINT 0 0 0 1 0 0 0
POINTS 1098
DATA ascii
0.026931001 0.025122 0.15843999 4278190080
0.02455 0.020984 0.12 4278190080
0.017912 0.024085 0.12947001 4278190080
0.018559 0.015858 0.11865 4278190080
0.032400999 0.024747999 0.12203 4278190080
0.021128999 0.0061809001 0.13536 4278190080
0.027480001 0.0053205001 0.13756 4278190080
0.035454001 0.017994 0.14061999 4278190080
0.035278 0.011878 0.13796 4278190080
0.042034 0.011091 0.13675 4278190080
0.042761002 0.0049174 0.13434 4278190080
0.027326001 0.016217001 0.14786001 4278190080
0.017452 0.018131999 0.152 4278190080
0.016302001 0.024267999 0.15441 4278190080
0.018228 0.023999 0.15853 4278190080
0.018872 0.021095 0.15696 4278190080
0.032997001 0.024473 0.15431 4278190080
0.035974 0.023968 0.16068999 4278190080
0.025491999 0.016557001 0.15293001 4278190080
0.033059001 0.01531 0.14978001 4278190080
0.017792 0.010494 0.14876001 4278190080
0.024693999 0.01256 0.14866 4278190080
0.023255 0.0083488002 0.14562 4278190080
-0.067731 -0.065944999 0.022918001 4278190080
-0.067648999 -0.065944999 0.022805 4278190080
-0.067648999 -0.065876 0.022918001 4278190080
0.017348999 0.0051647001 0.14929 4278190080
-0.065081 -0.065944999 0.022322999 4278190080
-0.065081 -0.065457001 0.022918001 4278190080
0.027201001 0.01464 0.14353 4278190080
-0.067648999 -0.065944999 0.024219001 4278190080
-0.065081 -0.065944999 0.025287 4278190080
-0.063069001 -0.065944999 0.022918001 4278190080
0.029501 0.0056854002 0.13993999 4278190080
-0.064579003 -0.065944999 0.025486 4278190080
-0.062513001 -0.065944999 0.023178 4278190080
-0.062513001 -0.065381996 0.025486 4278190080
-0.059944998 -0.065944999 0.023986001 4278190080
-0.059944998 -0.065549001 0.025486 4278190080
-0.059214 -0.065944999 0.025486 4278190080
-0.062513001 -0.065944999 0.027280999 4278190080
-0.059944998 -0.065944999 0.027501 4278190080
-0.067648999 -0.068258002 0.022918001 4278190080
-0.066555001 -0.068512999 0.022918001 4278190080
-0.065081 -0.068512999 0.022538001 4278190080
-0.065686002 -0.068512999 0.025486 4278190080
-0.065081 -0.066455998 0.025486 4278190080
-0.065081 -0.068937004 0.022918001 4278190080
-0.065081 -0.069196999 0.025486 4278190080
-0.062513001 -0.068512999 0.02259 4278190080
-0.062513001 -0.066275001 0.022918001 4278190080
-0.059944998 -0.068512999 0.022395 4278190080
-0.059944998 -0.066794001 0.022918001 4278190080
-0.062513001 -0.069325998 0.022918001 4278190080
-0.059944998 -0.070294999 0.022918001 4278190080
-0.062513001 -0.070770003 0.025486 4278190080
-0.062261 -0.071080998 0.025486 4278190080
-0.059944998 -0.071080998 0.023968 4278190080
-0.059944998 -0.071276002 0.025486 4278190080
-0.058451001 -0.068512999 0.022918001 4278190080
-0.057551 -0.068512999 0.025486 4278190080
-0.059310999 -0.071080998 0.025486 4278190080
-0.065081 -0.068512999 0.025862001 4278190080
-0.062904 -0.068512999 0.028054001 4278190080
-0.062513001 -0.066742003 0.028054001 4278190080
-0.059944998 -0.066394001 0.028054001 4278190080
-0.062513001 -0.068512999 0.028321 4278190080
0.016365999 0.0090913996 0.1525 4278190080
-0.059944998 -0.068512999 0.028487001 4278190080
-0.062513001 -0.069213003 0.028054001 4278190080
-0.059944998 -0.071080998 0.026141999 4278190080
-0.059944998 -0.069553003 0.028054001 4278190080
0.021563999 0.012101 0.15998 4278190080
-0.059257999 -0.068512999 0.028054001 4278190080
0.022139 0.0085787997 0.15909 4278190080
-0.034915 0.084280998 0.16513 4278190080
0.028779 0.01029 0.15627 4278190080
0.027609 0.013827 0.15985 4278190080
-0.034329001 0.089731 0.16689 4278190080
-0.032892 0.082010999 0.15779001 4278190080
0.033190001 0.011006 0.15854999 4278190080
-0.034322001 0.084519997 0.17107999 4278190080
0.032531999 0.0054164999 0.15896 4278190080
-0.028760999 0.080256999 0.16184001 4278190080
0.042799 0.016578 0.14461 4278190080
0.037551001 0.017627999 0.14738999 4278190080
-0.032416999 0.078838997 0.17531 4278190080
0.042518999 0.021779999 0.14955001 4278190080
0.035789002 0.020225 0.15129 4278190080
0.042644002 0.023391999 0.15403 4278190080
-0.032024998 0.083434999 0.18849 4278190080
-0.029189 0.075855002 0.17673001 4278190080
-0.031491 0.074119002 0.18529999 4278190080
0.051869001 0.077187002 0.088021003 4278190080
-0.028696001 0.076511003 0.20096999 4278190080
-0.029742001 0.071250997 0.18548 4278190080
-0.026461 0.082691997 0.15708999 4278190080
-0.024046 0.083388999 0.15951 4278190080
-0.02462 0.083933003 0.16817001 4278190080
-0.021555999 0.082438 0.1726 4278190080
-0.026324 0.079843998 0.16823 4278190080
-0.023683 0.080473997 0.15968999 4278190080
-0.020601001 0.078810997 0.16418999 4278190080
-0.022686999 0.080103002 0.1681 4278190080
-0.019729 0.077537 0.17258 4278190080
-0.013544 0.085565001 0.16072001 4278190080
-0.014502 0.083002999 0.16416 4278190080
-0.011315 0.089947 0.16787 4278190080
-0.01372 0.083002999 0.16673 4278190080
-0.01372 0.083002999 0.16673 4278190080
-0.01372 0.083002999 0.16673 4278190080
-0.01224 0.085570998 0.16673 4278190080
-0.010244 0.081471004 0.17478 4278190080
-0.016287999 0.080435 0.16759001 4278190080
-0.015655 0.076296002 0.17645 4278190080
-0.024114 0.083779 0.1749 4278190080
-0.020022999 0.085899003 0.17817999 4278190080
-0.02142 0.085936002 0.18341 4278190080
-0.024805 0.079784997 0.17283 4278190080
-0.02451 0.074963003 0.17813 4278190080
-0.019400001 0.077896997 0.17761 4278190080
-0.011179 0.075961001 0.18139 4278190080
-0.025023 0.072842002 0.18204001 4278190080
-0.0021130999 0.086020999 0.18286 4278190080
-0.015916999 0.088627003 0.18804 4278190080
-0.018115001 0.083394997 0.19475999 4278190080
-0.022702999 0.079134002 0.18897 4278190080
-0.013553 0.086119004 0.18652 4278190080
-0.0064844 0.082137004 0.19192 4278190080
-0.014915 0.078385003 0.18335 4278190080
0.048161 0.067605004 0.089404002 4278190080
-0.0083005996 0.074653 0.18876 4278190080
-0.02289 0.087540001 0.20317 4278190080
-0.012752 0.089227997 0.19245 4278190080
-0.0067941002 0.086994998 0.19642 4278190080
-0.013368 0.084334001 0.20299 4278190080
-0.0081276996 0.086792998 0.20200001 4278190080
0.055677999 0.064436004 0.097135998 4278190080
-0.021876 0.072260998 0.18528 4278190080
-0.021941001 0.071560003 0.19351 4278190080
-0.022497 0.065768003 0.18848 4278190080
-0.026844 0.065545 0.19383 4278190080
-0.018459 0.064620003 0.19092 4278190080
-0.0058757002 0.074767001 0.18413 4278190080
-0.027546 0.066225998 0.20059 4278190080
-0.019796001 0.066570997 0.19568001 4278190080
-0.019339001 0.063418999 0.20169 4278190080
-0.00098544999 0.079327002 0.18387 4278190080
0.0030791 0.085533001 0.18727 4278190080
0.079972997 0.045876998 0.081997 4278190080
0.092690997 0.046365 0.085008003 4278190080
0.096047997 0.040697999 0.075099997 4278190080
0.078034997 0.048955999 0.094310999 4278190080
0.055801 0.065553002 0.10506 4278190080
0.059275001 0.064452 0.11323 4278190080
-0.018677 0.090443999 0.082760997 4278190080
0.011788 0.078850999 0.18792 4278190080
-0.011313 0.091486998 0.084371999 4278190080
0.0014738 0.082277 0.1956 4278190080
0.0020407001 0.085097 0.20457999 4278190080
-0.0050078002 0.090248004 0.078334004 4278190080
0.0063739 0.082657002 0.20113 4278190080
0.012332 0.086626001 0.19128001 4278190080
7.7355999e-06 0.088950999 0.078364998 4278190080
0.006265 0.076298997 0.19317999 4278190080
0.0043068998 0.073362999 0.18566 4278190080
0.0032836001 0.072254002 0.18753 4278190080
0.0032047001 0.073638 0.19055 4278190080
0.0074923001 0.068646997 0.18429001 4278190080
0.078039996 0.049199 0.10233 4278190080
0.0089221001 0.064473003 0.19024 4278190080
0.081436001 0.048161 0.10746 4278190080
0.013167 0.071529999 0.19238999 4278190080
0.077684999 0.051987 0.11417 4278190080
0.012043 0.058212999 0.16455001 4278190080
0.0030304 0.054597002 0.1797 4278190080
0.0064857001 0.052863002 0.16154 4278190080
-0.00041420001 0.048905998 0.17375 4278190080
0.055822 0.066891 0.12138 4278190080
0.053521 0.067587003 0.13168 4278190080
-0.0083980002 0.090438999 0.091945 4278190080
0.051286999 0.070270002 0.13894001 4278190080
-0.019925 0.094953999 0.096409 4278190080
-0.025886999 0.095345996 0.10576 4278190080
-0.014823 0.094146997 0.099515997 4278190080
-0.018060001 0.095715001 0.10849 4278190080
-0.015511 0.093786001 0.11196 4278190080
0.057934999 0.067001 0.15132 4278190080
-0.011735 0.090008996 0.1017 4278190080
-0.015357 0.089792997 0.11327 4278190080
-0.027690001 0.096399002 0.11642 4278190080
-0.022388 0.097902998 0.11655 4278190080
-0.018177999 0.055768002 0.19265001 4278190080
-0.023367999 0.058398999 0.19637001 4278190080
-0.018348999 0.096325003 0.12428 4278190080
-0.016372999 0.090048 0.12016 4278190080
-0.012598 0.055854999 0.19001999 4278190080
-0.014028 0.059742998 0.19261 4278190080
-0.025622999 0.097943999 0.13283999 4278190080
-0.030718001 0.097125001 0.14287999 4278190080
-0.020469001 0.099523999 0.13792001 4278190080
-0.0078579998 0.055312 0.18855999 4278190080
-0.030166 0.095121004 0.12833001 4278190080
-0.019811001 0.096909001 0.13158999 4278190080
-0.0085784001 0.048799999 0.18640999 4278190080
0.060079999 0.064707004 0.13305999 4278190080
-0.020189 0.090014003 0.12977999 4278190080
0.066354997 0.061043002 0.12196 4278190080
0.068364002 0.060777999 0.13070001 4278190080
-0.017692 0.093698002 0.12967999 4278190080
-0.020591 0.042520002 0.20311999 4278190080
0.07096 0.058189999 0.12415 4278190080
-0.0089579998 0.054977998 0.19315 4278190080
-0.014635 0.054141998 0.20006 4278190080
-0.015829001 0.046874002 0.19437 4278190080
-0.025343999 0.088455997 0.14397 4278190080
-0.0091394996 0.042980999 0.19868 4278190080
-0.022991 0.088431001 0.14648999 4278190080
-0.016329 0.096068002 0.13643 4278190080
-0.015891001 0.092202 0.13679001 4278190080
0.0060592 0.064094 0.1837 4278190080
0.0033644999 0.058906998 0.18413 4278190080
0.0071137999 0.060160998 0.18780001 4278190080
-0.023691 0.10011 0.14443 4278190080
-0.019125 0.099408999 0.14650001 4278190080
-0.026954999 0.099393003 0.16274001 4278190080
0.0028746 0.056887001 0.18784 4278190080
0.013654 0.057751998 0.18573 4278190080
-0.014238 0.095550999 0.15074 4278190080
0.076513998 0.053300999 0.13170999 4278190080
-0.020260001 0.10083 0.1649 4278190080
-0.029495999 0.096643001 0.16946 4278190080
-0.0035107001 0.055775002 0.18855 4278190080
-0.014454 0.096520998 0.15821999 4278190080
-0.017715 0.086337 0.14848 4278190080
0.013217 0.054235999 0.19117001 4278190080
-0.013635 0.091802001 0.14575 4278190080
0.01318 0.050787002 0.19096 4278190080
-0.013779 0.090626001 0.15200999 4278190080
-0.0012847 0.049476001 0.19344001 4278190080
-0.0050198999 0.046427 0.19628 4278190080
0.0070440001 0.049472 0.19523001 4278190080
0.078717001 0.053070001 0.12535 4278190080
0.010056 0.048478 0.19628 4278190080
0.0089264 0.050034001 0.2009 4278190080
0.0097927004 0.047116999 0.20242 4278190080
0.084250003 0.044362001 0.12981001 4278190080
0.030763 0.077946 0.17689 4278190080
0.023619 0.071981996 0.16655 4278190080
0.097717002 0.045945 0.12862 4278190080
0.080931 0.050930999 0.13609999 4278190080
-0.013369 0.099575996 0.17595001 4278190080
-0.016626 0.10034 0.18316001 4278190080
-0.022527 0.098513998 0.18285 4278190080
0.02091 0.073425002 0.18113001 4278190080
0.059163 0.067300998 0.14571001 4278190080
0.015566 0.067263998 0.17899001 4278190080
0.081332996 0.050953001 0.14317 4278190080
-0.012167 0.095478997 0.1662 4278190080
-0.010122 0.092569001 0.17238 4278190080
-0.0051731002 0.093947001 0.18221 4278190080
-0.018133 0.096707001 0.19518 4278190080
-0.0065907999 0.097341999 0.18677001 4278190080
-0.0096415998 0.099124998 0.19057 4278190080
-0.0083753997 0.097901002 0.19760001 4278190080
-0.031097 0.090138003 0.18245 4278190080
0.036192998 0.069353998 0.16256 4278190080
0.040380001 0.070633002 0.15611 4278190080
0.042610999 0.069752 0.16222 4278190080
0.035007998 0.067289002 0.17032 4278190080
0.046371002 0.072907999 0.16571 4278190080
0.053181 0.071479 0.17553 4278190080
-0.017562 0.091476999 0.20584001 4278190080
0.050205 0.070591003 0.15795 4278190080
0.055312 0.070653997 0.16681001 4278190080
0.043405998 0.074832998 0.1825 4278190080
0.044530999 0.072506003 0.17213 4278190080
0.085593 0.046000998 0.14879 4278190080
0.0010611 0.091681004 0.19024999 4278190080
-0.00010851 0.096242003 0.19538 4278190080
0.020095 0.085739002 0.1918 4278190080
0.023556 0.081863999 0.18742 4278190080
0.0078239003 0.094434001 0.20073 4278190080
0.017375 0.078175001 0.19663 4278190080
0.026109001 0.089634001 0.19828001 4278190080
0.031122001 0.081092 0.20396 4278190080
0.082525998 0.042908002 0.090383001 4278190080
-0.017901 0.083085999 0.21199 4278190080
0.022923 0.068251997 0.18532 4278190080
0.019296 0.067818999 0.18870001 4278190080
0.02767 0.075691 0.19236 4278190080
0.088587999 0.034437001 0.081909999 4278190080
0.088683002 0.030305 0.076839 4278190080
-0.011172 0.086203001 0.21231 4278190080
-0.0071863001 0.092395 0.20875999 4278190080
0.036311001 0.070901997 0.18098 4278190080
0.0043974002 0.094008997 0.20685001 4278190080
0.085415997 0.040840998 0.094508 4278190080
0.01527 0.093280002 0.20687 4278190080
0.0039428002 0.086586997 0.21430001 4278190080
0.087375998 0.026071001 0.080771998 4278190080
0.013686 0.089653999 0.21184 4278190080
0.089353003 0.032143999 0.085977003 4278190080
0.093303002 0.024364 0.085450001 4278190080
0.091821998 0.030577 0.097259998 4278190080
0.093200997 0.024281001 0.093608998 4278190080
0.057344001 0.032267001 0.11624 4278190080
0.059606999 0.027659999 0.11306 4278190080
0.05483 0.027341001 0.10999 4278190080
0.088327996 0.038532 0.11326 4278190080
0.039639998 0.077694997 0.19377001 4278190080
0.090139002 0.03633 0.10491 4278190080
0.083477996 0.046700001 0.12025 4278190080
0.047796998 0.07632 0.19302 4278190080
0.090582997 0.038463999 0.12126 4278190080
0.093301997 0.028751999 0.10687 4278190080
0.093570001 0.031099999 0.1169 4278190080
0.091695003 0.022717001 0.080302 4278190080
0.029891999 0.060446002 0.1661 4278190080
0.029913001 0.062871002 0.17224 4278190080
0.025823999 0.057108998 0.16539 4278190080
0.033243001 0.064654998 0.15763 4278190080
0.09443 0.0094458004 0.072489999 4278190080
0.094901003 0.015473 0.083035 4278190080
0.023355 0.059579998 0.17804 4278190080
0.02681 0.063796997 0.17984 4278190080
0.023165001 0.053305998 0.15978999 4278190080
0.020316999 0.051716 0.1725 4278190080
0.017502001 0.046195 0.17259 4278190080
0.019367 0.052037999 0.17778 4278190080
0.012881 0.046055999 0.17773999 4278190080
0.019638 0.063887998 0.18381 4278190080
0.016526001 0.054988001 0.18524 4278190080
-0.022290999 0.080752 0.20765001 4278190080
-0.016742 0.076531 0.20987 4278190080
-0.010194 0.082043 0.21094 4278190080
-0.016035 0.076141998 0.20703 4278190080
-0.023016 0.066431001 0.21119 4278190080
-0.013963 0.066540003 0.21143 4278190080
-0.017511001 0.068478003 0.21373001 4278190080
-0.0043968 0.083481997 0.21062 4278190080
0.015583 0.083177999 0.20646 4278190080
0.01087 0.083690003 0.21197 4278190080
0.0035329 0.071254998 0.021043001 4278190080
-0.0030098001 0.085836001 0.21423 4278190080
-0.0015684 0.082670003 0.21317001 4278190080
0.012335 0.085533001 0.21358 4278190080
-0.024904 0.056051999 0.20826 4278190080
-0.012075 0.079107001 0.022043001 4278190080
-0.024382001 0.050046999 0.20828 4278190080
-0.0069416999 0.082406998 0.025604 4278190080
-0.0088988999 0.078417003 0.034219999 4278190080
-0.016776999 0.057962 0.20782 4278190080
-0.012942 0.060047001 0.21489 4278190080
-0.017298 0.059388999 0.21618 4278190080
-0.019747 0.051642001 0.21499 4278190080
-0.015216 0.074139997 0.021577001 4278190080
-0.01381 0.063440003 0.2159 4278190080
-0.023442 0.067089997 0.020631 4278190080
-0.0090317996 0.075277001 0.024519 4278190080
-0.014961 0.050951999 0.21188 4278190080
-0.0070794001 0.075140998 0.033688001 4278190080
-0.013835 0.036249999 0.21190999 4278190080
-0.012273 0.040181 0.20441 4278190080
-0.0025239 0.083898999 0.024669999 4278190080
-0.022208 0.048333 0.21351001 4278190080
-0.016517 0.051808 0.21479 4278190080
-0.013806 0.039522 0.21583 4278190080
0.0059121 0.047518 0.20494001 4278190080
0.016240001 0.082759 0.21302 4278190080
-0.0034260999 0.072021 0.022435 4278190080
-0.0014316 0.066073999 0.020950999 4278190080
-0.0023401999 0.069831997 0.025219001 4278190080
0.0074268999 0.069413997 0.027553 4278190080
0.00084718002 0.067330003 0.040550999 4278190080
0.0081470003 0.072702996 0.026143 4278190080
0.020442 0.072709002 0.034938999 4278190080
0.0073162001 0.072348997 0.036775 4278190080
0.010027 0.073971003 0.035875998 4278190080
0.011427 0.063841999 0.040270001 4278190080
-0.022249 0.062309999 0.020473 4278190080
-0.030453 0.057643 0.025147 4278190080
-0.023259001 0.054634999 0.022952 4278190080
-0.02634 0.056242999 0.026222 4278190080
-0.01177 0.033530001 0.16971999 4278190080
-0.0070031001 0.059342999 0.020429 4278190080
-0.0087269004 0.059994001 0.025938001 4278190080
-0.010053 0.060417 0.022065001 4278190080
-0.022519 0.050988 0.025132 4278190080
-0.013835 0.033944 0.18286 4278190080
-0.018266 0.048921 0.025448 4278190080
-0.014065 0.052797999 0.025777999 4278190080
-0.013064 0.051654 0.023293 4278190080
-0.013748 0.0462 0.024707001 4278190080
-0.0095063997 0.050949 0.025947001 4278190080
-0.031332001 0.055201001 0.031443 4278190080
-0.020242 0.052122001 0.029739 4278190080
-0.024991 0.054965999 0.035907 4278190080
0.010192 0.042137001 0.17098001 4278190080
-0.019231999 0.049529999 0.034779001 4278190080
0.013046 0.031881001 0.16883001 4278190080
-0.0065893 0.042027999 0.17929 4278190080
-0.010821 0.051458001 0.028331 4278190080
-0.011234 0.046464 0.032076001 4278190080
0.01075 0.041595999 0.17953999 4278190080
0.0081152003 0.036045998 0.17332999 4278190080
0.0057437001 0.03799 0.18015 4278190080
-0.0023847001 0.060757 0.022631999 4278190080
0.0033499999 0.028796 0.16121 4278190080
-0.00085193 0.026432 0.16248 4278190080
-0.0027411 0.061298002 0.025598999 4278190080
-0.0044449 0.054768 0.021931 4278190080
-0.0042885002 0.056185 0.025836 4278190080
0.0026116001 0.060375001 0.023511 4278190080
0.0013812 0.028031001 0.17963 4278190080
-0.0019914999 0.060327999 0.025815999 4278190080
0.0096198004 0.027318001 0.17339 4278190080
0.0035457001 0.03365 0.17928 4278190080
0.0069030998 0.062263001 0.028488001 4278190080
-0.00051724998 0.065304004 0.030516 4278190080
0.0019085 0.062073 0.030121 4278190080
0.0095392996 0.061956 0.032287002 4278190080
0.0087508997 0.059772 0.039498001 4278190080
-0.015999001 0.035101999 0.19079 4278190080
-0.019819999 0.034525 0.20121001 4278190080
0.097291 0.023822 0.11916 4278190080
0.095485002 0.01412 0.088294998 4278190080
0.097019002 0.013634 0.097138003 4278190080
0.097346999 0.0043139001 0.087878004 4278190080
0.097629003 0.0047793002 0.10367 4278190080
-0.020982999 0.027170001 0.19736999 4278190080
0.097012997 0.020385999 0.10813 4278190080
0.097460002 0.014464 0.10544 4278190080
0.0080089998 0.045736998 0.18537 4278190080
0.0056090001 0.043267 0.19132 4278190080
0.0035574001 0.036171999 0.18832999 4278190080
0.097295001 0.014256 0.11625 4278190080
-0.0045216 0.043618001 0.20034 4278190080
0.0012746 0.038417 0.19588999 4278190080
0.0073793 0.044904999 0.20371 4278190080
0.0044892002 0.037616 0.20365 4278190080
0.099926002 0.0075927 0.10893 4278190080
0.00087451999 0.031186 0.18691 4278190080
0.00048272 0.023668 0.17979001 4278190080
6.2919999e-06 0.033216 0.19633 4278190080
0.0021664 0.026039001 0.19367 4278190080
0.096934997 0.0069455002 0.11431 4278190080
-0.0036952 0.027690001 0.19476999 4278190080
0.058518 0.030098001 0.11961 4278190080
0.086396001 0.042488001 0.124 4278190080
-0.018038001 0.013671 0.18471 4278190080
0.091104999 0.035920002 0.1319 4278190080
0.088602997 0.043058001 0.14097001 4278190080
-0.017202999 0.0065771001 0.17735 4278190080
0.092494003 0.036467001 0.14241 4278190080
-0.0036084999 0.020914 0.16272999 4278190080
0.0023082001 0.021596 0.16052 4278190080
-0.00089685997 0.018316999 0.16223 4278190080
0.095452003 0.032676999 0.13857999 4278190080
0.016797001 0.021786001 0.17223001 4278190080
0.0043931999 0.022963 0.17624 4278190080
-0.0036217 0.011161 0.16165 4278190080
0.090723999 0.040224999 0.14995 4278190080
-0.020901 0.011336 0.19183999 4278190080
-0.019245001 0.02052 0.18965 4278190080
0.096157998 0.028813001 0.15022001 4278190080
-0.024484999 0.016830999 0.19222 4278190080
-0.026722001 0.015593 0.19604 4278190080
-0.023188001 0.016906001 0.19495 4278190080
-0.020957001 0.016935 0.19209 4278190080
0.10594 0.033365998 0.13032 4278190080
-0.015893999 0.0061622001 0.18557 4278190080
-0.022894001 0.012926 0.19275001 4278190080
-0.023644 0.011725 0.19573 4278190080
-0.021403 0.013702 0.19456001 4278190080
-0.019212 0.010566 0.19814 4278190080
-0.026800999 0.011692 0.19935 4278190080
-0.021732001 0.010534 0.19667999 4278190080
-0.019253001 0.010853 0.20255999 4278190080
-0.023073999 0.0061794999 0.19512001 4278190080
-0.027546 0.0064634001 0.20327 4278190080
-0.0073944 0.081496999 0.039193999 4278190080
-0.011264 0.077444002 0.046514999 4278190080
-0.019456999 0.0052990001 0.20051999 4278190080
-0.012665 0.081249997 0.049945001 4278190080
0.00097844005 0.018021001 0.18651 4278190080
-0.019212 0.081807002 0.057020999 4278190080
0.10872 0.022899 0.13129 4278190080
0.0059982999 0.017363001 0.18110999 4278190080
0.0043321 0.013568 0.18757001 4278190080
-0.0023064001 0.023157001 0.19927999 4278190080
-0.0065535 0.023304 0.19899 4278190080
0.0027385999 0.023813 0.19775 4278190080
0.0034143 0.018616 0.20141999 4278190080
-0.020099999 0.069899999 0.050795 4278190080
0.00095848 0.016349999 0.19575 4278190080
-0.022721 0.075364001 0.053548001 4278190080
-0.028238 0.073973 0.059223 4278190080
-0.0085572004 0.017565001 0.20164999 4278190080
-0.014672 0.075686 0.050055999 4278190080
-0.025281999 0.064365 0.049332 4278190080
-0.029446 0.065365002 0.051594 4278190080
0.10342 0.038509 0.14521 4278190080
-0.018445 0.067089997 0.055344 4278190080
-0.0037181999 0.074978001 0.049846001 4278190080
0.0039019 0.01231 0.19554 4278190080
-0.010013 0.072708003 0.055358 4278190080
0.0070556998 0.011988 0.19886 4278190080
-0.0029789 0.085150003 0.044220999 4278190080
0.096578002 0.026617 0.14531 4278190080
0.02468 0.025738001 0.1639 4278190080
0.099436 0.022376001 0.15636 4278190080
0.09922 0.022217 0.16374999 4278190080
0.024106 0.011517 0.1646 4278190080
0.017973 0.0074979998 0.16529 4278190080
0.019885 0.006701 0.16091 4278190080
0.032338999 0.010577 0.16233 4278190080
-0.0022336 0.074672997 0.043471999 4278190080
0.096410997 0.017867001 0.12594 4278190080
0.097107999 0.025605001 0.13162 4278190080
0.0021208001 0.072577 0.04157 4278190080
0.094375998 0.012752 0.12214 4278190080
-0.021322001 0.036741 0.21283001 4278190080
0.0066169999 0.073526002 0.040548 4278190080
-0.010479 0.038548999 0.20472001 4278190080
0.0069908998 0.075505003 0.044208001 4278190080
0.099439003 0.021577001 0.13422 4278190080
0.099509001 0.013992 0.13373999 4278190080
0.0081099998 0.063883997 0.043301001 4278190080
-0.019386999 0.037943002 0.21622001 4278190080
0.099794 0.020276999 0.14228 4278190080
0.10177 0.013878 0.14030001 4278190080
-0.016293 0.038798001 0.21763 4278190080
-0.0021142999 0.077445999 0.060309 4278190080
0.094741002 0.011609 0.12815 4278190080
0.013337 0.075567 0.059854001 4278190080
-0.020316999 0.025544999 0.21334 4278190080
-0.025491999 0.080147997 0.067259997 4278190080
-0.012465 0.088104002 0.067527004 4278190080
-0.011154 0.032483999 0.21479 4278190080
-0.0067444998 0.035544999 0.21652 4278190080
-0.014324 0.031541999 0.21800999 4278190080
-0.016094999 0.023127999 0.21871001 4278190080
-0.010418 0.029379999 0.21964 4278190080
-0.021492001 0.084568001 0.069937997 4278190080
0.097653002 0.018262001 0.15098999 4278190080
-0.0030420001 0.040824 0.20915 4278190080
-0.0078419 0.079481997 0.078666002 4278190080
0.0065389001 0.044844002 0.21185 4278190080
0.0061496999 0.040486 0.21219 4278190080
-0.031580999 0.073366001 0.069023997 4278190080
-0.02114 0.066522002 0.062656 4278190080
0.0028279 0.035749 0.20819999 4278190080
-0.015616 0.073748 0.066656999 4278190080
0.0042329002 0.040321998 0.21569 4278190080
-0.013914 0.074408002 0.061779 4278190080
-0.00043153999 0.034068 0.2201 4278190080
0.099987 0.018297 0.16199 4278190080
0.0044791 0.034802001 0.22352 4278190080
-0.019173 0.073771998 0.073321 4278190080
0.0051127998 0.035530001 0.21736 4278190080
0.10181 0.012487 0.14351 4278190080
0.098819003 0.0084969001 0.15505999 4278190080
-0.0044783 0.027014 0.20746 4278190080
-0.025408 0.066117004 0.076554 4278190080
-0.0094371 0.077840999 0.070690997 4278190080
-0.016697001 0.077035002 0.078188002 4278190080
0.0013615 0.031863999 0.21836001 4278190080
0.0013552 0.033464 0.22431 4278190080
-0.00089535001 0.025156001 0.21647 4278190080
-0.01279 0.020068999 0.22831 4278190080
-0.0069006998 0.023943 0.22628 4278190080
-0.0024555 0.027848 0.22627001 4278190080
0.0027747001 0.030184001 0.22341999 4278190080
0.0017928 0.026758 0.22877 4278190080
0.0019950999 0.077494003 0.069110997 4278190080
0.0028986 0.026543999 0.22618 4278190080
-0.021128001 0.017765 0.20622 4278190080
-0.0094507001 0.019041 0.20413999 4278190080
0.00033534999 0.077536002 0.080681004 4278190080
-0.0075635999 0.020858999 0.21111 4278190080
-0.0012099 0.069072999 0.074405 4278190080
-0.019636 0.013716 0.21461 4278190080
-0.0052426001 0.067312002 0.081380002 4278190080
0.0082665002 0.075245999 0.076605998 4278190080
0.015842 0.075167 0.078892 4278190080
0.010858 0.068217002 0.077854998 4278190080
-0.020271 0.0069404999 0.21319 4278190080
-0.025736 0.0084082 0.20566 4278190080
-0.020948 0.0020947 0.2059 4278190080
-0.028277 0.058513001 0.045042001 4278190080
-0.018858001 0.0024357 0.20923001 4278190080
-0.0087377997 0.012679 0.20657 4278190080
-0.021893 0.057533 0.052094001 4278190080
-0.017524 0.0021648 0.2221 4278190080
-0.0088296998 0.0062020998 0.21882001 4278190080
-0.028182 0.0074030999 0.022971001 4278190080
-0.020802001 -0.0050019999 0.033507001 4278190080
-0.013016 0.0050722002 0.026713001 4278190080
-0.00081544003 0.019484 0.20338 4278190080
-0.0056435 0.011804 0.20333999 4278190080
0.00072004 0.010876 0.20618001 4278190080
-0.029802 0.0094221998 0.031829 4278190080
-0.00096073002 0.023034001 0.22245 4278190080
-0.0062194001 0.014058 0.22624999 4278190080
-0.0071776998 0.0084218001 0.20502 4278190080
-0.0033438001 0.0055562002 0.20531 4278190080
0.0057092998 0.012786 0.20406 4278190080
-0.0062279999 -0.0069586998 0.031923 4278190080
-0.0096971001 0.0044617001 0.036242001 4278190080
-0.0082722995 0.010279 0.21804 4278190080
-0.0039259 -0.00017273999 0.21529 4278190080
-0.012526 0.013198 0.23114 4278190080
-0.016708 -0.01066 0.042261001 4278190080
-0.010025 0.018084001 0.23059 4278190080
-0.016541 0.0086706001 0.22539 4278190080
0.011118 0.00082487002 0.025486 4278190080
0.011961 0.00082487002 0.024177 4278190080
0.011961 0.0018221 0.025486 4278190080
0.010854 -0.0017433 0.022918001 4278190080
0.011961 -0.0017433 0.021919999 4278190080
0.011961 -0.00030357001 0.022918001 4278190080
0.0098954998 -0.0017433 0.025486 4278190080
0.010745 -0.0043112999 0.022918001 4278190080
0.011961 -0.0043112999 0.021604 4278190080
0.010595 -0.0043112999 0.025486 4278190080
-0.0092751002 0.0047313999 0.22663 4278190080
0.010969 0.00082487002 0.028054001 4278190080
0.011961 0.0026388001 0.028054001 4278190080
0.011961 0.00082487002 0.029493 4278190080
-0.012072 0.0061320001 0.22958 4278190080
0.01168 -0.0017433 0.028054001 4278190080
0.011961 -0.0017433 0.028258 4278190080
0.011961 -0.0043112999 0.026365001 4278190080
0.011961 -0.0020089999 0.028054001 4278190080
-0.0086621996 0.0065792999 0.23237 4278190080
-2.9596e-05 -0.013222 0.023035999 4278190080
-0.0097839003 0.010252 0.23396 4278190080
-0.0069809998 0.0086594 0.23661999 4278190080
-0.0040225 0.022538999 0.22509 4278190080
0.011961 -0.0055372999 0.022918001 4278190080
0.011961 -0.0050396998 0.025486 4278190080
-0.0056850002 0.017047999 0.23133001 4278190080
-0.0058459998 0.012629 0.23259 4278190080
-0.0054599 0.0084659997 0.23337001 4278190080
-0.00087049999 -0.01386 0.032187998 4278190080
0.0053214999 -0.017844999 0.031500999 4278190080
-0.0014966 0.014015 0.23849 4278190080
0.0029354 0.013779 0.24314 4278190080
0.0050384002 0.012617 0.24095 4278190080
-0.0020324001 0.0096928002 0.2366 4278190080
-0.0048475 0.0071696001 0.24006 4278190080
-0.00067515997 0.0051916 0.23736 4278190080
0.0063932999 0.0062786001 0.24366 4278190080
0.0067749 -0.019944999 0.025339 4278190080
-0.020231999 0.059579998 0.057239 4278190080
-0.021248 0.052280001 0.046877 4278190080
-0.012412 0.045446001 0.040922999 4278190080
0.015151 -0.023422001 0.027139001 4278190080
-0.01357 0.047708001 0.048381001 4278190080
-0.023012999 0.050418999 0.055879001 4278190080
-0.022221999 0.045306001 0.051839001 4278190080
0.017499 -0.020253999 0.035094999 4278190080
-0.011738 0.048641 0.052931 4278190080
-0.01212 0.053291 0.057808001 4278190080
0.0050075999 0.062843002 0.040787999 4278190080
-0.0030089 0.04888 0.054281 4278190080
-0.0028591999 0.046689998 0.056735002 4278190080
-0.024342 0.064061001 0.068305001 4278190080
-0.0077069001 0.066909 0.070726 4278190080
-0.011644 0.057581998 0.063505001 4278190080
-0.0068570999 0.058922 0.063543998 4278190080
-0.024290999 0.052705001 0.073785 4278190080
-0.024633 0.060869999 0.085008003 4278190080
0.014529 0.00082487002 0.023197001 4278190080
0.014529 0.0027530999 0.025486 4278190080
0.016935 0.00082487002 0.025486 4278190080
0.014529 -0.0017433 0.021195 4278190080
0.014529 0.00054961001 0.022918001 4278190080
0.016425001 -0.0017433 0.022918001 4278190080
0.016729999 -0.0017433 0.025486 4278190080
0.014529 -0.0043112999 0.021028001 4278190080
0.015941 -0.0043112999 0.022918001 4278190080
0.014752 -0.0043112999 0.025486 4278190080
0.014529 0.0033819 0.028054001 4278190080
0.017097 0.00082487002 0.025753001 4278190080
0.017097 0.0023161999 0.028054001 4278190080
0.014477 0.00082487002 0.030622 4278190080
0.014529 0.00092452997 0.030622 4278190080
0.015941 0.00082487002 0.030622 4278190080
0.017097 0.00082487002 0.030144 4278190080
0.017809 0.00082487002 0.028054001 4278190080
0.014529 0.00082487002 0.030632 4278190080
0.016603 -0.0017433 0.028054001 4278190080
0.017097 -0.001389 0.028054001 4278190080
0.014529 -0.0017433 0.029247999 4278190080
0.014529 0.00021928 0.030622 4278190080
0.014529 -0.0043112999 0.025696 4278190080
0.014529 -0.0025510001 0.028054001 4278190080
0.014529 -0.0055481 0.022918001 4278190080
0.014529 -0.004489 0.025486 4278190080
-0.012671 0.061622001 0.073133998 4278190080
-0.014466 0.057828002 0.082713999 4278190080
-0.024112999 0.052731 0.062169001 4278190080
-0.021349 0.050579 0.063571997 4278190080
-0.017044 0.056040999 0.070488997 4278190080
-0.021087 0.048300002 0.058529999 4278190080
-0.021466 0.049321 0.070611 4278190080
-0.0035917 0.052855 0.060387 4278190080
-0.023715001 0.049856 0.070146002 4278190080
-0.018391 0.051899999 0.076762997 4278190080
-0.022706 0.049495999 0.078538999 4278190080
-0.0095614996 0.044456001 0.072206996 4278190080
-0.00029783999 0.062963001 0.066814996 4278190080
0.0047937999 0.053626999 0.064042002 4278190080
0.0057171001 0.059696 0.071494997 4278190080
0.01065 0.060290001 0.077725001 4278190080
0.00099322002 0.052963 0.061108001 4278190080
0.028395001 -0.025134999 0.035199001 4278190080
-0.0020492999 0.049440999 0.063496999 4278190080
-0.0064520999 0.048744999 0.066005997 4278190080
-0.0037642 0.053929999 0.074947998 4278190080
0.0023244999 0.053764999 0.076512001 4278190080
-0.0057315002 0.050459001 0.080638997 4278190080
0.0047134999 0.053929999 0.072232001 4278190080
0.0077558002 0.054754999 0.077110998 4278190080
0.047966 -0.030692 0.033684 4278190080
0.01623 0.073590003 0.041696999 4278190080
-0.027248999 0.0043593999 0.041607998 4278190080
-0.024457 0.00056749 0.047508001 4278190080
-0.0061352002 0.0079252999 0.043189999 4278190080
-0.028152 0.0053369999 0.058561999 4278190080
-0.023221999 -0.0032933 0.053114999 4278190080
-0.0085236998 0.0032947999 0.048427999 4278190080
-0.012037 0.0073525999 0.050694 4278190080
-0.0087972004 -0.0006122 0.064490996 4278190080
-0.0070102001 -0.0035073999 0.054273002 4278190080
0.015553 0.085509002 0.078371003 4278190080
0.025591001 0.083881997 0.081045002 4278190080
0.038745001 0.079970002 0.076906003 4278190080
0.030774999 0.072375 0.069729 4278190080
0.026882 0.07299 0.079905003 4278190080
0.032710999 0.070956998 0.079563998 4278190080
0.040766999 0.068636 0.074329004 4278190080
0.037337001 0.070170999 0.079972997 4278190080
0.045667998 0.067855 0.073732004 4278190080
0.053835001 0.064292997 0.081765004 4278190080
-0.023333 0.037308 0.021946 4278190080
-0.021694999 0.041967999 0.023579 4278190080
-0.016643001 0.044087 0.025459001 4278190080
-0.021957001 0.040196002 0.030345 4278190080
-0.022391001 0.03655 0.031656001 4278190080
-0.020509001 0.039671998 0.043788999 4278190080
-0.018364999 0.039790001 0.039214 4278190080
-0.014785 0.041549999 0.031458002 4278190080
-0.010592 0.04101 0.032754 4278190080
-0.0092794998 0.041301001 0.037156001 4278190080
-0.010213 0.035177 0.038801 4278190080
-0.0081668003 0.035716999 0.037395999 4278190080
-0.020873001 0.031654 0.0253 4278190080
-0.021935999 0.030401001 0.035264999 4278190080
0.11502 0.017775999 0.19616 4278190080
-0.027819 0.016719 0.021796999 4278190080
-0.018887 0.020958999 0.021261999 4278190080
-0.029048 0.01928 0.028661 4278190080
-0.017111 0.017524 0.033358999 4278190080
-0.01729 0.013203 0.026998 4278190080
-0.028429 0.019127 0.038577002 4278190080
-0.026382999 0.014959 0.022202 4278190080
-0.029066 0.013374 0.020687001 4278190080
-0.025272001 0.011344 0.020025 4278190080
-0.028055999 0.010302 0.026698999 4278190080
-0.0061968002 0.0068033999 0.046064999 4278190080
-0.0017552 -0.00093894999 0.047548 4278190080
-0.0017961001 -0.0021116 0.040353 4278190080
-0.013385 0.010004 0.033736002 4278190080
-0.00032788 -0.0082481997 0.060819 4278190080
-0.026668999 0.0055521 0.069187999 4278190080
0.098816 0.010453 0.16062 4278190080
-0.021624001 0.036575001 0.042583 4278190080
-0.017186999 0.035744999 0.043775 4278190080
-0.013522 0.011184 0.066662997 4278190080
0.10095 0.0043910001 0.16673 4278190080
-0.010989 0.0036458001 0.070845 4278190080
-0.0089843003 0.0405 0.043288998 4278190080
-0.009687 0.040387001 0.046303999 4278190080
-0.021275001 -0.0061801998 0.067824997 4278190080
-0.022591 0.0042963 0.073725 4278190080
-0.021486999 0.0026614999 0.069095001 4278190080
-0.021377999 0.0058769998 0.067603998 4278190080
-0.018755 0.0030610999 0.069067001 4278190080
-0.0077912002 0.036821 0.043099999 4278190080
0.10202 0.0090424996 0.17532 4278190080
-0.018100001 0.0030499001 0.073902003 4278190080
-0.026010999 0.0059324 0.073702998 4278190080
-0.016465001 0.045669001 0.052287001 4278190080
-0.025722999 0.0045905001 0.079256997 4278190080
-0.022607001 -0.0021752999 0.074917004 4278190080
-0.022334 0.004317 0.078941002 4278190080
0.10443 0.0069407001 0.1813 4278190080
-0.0060777999 0.044326 0.048678 4278190080
-0.011087 0.039046001 0.054019999 4278190080
-0.0054712999 0.041768 0.048772 4278190080
-0.01647 0.034373 0.052770998 4278190080
-0.019756 0.027338 0.037634999 4278190080
-0.0073962002 0.0021855 0.079056002 4278190080
0.10234 0.018306 0.19131 4278190080
-0.011249 -0.017269 0.061880998 4278190080
-0.013614 0.034359999 0.043731 4278190080
-0.013724 0.032694999 0.046928 4278190080
-0.014959 0.028152 0.041770998 4278190080
-0.017324001 0.021455999 0.044232 4278190080
-0.019014999 0.027404999 0.051263999 4278190080
0.10386 0.021839 0.20029999 4278190080
-0.017618001 0.026611 0.061035 4278190080
-0.015701 -0.011428 0.074247003 4278190080
-0.0051438999 0.036166001 0.040711999 4278190080
-0.0066579999 0.040936001 0.055303 4278190080
-0.0062608998 -2.4380999e-05 0.068896003 4278190080
-0.00099287997 -0.0061125001 0.064521 4278190080
0.0045965998 -0.0035983999 0.065518998 4278190080
0.10496 0.0066638999 0.18884 4278190080
-0.013183 0.039785001 0.059505001 4278190080
0.015419 -0.0022825 0.066279002 4278190080
-0.014398 0.039802 0.065903001 4278190080
0.001706 0.001342 0.069495998 4278190080
-0.016256001 0.033969 0.061048001 4278190080
-0.019301999 0.041306999 0.071094997 4278190080
0.0017065 -0.0044431998 0.073343001 4278190080
-0.0033423 -0.0041107 0.078736 4278190080
-0.020155 0.037379 0.075080998 4278190080
0.1065 0.010629 0.19952001 4278190080
0.0097668003 -0.00037301 0.067535996 4278190080
0.011361 0.0039081001 0.074872002 4278190080
0.0099732997 0.0055454001 0.069054998 4278190080
-0.016266 0.045272 0.074013002 4278190080
0.011915 0.0051528001 0.079246998 4278190080
-0.011459 0.047449 0.079067998 4278190080
0.11675 0.0073671001 0.19309001 4278190080
0.019587999 -0.0044482001 0.069333002 4278190080
-0.019626001 0.033952001 0.065228999 4278190080
0.0084672999 -0.0039455001 0.079029001 4278190080
0.011645 -0.0019018 0.080512002 4278190080
-0.027376 0.027716 0.067544997 4278190080
0.11855 -0.00047333 0.19908001 4278190080
-8.5109998e-05 -0.0072202999 0.067065001 4278190080
-0.0010554 -0.011215 0.065443002 4278190080
0.0021760999 -0.014014 0.065283 4278190080
0.0084034 -0.0053928001 0.068944 4278190080
0.0053105 -0.011279 0.059645001 4278190080
0.011844 -0.015434 0.057693999 4278190080
0.0086821998 -0.014893 0.062183999 4278190080
-0.019068001 0.030428 0.071529999 4278190080
-0.027108001 0.033454001 0.084236003 4278190080
-0.018352 0.034024 0.080030002 4278190080
-0.0027979999 -0.011337 0.073100999 4278190080
-0.0043799002 -0.0068085999 0.073082998 4278190080
-0.0032639999 -0.0073779002 0.079227 4278190080
0.0053186002 -0.01308 0.068547003 4278190080
-0.016534001 0.027507 0.071702003 4278190080
-0.0098730996 0.028429 0.074445002 4278190080
0.0063900999 -0.0096477 0.07564 4278190080
0.015303 -0.0074725002 0.078455001 4278190080
-0.0078605004 0.028306 0.080045 4278190080
0.10229 0.022522001 0.20699 4278190080
-0.027995 0.016842 0.047437999 4278190080
-0.0085258 0.023875 0.047710001 4278190080
-0.0055451998 0.022798 0.043279 4278190080
-0.014754 0.017669 0.040913999 4278190080
-0.013164 0.019683 0.048099 4278190080
0.10444 0.014725 0.20701 4278190080
0.11589 0.014593 0.20147 4278190080
0.1076 0.019358 0.21021 4278190080
0.1127 0.017348999 0.2076 4278190080
0.10661 0.0043020002 0.20299 4278190080
0.10334 0.0050817002 0.20977999 4278190080
0.11459 0.0048149 0.20353 4278190080
0.10747 0.0058026998 0.20920999 4278190080
-0.0099603999 -0.017956 0.081520997 4278190080
0.00087286998 0.0048942999 0.24463999 4278190080
0.0050897002 0.0052767 0.24695 4278190080
0.014532 -0.015845001 0.071925998 4278190080
-0.01277 -0.0046937 0.16046999 4278190080
-0.016093999 -0.002044 0.17011 4278190080
-0.011648 -0.010461 0.16808 4278190080
-0.0083421003 -0.018874999 0.15688001 4278190080
-0.0081417002 -0.019165 0.16416 4278190080
-0.010723 -0.011733 0.17241 4278190080
0.015373 0.0058174999 0.068669997 4278190080
0.018529 0.0058570998 0.072562002 4278190080
0.016417 0.0032164 0.074065998 4278190080
0.01616 0.00045973001 0.069160998 4278190080
-0.0060855998 0.00099819002 0.15632001 4278190080
-0.0040221 -0.0010077 0.16148999 4278190080
-0.0014973 0.001193 0.16114999 4278190080
0.016015001 0.0074867001 0.074470997 4278190080
0.017502001 0.0059362999 0.076877996 4278190080
0.0056753 -0.0033459 0.16281 4278190080
0.020238001 0.0034373 0.076834999 4278190080
0.020547999 0.0057728998 0.077276997 4278190080
0.00050068001 -0.0074153999 0.16456001 4278190080
0.026992001 0.0057648001 0.080761001 4278190080
0.01482 0.00077628001 0.15953 4278190080
0.0080343001 -0.00023758999 0.16161001 4278190080
0.0092134997 0.0014694 0.1673 4278190080
0.020400999 -0.0012501 0.069406003 4278190080
0.020144001 -0.0016107 0.076098002 4278190080
0.026094001 0.0059608999 0.069142997 4278190080
0.027369 0.0059608999 0.068608001 4278190080
0.027369 0.0038218 0.069142997 4278190080
0.027369 0.0059608999 0.071131997 4278190080
0.028291 0.0059608999 0.069142997 4278190080
0.02898 -0.00036912999 0.073974997 4278190080
0.025553999 -0.0039889002 0.068484999 4278190080
0.02703 -0.0038484 0.075525001 4278190080
-0.010149 0.01891 0.042135 4278190080
0.030259 -0.0020198999 0.077490002 4278190080
0.025612 -0.0065079001 0.069986001 4278190080
-0.026172999 0.019179 0.055867001 4278190080
0.021716001 -0.016983001 0.073899999 4278190080
-0.017127 0.022764999 0.051174998 4278190080
0.027976001 -0.02341 0.043191999 4278190080
-0.011214 0.025622999 0.051038001 4278190080
0.029286001 -0.028153 0.047086 4278190080
0.021964001 -0.025861001 0.051318999 4278190080
-0.010781 0.024123 0.054320998 4278190080
-0.012594 0.022143999 0.056850001 4278190080
-0.0077582002 0.019873001 0.056993 4278190080
0.027541 -0.027639 0.055140998 4278190080
-0.0064995 0.018168001 0.053369001 4278190080
-0.028922999 0.01362 0.041062001 4278190080
0.032214999 -0.0295 0.050076 4278190080
-0.025878999 0.011211 0.038362999 4278190080
-0.028771 0.010986 0.044675 4278190080
-0.029018 0.013898 0.047231 4278190080
-0.026648 0.014348 0.047001999 4278190080
0.031045999 -0.03049 0.058699001 4278190080
-0.025574001 0.010901 0.050535999 4278190080
-0.028945999 0.0094232997 0.043001998 4278190080
0.037643 -0.025707001 0.040982001 4278190080
-0.026531 0.0086088004 0.0418 4278190080
0.047972001 -0.026951 0.040796999 4278190080
-0.0082483003 0.012634 0.03768 4278190080
0.039779998 -0.026569 0.046812002 4278190080
-0.028650999 0.012147 0.051876999 4278190080
0.038686 -0.029627999 0.053660002 4278190080
-0.025219001 0.0091690999 0.053789999 4278190080
-0.025165999 0.0096538998 0.05971 4278190080
-0.030091001 0.0092984 0.051316999 4278190080
0.048431002 -0.029259 0.052248999 4278190080
-0.026985999 0.0080121998 0.058662001 4278190080
-0.012357 0.011786 0.051555999 4278190080
0.042509999 -0.032636002 0.060010001 4278190080
-0.011875 0.015897 0.058522999 4278190080
0.058635999 -0.025087001 0.046264 4278190080
0.060139999 -0.028108999 0.051061001 4278190080
0.054905999 -0.031061999 0.056336999 4278190080
-0.0050834999 0.025411 0.050501999 4278190080
0.051787 -0.031017 0.065475002 4278190080
-0.00045863001 0.019493001 0.044624001 4278190080
-0.0037866 0.017952999 0.040130001 4278190080
-0.00057552999 0.015137 0.041901998 4278190080
0.016349001 -0.020226 0.062068 4278190080
-0.0027342001 0.020966001 0.051645 4278190080
0.022546001 -0.028169001 0.061574999 4278190080
-0.00033132001 0.015623 0.046190999 4278190080
0.023 -0.016240999 0.080559999 4278190080
0.025014 -0.027031999 0.066803001 4278190080
-0.025846999 0.017471001 0.065973997 4278190080
0.029053001 -0.029397 0.068847001 4278190080
0.034184001 -0.030096 0.063607 4278190080
-0.015992999 0.023957999 0.065540001 4278190080
0.028546 -0.027403999 0.077575997 4278190080
-0.0076585002 0.0233 0.063235 4278190080
0.031482 -0.028669 0.077655002 4278190080
-0.011061 0.023212001 0.068586998 4278190080
-0.010432 0.018956 0.066174999 4278190080
-0.02648 0.024737 0.074878998 4278190080
0.040127002 -0.032667 0.071529001 4278190080
-0.022158001 0.016237 0.081212997 4278190080
-0.019809 0.0092869997 0.073634997 4278190080
0.045271002 -0.030556999 0.066019997 4278190080
-0.01106 0.021145999 0.072686002 4278190080
-0.015331 0.019526999 0.075227998 4278190080
-0.010812 0.023979999 0.076640002 4278190080
0.045832001 -0.032280002 0.077500999 4278190080
-0.01516 0.014391 0.074432999 4278190080
-0.028162001 0.011258 0.060949001 4278190080
-0.02651 0.0099702999 0.068283997 4278190080
-0.030928999 0.01358 0.065527998 4278190080
-0.029441999 0.0083098998 0.059025001 4278190080
-0.024605 0.008529 0.061439 4278190080
-0.023992 0.008529 0.060295999 4278190080
-0.023992 0.0088314004 0.061439 4278190080
-0.023992 0.0073453998 0.061439 4278190080
-0.023917999 0.008529 0.061439 4278190080
-0.023992 0.008529 0.062065002 4278190080
-0.024131 0.010261 0.066545002 4278190080
-0.014601 0.011943 0.062164001 4278190080
-0.030428 0.010033 0.070476003 4278190080
-0.018229 0.0036289999 0.078144997 4278190080
0.022502 0.010944 0.078082003 4278190080
0.027369 0.0063598999 0.069142997 4278190080
0.010575 -0.0056532999 0.16364001 4278190080
-0.0012344 -0.0089049004 0.15721001 4278190080
0.0032056 -0.012003 0.15807 4278190080
-0.013682 -0.0052705002 0.18357 4278190080
-0.017480001 -0.0023242999 0.18978 4278190080
-0.017043 -0.0069177002 0.19817001 4278190080
-0.014612 -0.0097434996 0.18973 4278190080
-0.0075007002 -0.020733999 0.19104999 4278190080
-0.00074413 -0.025751 0.20022 4278190080
0.019489 0.0046998998 0.16989 4278190080
0.018337 -0.00011826 0.16932 4278190080
0.016008001 -0.0065814001 0.16114999 4278190080
0.024803 -0.0035775001 0.15922 4278190080
0.027756 -4.9597998e-05 0.15579 4278190080
0.031479999 0.0034618 0.16134 4278190080
0.031544 -0.0010039 0.16041 4278190080
0.025359999 0.0040095998 0.16785 4278190080
0.031755 -0.0054115001 0.15564001 4278190080
-0.023475001 0.0014832 0.20527001 4278190080
-0.018244 -0.0090562003 0.20728999 4278190080
-0.020391 -0.0043573999 0.20963 4278190080
-0.016044 0.0037142001 0.20396 4278190080
-0.017935 0.0011083001 0.20321999 4278190080
-0.01471 9.8257997e-06 0.20494001 4278190080
-0.015502 -0.0017433 0.20524999 4278190080
-0.01372 -0.0017433 0.20367999 4278190080
-0.01372 -0.0011973 0.20524999 4278190080
-0.01372 -0.0032178001 0.20524999 4278190080
-0.013635 -0.0017433 0.20524999 4278190080
-0.01372 -0.0017433 0.20542 4278190080
-0.013738 -0.0043112999 0.20782 4278190080
-0.01372 -0.0043112999 0.20747 4278190080
-0.01372 -0.0032327999 0.20782 4278190080
-0.015817 -0.0043112999 0.21039 4278190080
-0.01372 -0.0028927 0.21039 4278190080
-0.012924 -0.0043112999 0.20782 4278190080
-0.013667 -0.0043112999 0.21039 4278190080
-0.023965999 -0.0024391001 0.21575999 4278190080
-0.012056 0.0037064999 0.21866 4278190080
-0.011971 -0.0036648 0.21653 4278190080
-0.0074064001 -0.0012338 0.21832 4278190080
-0.015724 -0.0043112999 0.21295001 4278190080
-0.01372 -0.0018503 0.21295001 4278190080
-0.014107 -0.0043112999 0.21551999 4278190080
-0.01372 -0.0022396001 0.21551999 4278190080
-0.012886 -0.0043112999 0.21295001 4278190080
-0.011761 -0.0043112999 0.21551999 4278190080
-0.01372 -0.0043112999 0.21611001 4278190080
-0.013863 -0.0032230001 0.22312 4278190080
-0.020996001 -0.010089 0.20803 4278190080
-0.024863999 -0.010378 0.20879 4278190080
-0.024192 -0.016395001 0.20784 4278190080
-0.022801001 -0.017117999 0.20463 4278190080
-0.021031 -0.016936 0.20793 4278190080
-0.020098001 -0.014465 0.21123999 4278190080
-0.011658 -0.0068792999 0.20268001 4278190080
-0.011152 -0.0068792999 0.20175999 4278190080
-0.011152 -0.0057472 0.20268001 4278190080
-0.0095410999 -0.0068792999 0.20268001 4278190080
-0.012692 -0.0068792999 0.20524999 4278190080
-0.011152 -0.0051079001 0.20524999 4278190080
-0.0093785003 -0.0068792999 0.20524999 4278190080
-0.011152 -0.0078827003 0.20268001 4278190080
-0.011152 -0.0086283004 0.20524999 4278190080
-0.010598 -0.0094474005 0.20524999 4278190080
-0.0085835997 -0.0094474005 0.20337 4278190080
-0.0085835997 -0.0073118 0.20524999 4278190080
-0.01372 -0.0043696002 0.20782 4278190080
-0.01372 -0.0043863999 0.21039 4278190080
-0.012125 -0.0068792999 0.20782 4278190080
-0.011152 -0.0062020998 0.20782 4278190080
-0.010682 -0.0068792999 0.20782 4278190080
-0.011152 -0.0068792999 0.20794 4278190080
-0.011152 -0.0075667999 0.20782 4278190080
-0.0085835997 -0.0094474005 0.20689 4278190080
-0.0096399998 -0.018009 0.20303001 4278190080
-0.0085835997 -0.0099219996 0.20524999 4278190080
-0.013919 -0.014898 0.2112 4278190080
-0.024460999 -0.0099489 0.21348 4278190080
-0.026116 -0.01336 0.22104999 4278190080
-0.021708 -0.0076623 0.21887 4278190080
-0.020508001 -0.0095923003 0.21862 4278190080
-0.019067001 -0.014509 0.21887 4278190080
-0.024606001 -0.013694 0.21747001 4278190080
-0.022569001 -0.015689 0.22077 4278190080
-0.01372 -0.0052816002 0.21295001 4278190080
-0.01372 -0.0048842002 0.21551999 4278190080
-0.014737 -0.0087174 0.21893001 4278190080
-0.010937 -0.012369 0.21839 4278190080
-0.014613 -0.012803 0.21511 4278190080
-0.0037435 0.0016918 0.20896 4278190080
0.0058057001 0.0048976 0.20773 4278190080
-0.0018247 -0.0022264 0.20999999 4278190080
0.0015365999 -0.0066887001 0.21025001 4278190080
0.0045908 -0.0010465001 0.21156 4278190080
