# .PCD v0.7 - Point Cloud Data file format
VERSION 0.7
FIELDS x y z rgba
SIZE 4 4 4 4
TYPE F F F U
COUNT 1 1 1 1
WIDTH 423
HEIGHT 1
VIEWPOINT 0 0 0 1 0 0 0
POINTS 423
DATA ascii
0.095918 -0.031067001 0.12382 4278190080
0.090602003 -0.034483001 0.13973001 4278190080
0.095592998 -0.032196 0.15628 4278190080
0.111 -0.0069116 0.12749 4278190080
0.10869 -0.01857 0.13781001 4278190080
0.11329 -0.0083921999 0.15526 4278190080
0.1108 -0.017363001 0.15857001 4278190080
0.10508 -0.021935999 0.12059 4278190080
0.1013 -0.027453 0.13788 4278190080
0.10518 -0.025891 0.16188 4278190080
0.065370999 -0.040623002 0.075839996 4278190080
0.066319004 -0.041230999 0.087826997 4278190080
0.069178998 -0.041216001 0.1033 4278190080
0.051729001 -0.043528002 0.097010002 4278190080
0.075355001 -0.036717001 0.072458997 4278190080
0.081274003 -0.036341999 0.099449001 4278190080
0.060013 -0.042792 0.11618 4278190080
0.073697001 -0.040934999 0.11722 4278190080
0.084045999 -0.037037 0.12358 4278190080
0.058456 -0.043659002 0.13991 4278190080
0.052983001 -0.044417001 0.12913001 4278190080
0.073996998 -0.041395001 0.13589001 4278190080
0.062289 -0.042913001 0.15211999 4278190080
0.056370001 0.074363999 0.078635 4278190080
0.065194003 0.071043998 0.083737999 4278190080
0.077624001 -0.040532999 0.14636 4278190080
0.075585 0.066427998 0.098971002 4278190080
0.088595003 -0.035613999 0.16027001 4278190080
0.065072 0.073207997 0.10966 4278190080
0.060047999 0.077256002 0.12938 4278190080
0.073593996 0.070216998 0.12762 4278190080
0.062047999 0.061556999 0.087347001 4278190080
0.065793999 0.058711 0.083403997 4278190080
0.068855003 0.057751 0.090026997 4278190080
0.062628999 0.061599001 0.10135 4278190080
0.074304998 0.050436001 0.077514 4278190080
0.074711002 0.051964998 0.086029001 4278190080
0.080417 0.061926998 0.089938 4278190080
0.092818998 0.049988002 0.096718997 4278190080
0.075479001 0.046046 0.089116 4278190080
0.087687999 0.054189 0.084730998 4278190080
0.074667998 0.054699 0.10609 4278190080
0.068873003 0.060116 0.1124 4278190080
0.072228 0.057787001 0.11685 4278190080
0.086167999 0.059558999 0.11585 4278190080
0.090264 0.055183999 0.12035 4278190080
0.097465999 0.045575999 0.11825 4278190080
0.056097001 0.079516999 0.13689999 4278190080
0.066385001 0.075700998 0.1427 4278190080
0.078639001 0.068056002 0.13901 4278190080
0.058561999 0.079194002 0.15507001 4278190080
0.075718999 0.071574003 0.15875 4278190080
0.083180003 0.065279 0.15549999 4278190080
0.071887001 0.060323 0.14029001 4278190080
0.088210002 0.058860999 0.13213 4278190080
0.090976 0.057046 0.14608 4278190080
0.097373001 0.048680998 0.14364 4278190080
0.068357997 0.062889002 0.15408 4278190080
0.042275999 0.082323 0.16227999 4278190080
0.037971999 0.082312003 0.17668 4278190080
0.070440002 0.063451 0.16122 4278190080
0.053236 0.081634 0.1612 4278190080
0.046349999 0.084509 0.18147001 4278190080
0.051801 0.082897998 0.17515001 4278190080
0.080572002 0.053566001 0.16298001 4278190080
0.076164 0.057461001 0.14974999 4278190080
0.080265999 0.052956 0.15411 4278190080
0.086372003 0.046843 0.16108 4278190080
0.097966999 0.049217001 0.16372 4278190080
0.037002001 0.086988002 0.19141001 4278190080
0.10033 0.044946 0.13451999 4278190080
0.097855002 0.049484 0.15397 4278190080
0.057925999 0.083578996 0.19724 4278190080
0.028415 0.091838002 0.20479 4278190080
0.029891999 0.091366999 0.20909999 4278190080
0.049593002 0.076747 0.20147 4278190080
0.027952 0.08602 0.21353 4278190080
0.034921002 0.085355997 0.21452001 4278190080
0.052696999 0.086735003 0.20525999 4278190080
0.045398999 0.087993003 0.20897 4278190080
0.051941998 0.072811998 0.18695 4278190080
0.097113997 0.042769998 0.088725001 4278190080
-0.023094 0.075369 0.020127 4278190080
0.1019 0.033443 0.089671001 4278190080
0.098546997 0.041496001 0.10469 4278190080
0.10446 0.016594 0.080031 4278190080
0.10297 0.034584001 0.10646 4278190080
0.10378 0.035909999 0.11813 4278190080
0.1075 0.020919999 0.10994 4278190080
0.015998 0.083843 0.035789002 4278190080
0.029981 0.082589999 0.21254 4278190080
0.041542001 0.079109997 0.20935 4278190080
0.036981001 0.080200002 0.21277 4278190080
0.054474998 0.085170999 0.20929 4278190080
0.045205001 0.081224002 0.21394999 4278190080
0.052526001 0.078640997 0.21332 4278190080
0.057077002 0.075167 0.20973 4278190080
-0.017488001 0.022198999 0.17327 4278190080
0.10556 0.031592 0.11861 4278190080
0.10736 0.013767 0.10175 4278190080
0.10765 0.0092869997 0.088839002 4278190080
0.019400001 0.082249001 0.027371 4278190080
0.10847 -0.0047614998 0.10058 4278190080
0.042105 0.076953001 0.041074 4278190080
0.024719 0.071755998 0.029072 4278190080
0.03658 0.067988999 0.025242999 4278190080
0.11053 0.0088879997 0.12111 4278190080
0.033124998 0.070358001 0.036022 4278190080
0.040201999 0.077232003 0.030003 4278190080
0.053066999 0.072284997 0.030474 4278190080
0.059852 0.068540998 0.023628 4278190080
0.041632 0.067341 0.031217 4278190080
0.093134001 0.034635 0.16455001 4278190080
0.056986999 0.059450999 0.022802001 4278190080
0.050914001 0.061873998 0.02743 4278190080
0.049570002 0.064952999 0.041839 4278190080
-0.0049610999 0.087603003 0.060651999 4278190080
0.10847 0.03039 0.1427 4278190080
0.10424 0.037393 0.15627 4278190080
0.10934 0.027473001 0.15781 4278190080
0.11219 0.0056743999 0.13500001 4278190080
0.11174 0.016793 0.15696 4278190080
0.011634 0.086824998 0.063872002 4278190080
-0.019951999 -0.0054322002 0.021465 4278190080
0.016031999 0.0038103999 0.20137 4278190080
-0.0095491996 -0.018516 0.023938 4278190080
-0.013122 -0.015845001 0.033218 4278190080
0.066169001 0.078717999 0.17826 4278190080
0.062596001 0.066333003 0.16354001 4278190080
0.065517999 0.066850998 0.17355999 4278190080
0.072719 0.075705998 0.18232 4278190080
0.067056999 0.081132002 0.20419 4278190080
0.0050650998 -0.030197 0.028295999 4278190080
0.062284 0.069853 0.18296 4278190080
0.063660003 0.070355996 0.19140001 4278190080
0.064612001 0.070049003 0.19908001 4278190080
0.080412 0.072907999 0.20370001 4278190080
-0.0039029 -0.022793001 0.033165 4278190080
0.071089 0.062918998 0.17398 4278190080
0.088921003 0.061896998 0.17049 4278190080
0.09448 0.056536 0.17639001 4278190080
0.081376001 0.053730998 0.17388999 4278190080
0.080012999 0.056795999 0.1779 4278190080
0.040775999 -0.030267 0.021003 4278190080
0.085368998 0.066215001 0.18268 4278190080
0.088267997 0.04504 0.17485 4278190080
0.024991 -0.027615 0.027223 4278190080
0.088639997 0.048273001 0.18561999 4278190080
0.071975 0.063887998 0.18854 4278190080
0.032616999 -0.029891999 0.02768 4278190080
0.078900002 0.061179001 0.20275 4278190080
0.081840001 0.056391001 0.18821999 4278190080
0.038477 -0.028457001 0.026335999 4278190080
0.051256001 -0.028294999 0.025175 4278190080
0.024805 0.082442001 0.044872999 4278190080
0.037872002 -0.030121 0.032731 4278190080
0.093052998 0.060688 0.20175999 4278190080
0.044695999 -0.031243 0.027957 4278190080
0.058240999 -0.02932 0.028822999 4278190080
0.036469001 0.080279 0.059989002 4278190080
0.085965998 0.052769002 0.1971 4278190080
0.028981 0.071226001 0.043760002 4278190080
0.024752 0.072543003 0.052654002 4278190080
0.091429003 0.045596 0.20444 4278190080
0.020284001 0.073270999 0.060789 4278190080
0.035073001 0.070595004 0.052765001 4278190080
0.10113 0.048815001 0.19083001 4278190080
0.054788001 0.074234001 0.058424 4278190080
0.10284 0.046094 0.20173 4278190080
0.041875999 0.067387 0.044732001 4278190080
0.062284 0.069394998 0.049628999 4278190080
0.065380998 0.080794998 0.2079 4278190080
0.047756001 0.066260003 0.055909999 4278190080
0.063135996 0.077661 0.21109 4278190080
0.063782997 0.072467998 0.21077999 4278190080
0.079842001 0.071340002 0.20809001 4278190080
0.070297003 0.070964999 0.2113 4278190080
0.068245001 0.068911999 0.2104 4278190080
0.077541001 0.066730998 0.21156999 4278190080
0.090754002 0.062056001 0.20688 4278190080
0.075342998 0.063909002 0.21025001 4278190080
0.079609998 0.059909001 0.21184 4278190080
0.084853001 0.055403002 0.20987999 4278190080
0.086709 0.059057999 0.21148001 4278190080
0.097122997 0.05198 0.20728999 4278190080
0.038428999 0.069789 0.062024999 4278190080
0.090244003 0.048847999 0.21003 4278190080
0.093845002 0.049793001 0.21063 4278190080
0.094163001 0.042711001 0.21064 4278190080
0.047104999 0.067538001 0.066097997 4278190080
0.10588 0.038199 0.20740999 4278190080
0.093240999 0.036908999 0.17304 4278190080
0.094515003 0.030706 0.17179 4278190080
0.057700999 0.062183 0.057383999 4278190080
0.092942998 0.039845001 0.18222 4278190080
0.095526002 0.037903 0.19422001 4278190080
0.097462997 0.030199001 0.1841 4278190080
0.10682 0.032573 0.16818 4278190080
0.10771 0.033937 0.18440001 4278190080
0.11039 0.022621 0.16581 4278190080
0.10146 0.02036 0.1811 4278190080
0.11164 0.029747 0.20181 4278190080
0.099206001 0.027894 0.18946999 4278190080
-0.012648 -0.015916999 0.050099 4278190080
0.10192 0.016679 0.17462 4278190080
0.11405 0.01388 0.18628 4278190080
0.11364 0.0025905999 0.16053 4278190080
0.097658999 0.037838999 0.21184 4278190080
0.10229 0.03449 0.21063 4278190080
0.098387003 0.033089001 0.20805 4278190080
0.10096 0.029491 0.21056999 4278190080
0.10587 0.026851 0.21117 4278190080
-0.0069058002 -0.020048 0.041501001 4278190080
0.10416 0.020927001 0.21133 4278190080
0.0021319999 -0.028438 0.053109001 4278190080
0.011313 -0.034965999 0.058736 4278190080
0.0013377001 -0.027997 0.068005003 4278190080
0.014544 -0.035579 0.071345001 4278190080
0.013593 -0.03545 0.087576002 4278190080
-0.01129 -0.016111 0.17958 4278190080
0.068108998 0.063957997 0.028655 4278190080
-0.0001794 -0.025644001 0.16237 4278190080
-1.2815e-06 -0.026381999 0.18729 4278190080
0.0041621001 -0.030095 0.17383 4278190080
0.077237003 0.056607999 0.020932 4278190080
0.013821 -0.035638999 0.15948001 4278190080
0.057714 0.059466001 0.033339001 4278190080
0.0045604999 -0.030905001 0.19162001 4278190080
0.063426003 0.054922 0.026668999 4278190080
0.073031001 0.049538001 0.030879 4278190080
0.072678 0.049201 0.044539001 4278190080
0.080022 0.055204 0.029314 4278190080
0.011359 -0.035296999 0.1954 4278190080
0.085830003 0.048046999 0.029177001 4278190080
0.084040999 0.052347001 0.042750001 4278190080
0.077912003 0.043976001 0.038337 4278190080
0.068241 0.067721002 0.058993001 4278190080
0.062959 0.057263002 0.043097001 4278190080
0.077473998 0.059429001 0.046472002 4278190080
0.069273002 0.054544002 0.052468002 4278190080
0.068085998 0.056547999 0.059434 4278190080
0.073509 0.064032003 0.055555999 4278190080
0.032483 -0.040222 0.021224 4278190080
0.012376 -0.034605 0.041219 4278190080
0.025947999 -0.040918 0.050508998 4278190080
0.073834002 0.051329002 0.063175999 4278190080
0.035285 -0.041836999 0.034658998 4278190080
0.051893 -0.041184999 0.04129 4278190080
0.085992001 0.052368999 0.053002 4278190080
0.092918001 0.043120001 0.057078999 4278190080
0.059709001 0.061590999 0.073546 4278190080
0.073651001 0.064511999 0.067397997 4278190080
0.087351002 0.053015999 0.075567998 4278190080
0.086434998 0.053739 0.064590998 4278190080
0.078644 0.047552001 0.061836001 4278190080
0.019954 -0.038155001 0.053066999 4278190080
0.080911003 0.035712 0.022282001 4278190080
0.044282999 -0.042323999 0.048710998 4278190080
0.083122998 0.029424001 0.020706 4278190080
0.045818001 -0.043014999 0.058718 4278190080
0.093161002 0.035482001 0.033153001 4278190080
0.024581 -0.040385 0.064999998 4278190080
0.082907997 0.032582 0.030832 4278190080
0.031808 -0.04208 0.072998002 4278190080
0.022213001 -0.039871 0.091799997 4278190080
0.087711997 0.024755999 0.039905999 4278190080
0.046859998 -0.043051999 0.073785998 4278190080
0.086984001 0.021152999 0.02963 4278190080
0.085781001 0.023937 0.020493001 4278190080
0.087715998 -0.0019662001 0.024602 4278190080
0.089741997 0.017531 0.038252998 4278190080
0.088367 0.010754 0.027753999 4278190080
0.087311998 -0.0076985001 0.026384 4278190080
0.090172999 0.0025253999 0.034942999 4278190080
0.079524003 -0.017253 0.024715001 4278190080
0.083420001 -0.015224 0.029847 4278190080
0.097672001 0.0087235002 0.023247 4278190080
0.046698 -0.023531999 0.21919 4278190080
0.043161999 -0.028125999 0.22002999 4278190080
0.066269003 -0.024369 0.025427001 4278190080
0.097741 0.018144 0.028574999 4278190080
0.073524997 -0.021849001 0.027285 4278190080
0.049415 -0.033431001 0.22044 4278190080
0.070609003 -0.023511 0.037450001 4278190080
0.060178 -0.027471 0.023773 4278190080
0.061469 -0.038623001 0.027454 4278190080
0.072575003 -0.034426 0.026748 4278190080
0.099551 0.012018 0.038919002 4278190080
0.042670999 -0.033245999 0.22222 4278190080
0.083209001 0.036431 0.044617999 4278190080
0.092368998 0.039531998 0.041650001 4278190080
0.028813001 -0.041258998 0.16376001 4278190080
0.092077002 -0.018747 0.02407 4278190080
0.078456998 0.044381 0.051006999 4278190080
0.030854 -0.042073 0.1741 4278190080
0.020786 -0.039209001 0.18469 4278190080
0.084501997 0.035271998 0.051603001 4278190080
0.097592004 -0.017538 0.044948 4278190080
0.083364002 -0.028188 0.027720001 4278190080
0.045451 -0.044277001 0.16394 4278190080
0.083645999 -0.029231999 0.041191 4278190080
0.090195999 0.023886001 0.050310001 4278190080
0.039133001 -0.044126 0.18731 4278190080
0.053072002 -0.042934 0.18467 4278190080
0.096198 0.037682001 0.066008002 4278190080
0.037893999 -0.043565001 0.20782 4278190080
0.021544 -0.040670998 0.20838 4278190080
0.090544 0.015288 0.053203002 4278190080
0.090544 0.0075595002 0.042688001 4278190080
0.092321999 0.0080650002 0.046904001 4278190080
0.050035998 -0.043880999 0.19405 4278190080
0.049258001 -0.044330999 0.20596001 4278190080
0.091017 0.0023276 0.061593998 4278190080
0.09866 0.024966 0.047616001 4278190080
0.10027 0.027644999 0.064529002 4278190080
0.035622999 -0.040050998 0.21762 4278190080
0.047238 -0.042204998 0.21577001 4278190080
0.10208 0.011437 0.051828001 4278190080
0.052985001 -0.041599002 0.21635 4278190080
0.099474996 -0.001144 0.035050999 4278190080
0.099457003 -0.010329 0.035868999 4278190080
0.12492 -0.011829 0.19153 4278190080
0.094006002 0.00013667 0.073761001 4278190080
0.088496998 -0.0064007998 0.064253002 4278190080
0.092154004 -0.012391 0.071177997 4278190080
0.091197997 -0.025831001 0.052749 4278190080
0.1174 -0.031782001 0.19873001 4278190080
0.12158 -0.025407 0.19604 4278190080
0.1194 -0.030921999 0.19419999 4278190080
0.084784999 -0.031693999 0.064291999 4278190080
0.068521 -0.027493 0.067594998 4278190080
0.087283 -0.017176 0.068396002 4278190080
0.076918997 -0.024521001 0.075672999 4278190080
0.084706999 -0.020241 0.08117 4278190080
0.095801003 -0.025473 0.081003003 4278190080
0.089515001 -0.031032 0.087389 4278190080
0.10231 0.00094807002 0.049538001 4278190080
0.10135 -0.010431 0.051879998 4278190080
0.10609 -0.00056696002 0.079249002 4278190080
0.1056 -0.0097684003 0.080782004 4278190080
0.069334999 -0.041455001 0.16979 4278190080
0.077968001 -0.040217999 0.16568001 4278190080
0.099253997 -0.018634001 0.060470998 4278190080
0.064179003 -0.043083999 0.17414001 4278190080
0.074623004 -0.040647 0.1895 4278190080
0.083832003 -0.037199002 0.17499 4278190080
0.061751999 -0.042748 0.18362001 4278190080
0.061895002 -0.044509999 0.2008 4278190080
0.036332998 0.081615999 0.11253 4278190080
0.047268 0.080701999 0.12534 4278190080
0.054625999 -0.040913001 0.030273 4278190080
0.061944 -0.038635001 0.038237002 4278190080
0.071268 -0.035498999 0.041846 4278190080
0.059898 -0.038259 0.22093 4278190080
0.062606998 -0.043049999 0.21487001 4278190080
0.064659998 -0.043411002 0.21935999 4278190080
0.068204999 -0.043083999 0.21794 4278190080
0.059919 -0.041057002 0.058681 4278190080
0.073362999 -0.036913 0.059005 4278190080
0.038993999 0.081110999 0.13813999 4278190080
0.040112998 0.080886997 0.12676001 4278190080
0.037884001 0.080719002 0.15167999 4278190080
0.027398 0.074922003 0.15491 4278190080
0.047185 0.081684999 0.1459 4278190080
0.0022831999 -0.028286999 0.085194997 4278190080
0.012552 -0.035482999 0.13892999 4278190080
0.0046382002 -0.030967999 0.14892 4278190080
0.017619001 -0.037946001 0.15559 4278190080
0.029168 -0.042415 0.092730001 4278190080
0.042957 -0.042727001 0.082001999 4278190080
0.051291 -0.042861 0.085879996 4278190080
0.052306 -0.043884002 0.11267 4278190080
0.047770999 -0.043568999 0.12234 4278190080
0.028441001 -0.041948002 0.15014 4278190080
0.036424998 -0.043120999 0.13948999 4278190080
0.040089 -0.044139002 0.12643 4278190080
0.046289001 -0.044254001 0.14791 4278190080
0.037774 -0.042371999 0.15851 4278190080
0.091297999 -0.016612001 0.086736001 4278190080
0.091738001 -0.014413 0.098499 4278190080
0.094130002 -0.0056460002 0.10573 4278190080
0.067052998 -0.029215001 0.081477001 4278190080
0.072323002 -0.027524 0.086658999 4278190080
0.064998999 -0.025471 0.091889001 4278190080
0.078249 -0.024266001 0.090855002 4278190080
0.084434003 -0.018394001 0.095435001 4278190080
0.091188997 -0.031925999 0.10944 4278190080
0.094387002 -0.0088611003 0.080494002 4278190080
0.10623 -0.012434 0.091094002 4278190080
0.094756998 -0.010208 0.094457 4278190080
0.10894 -0.013554 0.11894 4278190080
0.10176 -0.019063 0.084265001 4278190080
0.1017 -0.022934999 0.10218 4278190080
0.068562999 -0.029317999 0.1366 4278190080
0.053167999 0.0035985999 0.16824999 4278190080
0.040504001 0.0069983001 0.17668 4278190080
0.014894 0.010203 0.19027001 4278190080
0.025024001 0.0038123999 0.19427 4278190080
0.030661 -0.0076581999 0.2057 4278190080
0.042966999 -0.0065692002 0.19897 4278190080
0.042229999 -0.014202 0.20941 4278190080
0.048519 -0.020073 0.21561 4278190080
0.074524 -0.012363 0.17998999 4278190080
0.069634996 -0.0047737001 0.16944 4278190080
0.083342999 -0.0087483004 0.1674 4278190080
0.071484998 -0.016843 0.19017 4278190080
0.065159 -0.020519 0.20936 4278190080
0.059271999 -0.032641001 0.22059 4278190080
0.085656002 0.0023844 0.12056 4278190080
0.072458997 -0.019103 0.097576998 4278190080
0.079791002 -0.0044785002 0.11336 4278190080
0.081717998 -0.0089629004 0.10555 4278190080
0.072921999 -0.010595 0.11229 4278190080
0.069078997 -0.017814999 0.10535 4278190080
0.082915999 0.00165 0.13062 4278190080
0.086071 0.0011135 0.13984001 4278190080
0.079655997 -0.0035663 0.15781 4278190080
0.073593996 -0.0012342 0.13847999 4278190080
0.076392002 -0.0011475 0.14613 4278190080
0.034139998 0.0042375 0.18768001 4278190080
0.063322 -6.9446003e-05 0.15902001 4278190080
0.063322 -0.00047571 0.14875001 4278190080
0.062665001 -0.0096119996 0.18837 4278190080
