# .PCD v0.7 - Point Cloud Data file format
VERSION 0.7
FIELDS x y z rgba
SIZE 4 4 4 4
TYPE F F F U
COUNT 1 1 1 1
WIDTH 1205
HEIGHT 1
VIEWPOINT 0 0 0 1 0 0 0
POINTS 1205
DATA ascii
-1.6021802 -0.13674 2.7090001 9079697
-1.5970201 -0.13674 2.7090001 9079700
-1.5883343 -0.13643715 2.7030001 9145237
-1.5831857 -0.13643715 2.7030001 9211286
-1.572783 -0.13598286 2.6940002 9277591
-1.5728885 -0.13643715 2.7030001 9277592
-1.5712202 -0.13674 2.7090001 9343383
-1.5695286 -0.13704285 2.7150002 9343383
-1.5695429 -0.13749716 2.7240002 9408915
-1.5729686 -0.1382543 2.7390001 9474959
-1.5677515 -0.1382543 2.7390001 9607316
-1.4420086 -0.13431714 2.661 8946822
-1.43694 -0.13431714 2.661 9542049
-1.4318714 -0.13431714 2.661 10066333
-1.4268029 -0.13431714 2.661 9803673
-1.4217343 -0.13431714 2.661 9541017
-1.4166658 -0.13431714 2.661 9409433
-1.4115971 -0.13431714 2.661 9343385
-1.4065286 -0.13431714 2.661 9277593
-1.4014601 -0.13431714 2.661 9277592
-1.3963914 -0.13431714 2.661 9277335
-1.3944601 -0.13462001 2.6670003 9277077
-1.3862543 -0.13431714 2.661 9211540
-1.3811858 -0.13431714 2.661 9146260
-1.3761172 -0.13431714 2.661 9080981
-1.3664116 -0.13386287 2.6520002 9080981
-1.3613601 -0.13386287 2.6520002 9080726
-1.35324 -0.13356 2.6460001 9146265
-1.3482001 -0.13356 2.6460001 9146012
-1.3462058 -0.13386287 2.6520002 9211801
-1.3411543 -0.13386287 2.6520002 9080214
-1.336103 -0.13386287 2.6520002 9014678
-1.3310515 -0.13386287 2.6520002 9079959
-1.3260001 -0.13386287 2.6520002 9211028
-1.3209487 -0.13386287 2.6520002 9079697
-1.3203629 -0.13431714 2.661 8948625
-1.3152943 -0.13431714 2.661 8751506
-1.3102257 -0.13431714 2.661 8620432
-1.3051572 -0.13431714 2.661 8751503
-1.3000886 -0.13431714 2.661 8947855
-1.2950201 -0.13431714 2.661 8882576
-1.2899513 -0.13431714 2.661 8817041
-1.2848829 -0.13431714 2.661 8751506
-1.2827001 -0.13462001 2.6670003 8685971
-1.2776201 -0.13462001 2.6670003 8620949
-1.2754029 -0.13492286 2.6730001 8620933
-1.2745886 -0.13537715 2.6820002 6842742
-1.26948 -0.13537715 2.6820002 5137776
-1.2643715 -0.13537715 2.6820002 5200234
-1.259263 -0.13537715 2.6820002 5265252
-1.2541543 -0.13537715 2.6820002 5331551
-1.2518401 -0.13568 2.6880002 5397344
-1.2467201 -0.13568 2.6880002 5332065
-1.2416 -0.13568 2.6880002 5332066
-1.23648 -0.13568 2.6880002 5397859
-1.2313601 -0.13568 2.6880002 5463652
-1.2289772 -0.13598286 2.6940002 5398118
-1.2279344 -0.13643715 2.7030001 5398629
-1.2255001 -0.13674 2.7090001 5398629
-1.22034 -0.13674 2.7090001 5464165
-1.2178714 -0.13704285 2.7150002 5464166
-1.2127 -0.13704285 2.7150002 5464424
-1.2115314 -0.13749716 2.7240002 5529707
-1.2063429 -0.13749716 2.7240002 5594986
-1.2011544 -0.13749716 2.7240002 5463914
-1.1959658 -0.13749716 2.7240002 5398118
-1.1973343 -0.1382543 2.7390001 5856867
-1.1947286 -0.13855715 2.7450001 6317425
-1.1921 -0.13886 2.7510002 7241600
-1.1868601 -0.13886 2.7510002 8159361
-1.18162 -0.13886 2.7510002 8093059
-1.1802287 -0.13931429 2.76 8027520
-1.1749715 -0.13931429 2.76 8027261
-1.1722572 -0.13961715 2.7660003 8092795
-1.1707858 -0.14007144 2.7750001 8027001
-1.16802 -0.14037429 2.7810001 7961468
-1.1664858 -0.14082858 2.7900002 7961216
-1.1636686 -0.14113143 2.796 8026491
-1.1620715 -0.14158572 2.8050003 7960951
-1.1567286 -0.14158572 2.8050003 7960950
-1.1513858 -0.14158572 2.8050003 7895414
-1.1484944 -0.14188857 2.8110001 7830134
-1.1431401 -0.14188857 2.8110001 7829878
-1.1438572 -0.14264572 2.8260002 7829108
-1.1421001 -0.14310001 2.835 7829363
-1.1427143 -0.14385715 2.8500001 7829620
-1.1372857 -0.14385715 2.8500001 7764085
-1.1354315 -0.14431144 2.8590002 7698807
-1.1299858 -0.14431144 2.8590002 7829625
-1.12454 -0.14431144 2.8590002 7894902
-1.1214428 -0.14461429 2.8650002 7895923
-1.1159859 -0.14461429 2.8650002 7964805
-1.1140172 -0.14506857 2.8740001 8359064
-1.1085429 -0.14506857 2.8740001 8819085
-1.62798 -0.13158 2.7090001 7496015
-1.6228201 -0.13158 2.7090001 7170156
-1.61766 -0.13158 2.7090001 8159626
-1.6125001 -0.13158 2.7090001 9145228
-1.6109 -0.13187143 2.7150002 9145486
-1.6021802 -0.13158 2.7090001 9211025
-1.5970201 -0.13158 2.7090001 9211285
-1.5918601 -0.13158 2.7090001 9211286
-1.5867001 -0.13158 2.7090001 9211542
-1.578037 -0.13128856 2.7030001 9277590
-1.5728885 -0.13128856 2.7030001 9408919
-1.5712202 -0.13158 2.7090001 9539992
-1.5695286 -0.13187143 2.7150002 9540250
-1.5643573 -0.13187143 2.7150002 9606039
-1.5678002 -0.13259999 2.73 9606547
-1.5626001 -0.13259999 2.73 9673112
-1.4470772 -0.12924856 2.661 8091505
-1.4420086 -0.12924856 2.661 9539211
-1.43694 -0.12924856 2.661 9869733
-1.4318714 -0.12924856 2.661 10197152
-1.4268029 -0.12924856 2.661 9868443
-1.4217343 -0.12924856 2.661 9540505
-1.4166658 -0.12924856 2.661 9474712
-1.4115971 -0.12924856 2.661 9408664
-1.4065286 -0.12924856 2.661 9343128
-1.4014601 -0.12924856 2.661 9277591
-1.3963914 -0.12924856 2.661 9342614
-1.3913229 -0.12924856 2.661 9408149
-1.3862543 -0.12924856 2.661 9277076
-1.3811858 -0.12924856 2.661 9146004
-1.3714629 -0.12881143 2.6520002 9080981
-1.3664116 -0.12881143 2.6520002 9080725
-1.3582801 -0.12852 2.6460001 9080725
-1.35324 -0.12852 2.6460001 9146008
-1.3482001 -0.12852 2.6460001 9146011
-1.34316 -0.12852 2.6460001 9146009
-1.3411543 -0.12881143 2.6520002 9146007
-1.336103 -0.12881143 2.6520002 9145751
-1.3310515 -0.12881143 2.6520002 9210776
-1.3260001 -0.12881143 2.6520002 9276308
-1.3209487 -0.12881143 2.6520002 9145233
-1.3203629 -0.12924856 2.661 9013905
-1.3152943 -0.12924856 2.661 8882578
-1.3102257 -0.12924856 2.661 8751504
-1.3051572 -0.12924856 2.661 8751759
-1.3000886 -0.12924856 2.661 8817296
-1.2950201 -0.12924856 2.661 8751762
-1.2899513 -0.12924856 2.661 8751506
-1.2848829 -0.12924856 2.661 8685970
-1.2827001 -0.12954001 2.6670003 8685715
-1.2804942 -0.12983143 2.6730001 8620948
-1.2754029 -0.12983143 2.6730001 8554883
-1.2745886 -0.13026857 2.6820002 6776434
-1.26948 -0.13026857 2.6820002 5070697
-1.2672001 -0.13056001 2.6880002 5200224
-1.259263 -0.13026857 2.6820002 5331296
-1.25696 -0.13056001 2.6880002 5397344
-1.2518401 -0.13056001 2.6880002 5528416
-1.2467201 -0.13056001 2.6880002 5397856
-1.2416 -0.13056001 2.6880002 5332320
-1.23648 -0.13056001 2.6880002 5398113
-1.2313601 -0.13056001 2.6880002 5463650
-1.2330828 -0.13128856 2.7030001 5463652
-1.2306601 -0.13158 2.7090001 5463909
-1.2282143 -0.13187143 2.7150002 5464422
-1.2230428 -0.13187143 2.7150002 5463910
-1.2219087 -0.13230857 2.7240002 5463911
-1.21672 -0.13230857 2.7240002 5529448
-1.2115314 -0.13230857 2.7240002 5529449
-1.2063429 -0.13230857 2.7240002 5594985
-1.2011544 -0.13230857 2.7240002 5398377
-1.1986001 -0.13259999 2.73 5201769
-1.1973343 -0.13303715 2.7390001 5922666
-1.1947286 -0.13332857 2.7450001 6645106
-1.1895001 -0.13332857 2.7450001 7307130
-1.190743 -0.13405713 2.76 7962492
-1.1854858 -0.13405713 2.76 8027519
-1.1802287 -0.13405713 2.76 8093054
-1.1749715 -0.13405713 2.76 8093052
-1.1722572 -0.13434857 2.7660003 8092794
-1.1707858 -0.13478571 2.7750001 8027257
-1.1655 -0.13478571 2.7750001 8026747
-1.1664858 -0.13551429 2.7900002 8026494
-1.1636686 -0.13580573 2.796 8026491
-1.1620715 -0.13624287 2.8050003 7960952
-1.1567286 -0.13624287 2.8050003 7960950
-1.1513858 -0.13624287 2.8050003 7960948
-1.1484944 -0.1365343 2.8110001 7960947
-1.1431401 -0.1365343 2.8110001 7895410
-1.1438572 -0.13726285 2.8260002 7895155
-1.1421001 -0.13770001 2.835 7829619
-1.1427143 -0.13842857 2.8500001 7829620
-1.1408772 -0.13886572 2.8590002 7764342
-1.1354315 -0.13886572 2.8590002 7698549
-1.1299858 -0.13886572 2.8590002 7698292
-1.12454 -0.13886572 2.8590002 7763563
-1.1190944 -0.13886572 2.8590002 7566947
-1.1159859 -0.13915715 2.8650002 7370611
-1.1140172 -0.13959429 2.8740001 7895172
-1.1085429 -0.13959429 2.8740001 8422015
-1.62798 -0.12641999 2.7090001 7299905
-1.6228201 -0.12641999 2.7090001 6906212
-1.61766 -0.12641999 2.7090001 7961480
-1.6125001 -0.12641999 2.7090001 8948362
-1.6109 -0.1267 2.7150002 9079693
-1.6021802 -0.12641999 2.7090001 9145490
-1.5970201 -0.12641999 2.7090001 9145751
-1.5918601 -0.12641999 2.7090001 9212055
-1.5831857 -0.12614001 2.7030001 9277591
-1.578037 -0.12614001 2.7030001 9343382
-1.5728885 -0.12614001 2.7030001 9474710
-1.5712202 -0.12641999 2.7090001 9671834
-1.5695286 -0.1267 2.7150002 9737630
-1.5695429 -0.12712002 2.7240002 9803419
-1.5729686 -0.12782001 2.7390001 9803928
-1.5677515 -0.12782001 2.7390001 9869981
-1.5659571 -0.12810001 2.7450001 9935522
-1.5607285 -0.12810001 2.7450001 10001017
-1.5554999 -0.12810001 2.7450001 8159057
-1.4470772 -0.12418 2.661 8225144
-1.4420086 -0.12418 2.661 9803920
-1.43694 -0.12418 2.661 9869737
-1.4318714 -0.12418 2.661 9934755
-1.4268029 -0.12418 2.661 9671837
-1.4217343 -0.12418 2.661 9409434
-1.4166658 -0.12418 2.661 9343384
-1.4115971 -0.12418 2.661 9343128
-1.4065286 -0.12418 2.661 9277592
-1.4014601 -0.12418 2.661 9277591
-1.3963914 -0.12418 2.661 9277078
-1.3913229 -0.12418 2.661 9342613
-1.3815658 -0.12376001 2.6520002 9211541
-1.3765143 -0.12376001 2.6520002 9146005
-1.36836 -0.12348001 2.6460001 9146261
-1.36332 -0.12348001 2.6460001 9146260
-1.3582801 -0.12348001 2.6460001 9146004
-1.3501716 -0.12320001 2.6400001 9211543
-1.3482001 -0.12348001 2.6460001 9146010
-1.34316 -0.12348001 2.6460001 9146009
-1.3411543 -0.12376001 2.6520002 9146008
-1.336103 -0.12376001 2.6520002 9145752
-1.3310515 -0.12376001 2.6520002 9145497
-1.3260001 -0.12376001 2.6520002 9145237
-1.3209487 -0.12376001 2.6520002 9079698
-1.3203629 -0.12418 2.661 9013906
-1.3152943 -0.12418 2.661 8882578
-1.3102257 -0.12418 2.661 8816785
-1.3051572 -0.12418 2.661 8817040
-1.3000886 -0.12418 2.661 8817810
-1.2950201 -0.12418 2.661 8751764
-1.2899513 -0.12418 2.661 8751507
-1.2848829 -0.12418 2.661 8685970
-1.2827001 -0.12446001 2.6670003 8620179
-1.2804942 -0.12474 2.6730001 8489108
-1.2754029 -0.12474 2.6730001 8423553
-1.2745886 -0.12516001 2.6820002 6709614
-1.27232 -0.12544 2.6880002 5003362
-1.2672001 -0.12544 2.6880002 5200215
-1.2620801 -0.12544 2.6880002 5331292
-1.25696 -0.12544 2.6880002 5397345
-1.2518401 -0.12544 2.6880002 5528672
-1.2467201 -0.12544 2.6880002 5397855
-1.2416 -0.12544 2.6880002 5332319
-1.23648 -0.12544 2.6880002 5398111
-1.2313601 -0.12544 2.6880002 5528673
-1.2289772 -0.12572001 2.6940002 5463395
-1.2279344 -0.12614001 2.7030001 5463653
-1.2255001 -0.12641999 2.7090001 5463655
-1.2230428 -0.1267 2.7150002 5463656
-1.2178714 -0.1267 2.7150002 5463657
-1.21672 -0.12712002 2.7240002 5529192
-1.2115314 -0.12712002 2.7240002 5529447
-1.2090001 -0.1274 2.73 5595239
-1.2038 -0.1274 2.73 5463912
-1.1986001 -0.1274 2.73 5398636
-1.1973343 -0.12782001 2.7390001 6053745
-1.1947286 -0.12810001 2.7450001 6710898
-1.1921 -0.12838 2.7510002 7306868
-1.190743 -0.1288 2.76 7896952
-1.1854858 -0.1288 2.76 7961980
-1.1802287 -0.1288 2.76 8093052
-1.1775258 -0.12908 2.7660003 8092796
-1.1760715 -0.12950002 2.7750001 8092794
-1.1707858 -0.12950002 2.7750001 8027001
-1.1655 -0.12950002 2.7750001 8026746
-1.1627229 -0.12978001 2.7810001 8026492
-1.1636686 -0.13048001 2.796 8026491
-1.1583428 -0.13048001 2.796 8026490
-1.1530172 -0.13048001 2.796 8026998
-1.1513858 -0.1309 2.8050003 7961202
-1.1460429 -0.1309 2.8050003 7961200
-1.1431401 -0.13118 2.8110001 7895407
-1.1438572 -0.13188 2.8260002 7895153
-1.1421001 -0.13230002 2.835 7829364
-1.1403086 -0.13272001 2.8440003 7829365
-1.1372857 -0.133 2.8500001 7763575
-1.1318572 -0.133 2.8500001 7698035
-1.1299858 -0.13342001 2.8590002 7698032
-1.12454 -0.13342001 2.8590002 7697761
-1.1190944 -0.13342001 2.8590002 7696723
-1.1159859 -0.13370001 2.8650002 7629665
-1.1140172 -0.13412 2.8740001 7959408
-1.1085429 -0.13412 2.8740001 8353650
-1.62798 -0.12126 2.7090001 7169358
-1.6228201 -0.12126 2.7090001 6709859
-1.61766 -0.12126 2.7090001 7763320
-1.6125001 -0.12126 2.7090001 8815491
-1.6073401 -0.12126 2.7090001 8948622
-1.6021802 -0.12126 2.7090001 9145233
-1.5970201 -0.12126 2.7090001 9146005
-1.5883343 -0.12099143 2.7030001 9212054
-1.5831857 -0.12099143 2.7030001 9277848
-1.572783 -0.12058857 2.6940002 9409432
-1.5728885 -0.12099143 2.7030001 9606808
-1.5712202 -0.12126 2.7090001 9803677
-1.5695286 -0.12152857 2.7150002 9869475
-1.5695429 -0.12193143 2.7240002 10000802
-1.5678002 -0.1222 2.73 10066594
-1.5677515 -0.12260287 2.7390001 10132644
-1.5625343 -0.12260287 2.7390001 10264485
-1.5573173 -0.12260287 2.7390001 10460309
-1.5521002 -0.12260287 2.7390001 9542021
-1.5468831 -0.12260287 2.7390001 8681811
-1.4470772 -0.11911143 2.661 8424331
-1.4420086 -0.11911143 2.661 10066839
-1.43694 -0.11911143 2.661 9869731
-1.4318714 -0.11911143 2.661 9672351
-1.4268029 -0.11911143 2.661 9475227
-1.4217343 -0.11911143 2.661 9343640
-1.4166658 -0.11911143 2.661 9277588
-1.4115971 -0.11911143 2.661 9277590
-1.4065286 -0.11911143 2.661 9277849
-1.4014601 -0.11911143 2.661 9277592
-1.3963914 -0.11911143 2.661 9277336
-1.3913229 -0.11911143 2.661 9277335
-1.3815658 -0.11870858 2.6520002 9212055
-1.3765143 -0.11870858 2.6520002 9211541
-1.36836 -0.11844 2.6460001 9211795
-1.36332 -0.11844 2.6460001 9211796
-1.3582801 -0.11844 2.6460001 9277077
-1.35324 -0.11844 2.6460001 9342359
-1.3482001 -0.11844 2.6460001 9211290
-1.34316 -0.11844 2.6460001 9146009
-1.3411543 -0.11870858 2.6520002 9146009
-1.3330799 -0.11844 2.6460001 9145754
-1.3310515 -0.11870858 2.6520002 9080220
-1.3260001 -0.11870858 2.6520002 9079959
-1.3209487 -0.11870858 2.6520002 9079955
-1.3203629 -0.11911143 2.661 9079442
-1.3152943 -0.11911143 2.661 8948113
-1.3102257 -0.11911143 2.661 8882321
-1.3051572 -0.11911143 2.661 8816785
-1.3000886 -0.11911143 2.661 8817044
-1.2950201 -0.11911143 2.661 8817303
-1.2899513 -0.11911143 2.661 8817044
-1.2848829 -0.11911143 2.661 8685970
-1.2827001 -0.11938 2.6670003 8554643
-1.2804942 -0.11964858 2.6730001 8424084
-1.2754029 -0.11964858 2.6730001 8292224
-1.2745886 -0.12005143 2.6820002 6642796
-1.27232 -0.12031999 2.6880002 5003364
-1.2672001 -0.12031999 2.6880002 5200477
-1.2620801 -0.12031999 2.6880002 5397342
-1.25696 -0.12031999 2.6880002 5463136
-1.2518401 -0.12031999 2.6880002 5528927
-1.2495029 -0.12058857 2.6940002 5463647
-1.2443715 -0.12058857 2.6940002 5397856
-1.23648 -0.12031999 2.6880002 5463649
-1.2341086 -0.12058857 2.6940002 5594466
-1.2330828 -0.12099143 2.7030001 5528932
-1.2306601 -0.12126 2.7090001 5463654
-1.2255001 -0.12126 2.7090001 5463655
-1.2230428 -0.12152857 2.7150002 5463656
-1.2219087 -0.12193143 2.7240002 5463656
-1.21672 -0.12193143 2.7240002 5529191
-1.2115314 -0.12193143 2.7240002 5529446
-1.2090001 -0.1222 2.73 5594981
-1.2038 -0.1222 2.73 5594979
-1.2025515 -0.12260287 2.7390001 5660518
-1.1999571 -0.12287143 2.7450001 6185066
-1.1947286 -0.12287143 2.7450001 6776691
-1.1960001 -0.12354286 2.76 7306876
-1.190743 -0.12354286 2.76 7896447
-1.1854858 -0.12354286 2.76 7961986
-1.1802287 -0.12354286 2.76 8092799
-1.1775258 -0.12381144 2.7660003 8092540
-1.1760715 -0.12421429 2.7750001 8092539
-1.1707858 -0.12421429 2.7750001 8092539
-1.1655 -0.12421429 2.7750001 8092283
-1.1627229 -0.12448286 2.7810001 8026747
-1.1611716 -0.12488572 2.7900002 8026747
-1.1583428 -0.12515429 2.796 8026747
-1.1567286 -0.12555715 2.8050003 8092279
-1.1513858 -0.12555715 2.8050003 8026995
-1.1484944 -0.12582572 2.8110001 8026738
-1.1468 -0.12622857 2.8200002 7960945
-1.1438572 -0.12649715 2.8260002 7894899
-1.1421001 -0.1269 2.835 7828853
-1.1403086 -0.12730287 2.8440003 7828855
-1.1372857 -0.12757143 2.8500001 7763322
-1.1354315 -0.1279743 2.8590002 7763319
-1.1299858 -0.1279743 2.8590002 7698036
-1.12454 -0.1279743 2.8590002 7697256
-1.1190944 -0.1279743 2.8590002 7826780
-1.1159859 -0.12824287 2.8650002 7958121
-1.1105287 -0.12824287 2.8650002 8089462
-1.1085429 -0.12864573 2.8740001 8290170
-1.6228201 -0.11610001 2.7090001 6906978
-1.61766 -0.11610001 2.7090001 7630441
-1.6125001 -0.11610001 2.7090001 8420476
-1.6073401 -0.11610001 2.7090001 8686479
-1.6021802 -0.11610001 2.7090001 9014161
-1.5970201 -0.11610001 2.7090001 9146003
-1.5918601 -0.11610001 2.7090001 9212054
-1.5831857 -0.11584286 2.7030001 9343386
-1.578037 -0.11584286 2.7030001 9409946
-1.5728885 -0.11584286 2.7030001 9607067
-1.5712202 -0.11610001 2.7090001 9870753
-1.5660601 -0.11610001 2.7090001 10001576
-1.5643573 -0.11635715 2.7150002 10198186
-1.5678002 -0.117 2.73 10329517
-1.5677515 -0.11738573 2.7390001 10395563
-1.5625343 -0.11738573 2.7390001 10592681
-1.5573173 -0.11738573 2.7390001 10724529
-1.5554999 -0.11764285 2.7450001 10461113
-1.5502715 -0.11764285 2.7450001 10132332
-1.4470772 -0.11404286 2.661 9082014
-1.4420086 -0.11404286 2.661 9936797
-1.43694 -0.11404286 2.661 9738397
-1.4318714 -0.11404286 2.661 9606555
-1.4268029 -0.11404286 2.661 9475226
-1.4217343 -0.11404286 2.661 9343637
-1.4166658 -0.11404286 2.661 9277841
-1.4115971 -0.11404286 2.661 9277845
-1.4065286 -0.11404286 2.661 9212314
-1.3967201 -0.11365715 2.6520002 9212058
-1.3916687 -0.11365715 2.6520002 9211803
-1.3866172 -0.11365715 2.6520002 9211802
-1.3815658 -0.11365715 2.6520002 9211801
-1.3765143 -0.11365715 2.6520002 9277077
-1.3714629 -0.11365715 2.6520002 9211538
-1.36332 -0.11340001 2.6460001 9212052
-1.3582801 -0.11340001 2.6460001 9211542
-1.35324 -0.11340001 2.6460001 9211032
-1.3482001 -0.11340001 2.6460001 9145754
-1.34316 -0.11340001 2.6460001 9080474
-1.3411543 -0.11365715 2.6520002 9080474
-1.3330799 -0.11340001 2.6460001 9080221
-1.3310515 -0.11365715 2.6520002 9080224
-1.3260001 -0.11365715 2.6520002 9145754
-1.3209487 -0.11365715 2.6520002 9079700
-1.3158972 -0.11365715 2.6520002 9079698
-1.3108459 -0.11365715 2.6520002 8947856
-1.3057944 -0.11365715 2.6520002 8882321
-1.3051572 -0.11404286 2.661 8816787
-1.3000886 -0.11404286 2.661 8817046
-1.2950201 -0.11404286 2.661 8817050
-1.2899513 -0.11404286 2.661 8817558
-1.2848829 -0.11404286 2.661 8685970
-1.2827001 -0.1143 2.6670003 8554387
-1.2804942 -0.11455715 2.6730001 8357780
-1.2754029 -0.11455715 2.6730001 8161151
-1.2745886 -0.11494287 2.6820002 6511722
-1.27232 -0.1152 2.6880002 4872550
-1.2672001 -0.1152 2.6880002 5069667
-1.2620801 -0.1152 2.6880002 5332065
-1.25696 -0.1152 2.6880002 5463135
-1.2518401 -0.1152 2.6880002 5594719
-1.2495029 -0.11545715 2.6940002 5463648
-1.2443715 -0.11545715 2.6940002 5397857
-1.23648 -0.1152 2.6880002 5463651
-1.2341086 -0.11545715 2.6940002 5529188
-1.2330828 -0.11584286 2.7030001 5463654
-1.2306601 -0.11610001 2.7090001 5463911
-1.2255001 -0.11610001 2.7090001 5463912
-1.2230428 -0.11635715 2.7150002 5529704
-1.2219087 -0.11674286 2.7240002 5464168
-1.21672 -0.11674286 2.7240002 5464167
-1.2115314 -0.11674286 2.7240002 5463654
-1.2090001 -0.117 2.73 5529186
-1.2038 -0.117 2.73 5397855
-1.2051857 -0.11764285 2.7450001 5332065
-1.1999571 -0.11764285 2.7450001 6054243
-1.1947286 -0.11764285 2.7450001 6842739
-1.1921 -0.11790001 2.7510002 7437444
-1.190743 -0.11828572 2.76 8093062
-1.1854858 -0.11828572 2.76 8092808
-1.1802287 -0.11828572 2.76 8092802
-1.1775258 -0.11854286 2.7660003 8092541
-1.1760715 -0.11892858 2.7750001 8092541
-1.1707858 -0.11892858 2.7750001 8027005
-1.16802 -0.11918572 2.7810001 8026747
-1.1627229 -0.11918572 2.7810001 8026746
-1.1611716 -0.11957143 2.7900002 8026747
-1.1583428 -0.11982858 2.796 8092028
-1.1567286 -0.1202143 2.8050003 8157560
-1.1513858 -0.1202143 2.8050003 8092021
-1.1484944 -0.12047143 2.8110001 7961204
-1.1468 -0.12085715 2.8200002 7895411
-1.1438572 -0.1211143 2.8260002 7763572
-1.1421001 -0.1215 2.835 7829110
-1.1403086 -0.12188572 2.8440003 7829114
-1.1372857 -0.12214287 2.8500001 7763326
-1.1318572 -0.12214287 2.8500001 7763323
-1.1264286 -0.12214287 2.8500001 7828601
-1.1210001 -0.12214287 2.8500001 7893615
-1.1190944 -0.12252857 2.8590002 8093286
-1.1159859 -0.12278572 2.8650002 8358513
-1.1105287 -0.12278572 2.8650002 8489341
-1.1085429 -0.12317144 2.8740001 8620161
-1.61766 -0.11094001 2.7090001 7563361
-1.6125001 -0.11094001 2.7090001 8025206
-1.60378 -0.11069429 2.7030001 8489868
-1.5986314 -0.11069429 2.7030001 8948878
-1.5934829 -0.11069429 2.7030001 9080465
-1.5883343 -0.11069429 2.7030001 9277588
-1.5831857 -0.11069429 2.7030001 9343384
-1.572783 -0.11032572 2.6940002 9475228
-1.5676515 -0.11032572 2.6940002 9673120
-1.5712202 -0.11094001 2.7090001 9936547
-1.5660601 -0.11094001 2.7090001 10199463
-1.5643573 -0.11118571 2.7150002 10462122
-1.5643544 -0.11155429 2.7240002 10593709
-1.5626001 -0.1118 2.73 10725292
-1.5625343 -0.11216857 2.7390001 10857131
-1.5573173 -0.11216857 2.7390001 11054772
-1.5521002 -0.11216857 2.7390001 11318205
-1.5468831 -0.11216857 2.7390001 11640717
-1.4470772 -0.10897429 2.661 9674400
-1.4420086 -0.10897429 2.661 9805216
-1.43694 -0.10897429 2.661 9672864
-1.4318714 -0.10897429 2.661 9540766
-1.4268029 -0.10897429 2.661 9409692
-1.4217343 -0.10897429 2.661 9343640
-1.4166658 -0.10897429 2.661 9278357
-1.4115971 -0.10897429 2.661 9277591
-1.4065286 -0.10897429 2.661 9212314
-1.3967201 -0.10860571 2.6520002 9146779
-1.3916687 -0.10860571 2.6520002 9146780
-1.3866172 -0.10860571 2.6520002 9146266
-1.3815658 -0.10860571 2.6520002 9211801
-1.3765143 -0.10860571 2.6520002 9342611
-1.36836 -0.10836001 2.6460001 9276814
-1.36332 -0.10836001 2.6460001 9277329
-1.3582801 -0.10836001 2.6460001 9211797
-1.35324 -0.10836001 2.6460001 9146264
-1.3482001 -0.10836001 2.6460001 9080731
-1.34316 -0.10836001 2.6460001 9080473
-1.3411543 -0.10860571 2.6520002 9080472
-1.336103 -0.10860571 2.6520002 9080218
-1.3310515 -0.10860571 2.6520002 9145755
-1.3260001 -0.10860571 2.6520002 9211030
-1.3209487 -0.10860571 2.6520002 9145233
-1.3203629 -0.10897429 2.661 9079438
-1.3152943 -0.10897429 2.661 8947852
-1.3102257 -0.10897429 2.661 8882319
-1.3051572 -0.10897429 2.661 8816785
-1.3000886 -0.10897429 2.661 8816787
-1.2950201 -0.10897429 2.661 8816789
-1.2899513 -0.10897429 2.661 8816786
-1.2848829 -0.10897429 2.661 8685968
-1.2855858 -0.10946571 2.6730001 8554897
-1.2804942 -0.10946571 2.6730001 8292755
-1.2796972 -0.10983429 2.6820002 8094589
-1.2745886 -0.10983429 2.6820002 6380647
-1.27232 -0.11008 2.6880002 4742245
-1.2672001 -0.11008 2.6880002 5004387
-1.2620801 -0.11008 2.6880002 5332065
-1.25696 -0.11008 2.6880002 5463392
-1.2518401 -0.11008 2.6880002 5660000
-1.2495029 -0.11032572 2.6940002 5529185
-1.2443715 -0.11032572 2.6940002 5463650
-1.2392402 -0.11032572 2.6940002 5463651
-1.2341086 -0.11032572 2.6940002 5463653
-1.2330828 -0.11069429 2.7030001 5463654
-1.2306601 -0.11094001 2.7090001 5463910
-1.2255001 -0.11094001 2.7090001 5529701
-1.22034 -0.11094001 2.7090001 5595237
-1.2178714 -0.11118571 2.7150002 5529701
-1.21672 -0.11155429 2.7240002 5464166
-1.2115314 -0.11155429 2.7240002 5463654
-1.2090001 -0.1118 2.73 5463653
-1.2077686 -0.11216857 2.7390001 5200996
-1.2051857 -0.11241429 2.7450001 5004135
-1.1999571 -0.11241429 2.7450001 5989226
-1.19734 -0.11266001 2.7510002 6975861
-1.1921 -0.11266001 2.7510002 7633536
-1.190743 -0.11302858 2.76 8288897
-1.1854858 -0.11302858 2.76 8157827
-1.1802287 -0.11302858 2.76 8092799
-1.1775258 -0.11327429 2.7660003 8093052
-1.1760715 -0.11364286 2.7750001 8092542
-1.1707858 -0.11364286 2.7750001 8027008
-1.16802 -0.11388858 2.7810001 7961212
-1.1627229 -0.11388858 2.7810001 7961209
-1.1611716 -0.11425714 2.7900002 8026486
-1.1583428 -0.11450285 2.796 8157556
-1.1567286 -0.11487143 2.8050003 8288629
-1.1513858 -0.11487143 2.8050003 8092022
-1.1484944 -0.11511715 2.8110001 7960949
-1.1468 -0.11548571 2.8200002 7830132
-1.1475 -0.11610001 2.835 7698802
-1.1457257 -0.11646858 2.8440003 7764080
-1.1403086 -0.11646858 2.8440003 7895156
-1.1372857 -0.11671429 2.8500001 7829624
-1.1318572 -0.11671429 2.8500001 7763322
-1.1264286 -0.11671429 2.8500001 7959420
-1.1210001 -0.11671429 2.8500001 8156023
-1.1190944 -0.11708287 2.8590002 8424818
-1.1194915 -0.11769715 2.8740001 8752763
-1.1140172 -0.11769715 2.8740001 8884356
-1.61766 -0.10578001 2.7090001 7235417
-1.6125001 -0.10578001 2.7090001 7695729
-1.60378 -0.10554571 2.7030001 8225418
-1.5986314 -0.10554571 2.7030001 8687244
-1.5934829 -0.10554571 2.7030001 8949647
-1.5883343 -0.10554571 2.7030001 9212051
-1.5831857 -0.10554571 2.7030001 9277847
-1.56928 -0.10496 2.6880002 9343902
-1.5728885 -0.10554571 2.7030001 9606565
-1.56774 -0.10554571 2.7030001 9871525
-1.5660601 -0.10578001 2.7090001 10199718
-1.5643573 -0.10601428 2.7150002 10528937
-1.5643544 -0.10636571 2.7240002 10725549
-1.5591657 -0.10636571 2.7240002 10922413
-1.5539771 -0.10636571 2.7240002 11448493
-1.5522001 -0.1066 2.73 11974327
-1.5469999 -0.1066 2.73 12500417
-1.5468831 -0.10695143 2.7390001 13026478
-1.5450429 -0.10718571 2.7450001 11316891
-1.5398142 -0.10718571 2.7450001 9607502
-1.45034 -0.10414001 2.6670003 9870755
-1.4420086 -0.10390572 2.661 9673891
-1.43694 -0.10390572 2.661 9541540
-1.4318714 -0.10390572 2.661 9409441
-1.4268029 -0.10390572 2.661 9343902
-1.4217343 -0.10390572 2.661 9212572
-1.4166658 -0.10390572 2.661 9212314
-1.4115971 -0.10390572 2.661 9277594
-1.4017715 -0.10355429 2.6520002 9212058
-1.3967201 -0.10355429 2.6520002 9146780
-1.3916687 -0.10355429 2.6520002 9146526
-1.3866172 -0.10355429 2.6520002 9146267
-1.3815658 -0.10355429 2.6520002 9146265
-1.3765143 -0.10355429 2.6520002 9146001
-1.36836 -0.10332001 2.6460001 9145994
-1.36332 -0.10332001 2.6460001 9211791
-1.3582801 -0.10332001 2.6460001 9146261
-1.35324 -0.10332001 2.6460001 9080472
-1.3482001 -0.10332001 2.6460001 9080476
-1.34316 -0.10332001 2.6460001 9080217
-1.3411543 -0.10355429 2.6520002 9080215
-1.336103 -0.10355429 2.6520002 9145751
-1.3310515 -0.10355429 2.6520002 9145495
-1.3260001 -0.10355429 2.6520002 9211026
-1.3209487 -0.10355429 2.6520002 9145230
-1.3203629 -0.10390572 2.661 9013899
-1.3152943 -0.10390572 2.661 8947849
-1.3102257 -0.10390572 2.661 8882060
-1.3051572 -0.10390572 2.661 8816528
-1.3000886 -0.10390572 2.661 8750992
-1.2950201 -0.10390572 2.661 8816529
-1.2899513 -0.10390572 2.661 8881807
-1.2848829 -0.10390572 2.661 8751246
-1.2855858 -0.10437429 2.6730001 8685968
-1.2848058 -0.10472572 2.6820002 8029586
-1.2796972 -0.10472572 2.6820002 7307131
-1.2774401 -0.10496 2.6880002 6183525
-1.27232 -0.10496 2.6880002 5068388
-1.2672001 -0.10496 2.6880002 5200484
-1.2620801 -0.10496 2.6880002 5332066
-1.2597659 -0.10519429 2.6940002 5463137
-1.2546344 -0.10519429 2.6940002 5594466
-1.2495029 -0.10519429 2.6940002 5528931
-1.2485286 -0.10554571 2.7030001 5463651
-1.2433801 -0.10554571 2.7030001 5463652
-1.2382314 -0.10554571 2.7030001 5463653
-1.2358201 -0.10578001 2.7090001 5463655
-1.2306601 -0.10578001 2.7090001 5529701
-1.2255001 -0.10578001 2.7090001 5726563
-1.22034 -0.10578001 2.7090001 5989475
-1.2178714 -0.10601428 2.7150002 5792355
-1.2127 -0.10601428 2.7150002 5595237
-1.2115314 -0.10636571 2.7240002 5529447
-1.2090001 -0.1066 2.73 5463912
-1.2077686 -0.10695143 2.7390001 5200745
-1.2051857 -0.10718571 2.7450001 5004141
-1.1999571 -0.10718571 2.7450001 6187377
-1.19734 -0.10742001 2.7510002 7371126
-1.1921 -0.10742001 2.7510002 7698812
-1.190743 -0.10777143 2.76 8092541
-1.1854858 -0.10777143 2.76 8092542
-1.1802287 -0.10777143 2.76 8093053
-1.1775258 -0.10800572 2.7660003 8092796
-1.1760715 -0.10835715 2.7750001 8092799
-1.1707858 -0.10835715 2.7750001 8027011
-1.16802 -0.10859144 2.7810001 7961214
-1.1627229 -0.10859144 2.7810001 7960953
-1.1611716 -0.10894286 2.7900002 8026226
-1.1583428 -0.10917715 2.796 8091756
-1.1567286 -0.10952857 2.8050003 8157297
-1.1538486 -0.10976285 2.8110001 8026231
-1.1484944 -0.10976285 2.8110001 7960694
-1.14924 -0.11034857 2.8260002 7829877
-1.1475 -0.11070001 2.835 7764336
-1.1421001 -0.11070001 2.835 7829611
-1.1403086 -0.11105143 2.8440003 7960942
-1.1372857 -0.11128572 2.8500001 7764082
-1.1318572 -0.11128572 2.8500001 7566968
-1.1264286 -0.11128572 2.8500001 7763327
-1.12454 -0.11163715 2.8590002 8025470
-1.1249659 -0.11222287 2.8740001 8291198
-1.1229972 -0.11257429 2.8830001 8621957
-1.1175058 -0.11257429 2.8830001 8752780
-1.61766 -0.10062001 2.7090001 6973021
-1.6125001 -0.10062001 2.7090001 7432300
-1.60378 -0.10039714 2.7030001 7960956
-1.5986314 -0.10039714 2.7030001 8489094
-1.5934829 -0.10039714 2.7030001 8819344
-1.5883343 -0.10039714 2.7030001 9146771
-1.5779142 -0.10006287 2.6940002 9146775
-1.56928 -0.09984 2.6880002 9212316
-1.5676515 -0.10006287 2.6940002 9540258
-1.5712202 -0.10062001 2.7090001 9869731
-1.5660601 -0.10062001 2.7090001 10200229
-1.5643573 -0.10084286 2.7150002 10594218
-1.5591857 -0.10084286 2.7150002 10856880
-1.5591657 -0.10117715 2.7240002 11120312
-1.5574 -0.1014 2.73 11974336
-1.5522001 -0.1014 2.73 12894917
-1.5469999 -0.1014 2.73 13625033
-1.5418 -0.1014 2.73 14401218
-1.5450429 -0.10195714 2.7450001 13355195
-1.5398142 -0.10195714 2.7450001 12364939
-1.5345858 -0.10195714 2.7450001 10458203
-1.5293572 -0.10195714 2.7450001 8551510
-1.4521457 -0.098837145 2.661 10463388
-1.4470772 -0.098837145 2.661 10001571
-1.4420086 -0.098837145 2.661 9607843
-1.43694 -0.098837145 2.661 9475747
-1.4318714 -0.098837145 2.661 9343904
-1.4268029 -0.098837145 2.661 9212830
-1.4217343 -0.098837145 2.661 9146779
-1.4166658 -0.098837145 2.661 9212313
-1.4115971 -0.098837145 2.661 9277593
-1.4017715 -0.098502859 2.6520002 9212057
-1.3967201 -0.098502859 2.6520002 9146522
-1.3916687 -0.098502859 2.6520002 9146523
-1.3866172 -0.098502859 2.6520002 9146266
-1.3815658 -0.098502859 2.6520002 9080729
-1.3734 -0.098280005 2.6460001 9014935
-1.36836 -0.098280005 2.6460001 9081237
-1.36332 -0.098280005 2.6460001 9146261
-1.3582801 -0.098280005 2.6460001 9080982
-1.35324 -0.098280005 2.6460001 9080472
-1.3482001 -0.098280005 2.6460001 9080474
-1.34316 -0.098280005 2.6460001 9080215
-1.3411543 -0.098502859 2.6520002 9145749
-1.336103 -0.098502859 2.6520002 9211284
-1.3310515 -0.098502859 2.6520002 9211028
-1.3260001 -0.098502859 2.6520002 9276561
-1.3209487 -0.098502859 2.6520002 9145230
-1.3203629 -0.098837145 2.661 9013645
-1.3152943 -0.098837145 2.661 8947853
-1.3102257 -0.098837145 2.661 8882318
-1.3051572 -0.098837145 2.661 8816783
-1.3000886 -0.098837145 2.661 8750992
-1.2950201 -0.098837145 2.661 8816528
-1.2899513 -0.098837145 2.661 8947598
-1.2848829 -0.098837145 2.661 8882316
-1.2855858 -0.099282861 2.6730001 8882831
-1.2848058 -0.099617139 2.6820002 7700883
-1.2796972 -0.099617139 2.6820002 6585980
-1.2774401 -0.09984 2.6880002 5986405
-1.27232 -0.09984 2.6880002 5461603
-1.2700286 -0.10006287 2.6940002 5396833
-1.2648972 -0.10006287 2.6940002 5397088
-1.2597659 -0.10006287 2.6940002 5463136
-1.2546344 -0.10006287 2.6940002 5594209
-1.2536771 -0.10039714 2.7030001 5528931
-1.2485286 -0.10039714 2.7030001 5463394
-1.2433801 -0.10039714 2.7030001 5463649
-1.24098 -0.10062001 2.7090001 5463652
-1.2358201 -0.10062001 2.7090001 5529448
-1.2306601 -0.10062001 2.7090001 5595242
-1.2255001 -0.10062001 2.7090001 5989229
-1.22034 -0.10062001 2.7090001 6448233
-1.2178714 -0.10084286 2.7150002 6055270
-1.2127 -0.10084286 2.7150002 5726311
-1.2115314 -0.10117715 2.7240002 5595240
-1.2063429 -0.10117715 2.7240002 5463657
-1.2038 -0.1014 2.73 5200746
-1.2051857 -0.10195714 2.7450001 5003372
-1.1999571 -0.10195714 2.7450001 6385775
-1.1947286 -0.10195714 2.7450001 7764083
-1.1921 -0.10218 2.7510002 7829624
-1.1868601 -0.10218 2.7510002 7961467
-1.18162 -0.10218 2.7510002 8027261
-1.1802287 -0.10251428 2.76 8092540
-1.1775258 -0.10273714 2.7660003 8092540
-1.1760715 -0.10307144 2.7750001 8092541
-1.1707858 -0.10307144 2.7750001 8027007
-1.16802 -0.10329428 2.7810001 7961212
-1.1664858 -0.10362859 2.7900002 7960952
-1.1611716 -0.10362859 2.7900002 8026484
-1.1583428 -0.10385144 2.796 8026481
-1.1567286 -0.10418573 2.8050003 8026483
-1.1538486 -0.10440858 2.8110001 7960950
-1.1484944 -0.10440858 2.8110001 7960949
-1.14924 -0.10496572 2.8260002 7895413
-1.1475 -0.10530001 2.835 7895155
-1.1457257 -0.1056343 2.8440003 7960689
-1.1403086 -0.1056343 2.8440003 8026225
-1.1372857 -0.10585715 2.8500001 7698546
-1.1354315 -0.10619144 2.8590002 7436151
-1.1299858 -0.10619144 2.8590002 7632765
-1.1269 -0.1064143 2.8650002 7895168
-1.1249659 -0.10674858 2.8740001 8157571
-1.1194915 -0.10674858 2.8740001 8489865
-1.1175058 -0.10708286 2.8830001 8621200
-1.61766 -0.095460013 2.7090001 7038050
-1.6125001 -0.095460013 2.7090001 7365736
-1.60378 -0.095248573 2.7030001 7828334
-1.5986314 -0.095248573 2.7030001 8291199
-1.5934829 -0.095248573 2.7030001 8620689
-1.5883343 -0.095248573 2.7030001 8949140
-1.5779142 -0.094931439 2.6940002 9080728
-1.5657773 -0.094508573 2.6820002 9212315
-1.5641601 -0.094719999 2.6880002 9474719
-1.56252 -0.094931439 2.6940002 9737121
-1.5625916 -0.095248573 2.7030001 10066852
-1.5609001 -0.095460013 2.7090001 10332075
-1.5591857 -0.09567143 2.7150002 10923443
-1.5591657 -0.095988572 2.7240002 11514819
-1.5574 -0.096200004 2.73 12106452
-1.5522001 -0.096200004 2.73 12701395
-1.5469999 -0.096200004 2.73 13288402
-1.5384116 -0.095988572 2.7240002 13875670
-1.5416658 -0.096517146 2.7390001 13027291
-1.5398142 -0.096728571 2.7450001 12238792
-1.5312314 -0.096517146 2.7390001 11252406
-1.5260143 -0.096517146 2.7390001 10266244
-1.4637856 -0.094191432 2.6730001 10135729
-1.45542 -0.093979999 2.6670003 10266538
-1.45034 -0.093979999 2.6670003 9870756
-1.44526 -0.093979999 2.6670003 9541795
-1.43694 -0.093768574 2.661 9410210
-1.4318714 -0.093768574 2.661 9344160
-1.4268029 -0.093768574 2.661 9212574
-1.4169258 -0.09345144 2.6520002 9146779
-1.4118744 -0.09345144 2.6520002 9212057
-1.4068229 -0.09345144 2.6520002 9277336
-1.4017715 -0.09345144 2.6520002 9212056
-1.3967201 -0.09345144 2.6520002 9145752
-1.3916687 -0.09345144 2.6520002 9146008
-1.3866172 -0.09345144 2.6520002 9146265
-1.3815658 -0.09345144 2.6520002 9146010
-1.3734 -0.093240008 2.6460001 9146013
-1.36836 -0.093240008 2.6460001 9146016
-1.36332 -0.093240008 2.6460001 9146268
-1.3582801 -0.093240008 2.6460001 9080728
-1.35324 -0.093240008 2.6460001 9080472
-1.3482001 -0.093240008 2.6460001 9014936
-1.34316 -0.093240008 2.6460001 9014677
-1.3411543 -0.09345144 2.6520002 9080211
-1.336103 -0.09345144 2.6520002 9146002
-1.3310515 -0.09345144 2.6520002 9145745
-1.3260001 -0.09345144 2.6520002 9145488
-1.3209487 -0.09345144 2.6520002 9014159
-1.3203629 -0.093768574 2.661 8948112
-1.3152943 -0.093768574 2.661 8947857
-1.3102257 -0.093768574 2.661 8882576
-1.3051572 -0.093768574 2.661 8817039
-1.3000886 -0.093768574 2.661 8751759
-1.2950201 -0.093768574 2.661 8751248
-1.2899513 -0.093768574 2.661 8816781
-1.2848829 -0.093768574 2.661 8816778
-1.2827001 -0.093979999 2.6670003 8817551
-1.2804942 -0.094191432 2.6730001 7569813
-1.2796972 -0.094508573 2.6820002 6323581
-1.2745886 -0.094508573 2.6820002 5855077
-1.26948 -0.094508573 2.6820002 5330530
-1.2672001 -0.094719999 2.6880002 5331039
-1.2648972 -0.094931439 2.6940002 5265759
-1.2597659 -0.094931439 2.6940002 5397343
-1.2546344 -0.094931439 2.6940002 5528673
-1.2536771 -0.095248573 2.7030001 5463395
-1.2485286 -0.095248573 2.7030001 5397857
-1.2433801 -0.095248573 2.7030001 5397855
-1.24098 -0.095460013 2.7090001 5463396
-1.2358201 -0.095460013 2.7090001 5463657
-1.2333858 -0.09567143 2.7150002 5529712
-1.2255001 -0.095460013 2.7090001 5792375
-1.22034 -0.095460013 2.7090001 6055024
-1.2178714 -0.09567143 2.7150002 5792361
-1.2127 -0.09567143 2.7150002 5595497
-1.2115314 -0.095988572 2.7240002 5529450
-1.2063429 -0.095988572 2.7240002 5463402
-1.2038 -0.096200004 2.73 5200491
-1.2051857 -0.096728571 2.7450001 5002860
-1.1999571 -0.096728571 2.7450001 6451565
-1.1947286 -0.096728571 2.7450001 7895153
-1.1921 -0.096939996 2.7510002 7960693
-1.1868601 -0.096939996 2.7510002 7961465
-1.18162 -0.096939996 2.7510002 8026749
-1.1802287 -0.097257145 2.76 8026748
-1.1775258 -0.097468585 2.7660003 8026748
-1.1760715 -0.097785719 2.7750001 8092284
-1.1707858 -0.097785719 2.7750001 8026748
-1.16802 -0.097997159 2.7810001 7961210
-1.1664858 -0.098314293 2.7900002 8026744
-1.1636686 -0.098525718 2.796 8026743
-1.1620715 -0.098842859 2.8050003 8026742
-1.1592029 -0.099054292 2.8110001 8026998
-1.1538486 -0.099054292 2.8110001 7961206
-1.1521714 -0.099371433 2.8200002 7961205
-1.14924 -0.099582851 2.8260002 7895413
-1.1475 -0.099900007 2.835 7895158
-1.1457257 -0.10021715 2.8440003 7895160
-1.1403086 -0.10021715 2.8440003 7960693
-1.1372857 -0.10042858 2.8500001 7764082
-1.1354315 -0.10074572 2.8590002 7633014
-1.1299858 -0.10074572 2.8590002 7829371
-1.1269 -0.10095716 2.8650002 8026242
-1.1249659 -0.10127429 2.8740001 8289673
-1.1194915 -0.10127429 2.8740001 8554382
-1.61766 -0.090300001 2.7090001 7103071
-1.6089287 -0.090099998 2.7030001 7300453
-1.60378 -0.090099998 2.7030001 7695979
-1.5986314 -0.090099998 2.7030001 8158077
-1.5934829 -0.090099998 2.7030001 8489103
-1.5883343 -0.090099998 2.7030001 8817554
-1.5779142 -0.089800008 2.6940002 9014933
-1.56928 -0.089600004 2.6880002 9277593
-1.5641601 -0.089600004 2.6880002 9474972
-1.56252 -0.089800008 2.6940002 9671583
-1.5573888 -0.089800008 2.6940002 9868193
-1.5574429 -0.090099998 2.7030001 10133939
-1.5557401 -0.090300001 2.7090001 11055814
-1.5540143 -0.090499997 2.7150002 11974858
-1.5539771 -0.090800002 2.7240002 12238799
-1.5487887 -0.090800002 2.7240002 12502737
-1.5436001 -0.090800002 2.7240002 12964051
-1.5384116 -0.090800002 2.7240002 13421525
-1.5366 -0.090999998 2.73 12764887
-1.5314 -0.090999998 2.73 12108749
-1.5262002 -0.090999998 2.73 12041412
-1.5210001 -0.090999998 2.73 11974826
-1.4738228 -0.089400001 2.6820002 10857126
-1.4605 -0.0889 2.6670003 10462128
-1.4521457 -0.088699996 2.661 10068137
-1.45034 -0.0889 2.6670003 9805474
-1.4420086 -0.088699996 2.661 9541280
-1.43694 -0.088699996 2.661 9410207
-1.4318714 -0.088699996 2.661 9343900
-1.4268029 -0.088699996 2.661 9278105
-1.4169258 -0.088400006 2.6520002 9212313
-1.4118744 -0.088400006 2.6520002 9212056
-1.4115971 -0.088699996 2.661 9277591
-1.4017715 -0.088400006 2.6520002 9212054
-1.3967201 -0.088400006 2.6520002 9146260
-1.3916687 -0.088400006 2.6520002 9146002
-1.3866172 -0.088400006 2.6520002 9146005
-1.3815658 -0.088400006 2.6520002 9211287
-1.3765143 -0.088400006 2.6520002 9276823
-1.36836 -0.088200003 2.6460001 9211286
-1.36332 -0.088200003 2.6460001 9146262
-1.3582801 -0.088200003 2.6460001 9080727
-1.35324 -0.088200003 2.6460001 9080471
-1.3482001 -0.088200003 2.6460001 9014935
-1.34316 -0.088200003 2.6460001 9014676
-1.3411543 -0.088400006 2.6520002 9080721
-1.336103 -0.088400006 2.6520002 9146002
-1.3310515 -0.088400006 2.6520002 9080466
-1.3260001 -0.088400006 2.6520002 9014418
-1.3209487 -0.088400006 2.6520002 8948882
-1.3158972 -0.088400006 2.6520002 8948114
-1.3108459 -0.088400006 2.6520002 8947858
-1.3057944 -0.088400006 2.6520002 8948116
-1.3051572 -0.088699996 2.661 8817301
-1.3000886 -0.088699996 2.661 8751508
-1.2950201 -0.088699996 2.661 8751506
-1.2899513 -0.088699996 2.661 8751502
-1.2848829 -0.088699996 2.661 8751497
-1.2827001 -0.0889 2.6670003 8818062
-1.2804942 -0.089100003 2.6730001 7438996
-1.2754029 -0.089100003 2.6730001 6125947
-1.2703115 -0.089100003 2.6730001 5658210
-1.26948 -0.089400001 2.6820002 5264737
-1.2672001 -0.089600004 2.6880002 5199968
-1.2648972 -0.089800008 2.6940002 5200223
-1.2597659 -0.089800008 2.6940002 5331806
-1.2546344 -0.089800008 2.6940002 5528673
-1.2495029 -0.089800008 2.6940002 5397860
-1.2485286 -0.090099998 2.7030001 5332322
-1.2433801 -0.090099998 2.7030001 5397857
-1.2382314 -0.090099998 2.7030001 5463396
-1.2358201 -0.090300001 2.7090001 5463399
-1.2306601 -0.090300001 2.7090001 5529196
-1.2255001 -0.090300001 2.7090001 5595761
-1.22034 -0.090300001 2.7090001 5661037
-1.2178714 -0.090499997 2.7150002 5595241
-1.2127 -0.090499997 2.7150002 5529447
-1.2075286 -0.090499997 2.7150002 5463910
-1.2023572 -0.090499997 2.7150002 5463400
-1.2011544 -0.090800002 2.7240002 5200235
-1.2051857 -0.091499999 2.7450001 5002860
-1.1999571 -0.091499999 2.7450001 6517357
-1.1947286 -0.091499999 2.7450001 8091763
-1.1921 -0.091700003 2.7510002 8026490
-1.1868601 -0.091700003 2.7510002 8026491
-1.18162 -0.091700003 2.7510002 8026747
-1.1802287 -0.092000008 2.76 8026747
-1.1775258 -0.092200004 2.7660003 8027002
-1.1722572 -0.092200004 2.7660003 8092282
-1.1707858 -0.092500016 2.7750001 8026746
-1.16802 -0.092699997 2.7810001 8026745
-1.1664858 -0.09300001 2.7900002 8027000
-1.1636686 -0.093200006 2.796 8092536
-1.1620715 -0.093500003 2.8050003 8092537
-1.1567286 -0.093500003 2.8050003 8092535
-1.1538486 -0.093700007 2.8110001 8026997
-1.1521714 -0.094000004 2.8200002 7961202
-1.14924 -0.094200008 2.8260002 7895408
-1.1475 -0.094500005 2.835 7895155
-1.1457257 -0.09480001 2.8440003 7895157
-1.1403086 -0.09480001 2.8440003 7895156
-1.1372857 -0.094999999 2.8500001 7829619
-1.1318572 -0.094999999 2.8500001 7829366
-1.1299858 -0.095300004 2.8590002 7960442
-1.1269 -0.095500007 2.8650002 8157313
-1.1214428 -0.095500007 2.8650002 8356489
-1.1194915 -0.095799997 2.8740001 8619404
-1.6089287 -0.084951431 2.7030001 7169634
-1.60378 -0.084951431 2.7030001 7563880
-1.5986314 -0.084951431 2.7030001 7893882
-1.5934829 -0.084951431 2.7030001 8291981
-1.5883343 -0.084951431 2.7030001 8685968
-1.5779142 -0.084668577 2.6940002 8883347
-1.56928 -0.084480003 2.6880002 9146262
-1.5641601 -0.084480003 2.6880002 9343130
-1.5590401 -0.084480003 2.6880002 9539996
-1.55392 -0.084480003 2.6880002 9671327
-1.5522573 -0.084668577 2.6940002 9804732
-1.5522943 -0.084951431 2.7030001 10791641
-1.5505803 -0.085140005 2.7090001 11847633
-1.5488429 -0.085328571 2.7150002 12239818
-1.5436716 -0.085328571 2.7150002 12697551
-1.5385001 -0.085328571 2.7150002 12763861
-1.5333285 -0.085328571 2.7150002 12895956
-1.5281572 -0.085328571 2.7150002 12437203
-1.5229858 -0.085328571 2.7150002 11978706
-1.5178144 -0.085328571 2.7150002 11844562
-1.5009429 -0.084668577 2.6940002 11713743
-1.4958116 -0.084668577 2.6940002 11383245
-1.4873599 -0.084480003 2.6880002 11055556
-1.4789315 -0.084291436 2.6820002 10792636
-1.4688771 -0.084008574 2.6730001 10595254
-1.4605 -0.08382 2.6670003 10264496
-1.4521457 -0.083631426 2.661 10001576
-1.4470772 -0.083631426 2.661 9738400
-1.4420086 -0.083631426 2.661 9541022
-1.43694 -0.083631426 2.661 9409692
-1.4270287 -0.08334858 2.6520002 9278104
-1.4219773 -0.08334858 2.6520002 9212565
-1.4169258 -0.08334858 2.6520002 9212310
-1.4118744 -0.08334858 2.6520002 9212056
-1.4068229 -0.08334858 2.6520002 9277590
-1.4017715 -0.08334858 2.6520002 9212053
-1.3967201 -0.08334858 2.6520002 9146513
-1.3916687 -0.08334858 2.6520002 9146253
-1.3866172 -0.08334858 2.6520002 9146001
-1.3815658 -0.08334858 2.6520002 9146005
-1.3765143 -0.08334858 2.6520002 9211537
-1.36836 -0.083159998 2.6460001 9145997
-1.3664116 -0.08334858 2.6520002 9146257
-1.3613601 -0.08334858 2.6520002 9080470
-1.3563087 -0.08334858 2.6520002 9080470
-1.3482001 -0.083159998 2.6460001 9080471
-1.3462058 -0.08334858 2.6520002 9014675
-1.3411543 -0.08334858 2.6520002 9080464
-1.336103 -0.08334858 2.6520002 9146258
-1.3310515 -0.08334858 2.6520002 9080468
-1.3260001 -0.08334858 2.6520002 9014677
-1.3209487 -0.08334858 2.6520002 8948630
-1.3158972 -0.08334858 2.6520002 8882581
-1.3108459 -0.08334858 2.6520002 8882580
-1.3057944 -0.08334858 2.6520002 8948376
-1.300743 -0.08334858 2.6520002 8882844
-1.3000886 -0.083631426 2.661 8882584
-1.2950201 -0.083631426 2.661 8817045
-1.2899513 -0.083631426 2.661 8817039
-1.2848829 -0.083631426 2.661 8817289
-1.2798142 -0.083631426 2.661 8884110
-1.2776201 -0.08382 2.6670003 7372691
-1.2725401 -0.08382 2.6670003 5928569
-1.2703115 -0.084008574 2.6730001 5461599
-1.26522 -0.084008574 2.6730001 5068128
-1.2643715 -0.084291436 2.6820002 5134433
-1.259263 -0.084291436 2.6820002 5200479
-1.25696 -0.084480003 2.6880002 5397342
-1.2546344 -0.084668577 2.6940002 5660258
-1.2495029 -0.084668577 2.6940002 5594726
-1.2485286 -0.084951431 2.7030001 5529188
-1.2433801 -0.084951431 2.7030001 5463651
-1.24098 -0.085140005 2.7090001 5463652
-1.2358201 -0.085140005 2.7090001 5463398
-1.2333858 -0.085328571 2.7150002 5463401
-1.2282143 -0.085328571 2.7150002 5528940
-1.2230428 -0.085328571 2.7150002 5529194
-1.2219087 -0.085611433 2.7240002 5529193
-1.2127 -0.085328571 2.7150002 5463653
-1.2115314 -0.085611433 2.7240002 5463394
-1.2023572 -0.085328571 2.7150002 5397862
-1.2011544 -0.085611433 2.7240002 5200491
-1.2078201 -0.086460002 2.7510002 5068396
-1.20258 -0.086460002 2.7510002 6583149
-1.19734 -0.086460002 2.7510002 8157558
-1.1921 -0.086460002 2.7510002 8092544
-1.1868601 -0.086460002 2.7510002 8027773
-1.18162 -0.086460002 2.7510002 8027514
-1.1802287 -0.086742856 2.76 8027257
-1.1775258 -0.086931437 2.7660003 8027001
-1.1722572 -0.086931437 2.7660003 8027001
-1.1707858 -0.087214291 2.7750001 8027001
-1.16802 -0.087402858 2.7810001 8027000
-1.1664858 -0.087685719 2.7900002 8027000
-1.1611716 -0.087685719 2.7900002 8027002
-1.1620715 -0.088157147 2.8050003 8026748
-1.1592029 -0.088345721 2.8110001 8026744
-1.1538486 -0.088345721 2.8110001 7961204
-1.1521714 -0.088628575 2.8200002 7961200
-1.14924 -0.088817142 2.8260002 7829868
-1.1475 -0.089100003 2.835 7764335
-1.1457257 -0.089382857 2.8440003 7829875
-1.1403086 -0.089382857 2.8440003 7895411
-1.1372857 -0.089571439 2.8500001 7764084
-1.1354315 -0.089854285 2.8590002 7698295
-1.1323572 -0.090042859 2.8650002 7960442
-1.13044 -0.090325721 2.8740001 8222849
-1.1249659 -0.090325721 2.8740001 8485257
-1.60378 -0.079802856 2.7030001 7364969
-1.5986314 -0.079802856 2.7030001 7696244
-1.5934829 -0.079802856 2.7030001 8095102
-1.5830458 -0.079537146 2.6940002 8554886
-1.5779142 -0.079537146 2.6940002 8752014
-1.56928 -0.079360008 2.6880002 9014931
-1.5641601 -0.079360008 2.6880002 9212056
-1.5590401 -0.079360008 2.6880002 9408668
-1.5573888 -0.079537146 2.6940002 9409184
-1.5522573 -0.079537146 2.6940002 9475501
-1.5522943 -0.079802856 2.7030001 10593210
-1.5471457 -0.079802856 2.7030001 11712197
-1.5454199 -0.079980001 2.7090001 12306639
-1.54026 -0.079980001 2.7090001 12896469
-1.5351001 -0.079980001 2.7090001 12634331
-1.5299401 -0.079980001 2.7090001 12437459
-1.52478 -0.079980001 2.7090001 12106442
-1.5196199 -0.079980001 2.7090001 11844298
-1.5111058 -0.079802856 2.7030001 11647947
-1.4976001 -0.079360008 2.6880002 11516358
-1.49248 -0.079360008 2.6880002 11120322
-1.48404 -0.079182856 2.6820002 10726843
-1.4789315 -0.079182856 2.6820002 10528181
-1.4688771 -0.078917146 2.6730001 10330288
-1.4605 -0.078740008 2.6670003 10132396
-1.4521457 -0.078562863 2.661 9935014
-1.4470772 -0.078562863 2.661 9737376
-1.4420086 -0.078562863 2.661 9540509
-1.43694 -0.078562863 2.661 9343899
-1.4270287 -0.078297146 2.6520002 9212569
-1.4219773 -0.078297146 2.6520002 9212567
-1.4169258 -0.078297146 2.6520002 9212312
-1.4118744 -0.078297146 2.6520002 9212312
-1.4068229 -0.078297146 2.6520002 9277591
-1.4017715 -0.078297146 2.6520002 9212054
-1.3967201 -0.078297146 2.6520002 9146515
-1.3916687 -0.078297146 2.6520002 9146513
-1.3866172 -0.078297146 2.6520002 9146515
-1.3815658 -0.078297146 2.6520002 9147029
-1.3765143 -0.078297146 2.6520002 9212052
-1.3714629 -0.078297146 2.6520002 9146259
-1.3664116 -0.078297146 2.6520002 9146260
-1.3613601 -0.078297146 2.6520002 9146006
-1.3563087 -0.078297146 2.6520002 9146006
-1.3512572 -0.078297146 2.6520002 9080470
-1.3462058 -0.078297146 2.6520002 9080212
-1.3411543 -0.078297146 2.6520002 9080211
-1.336103 -0.078297146 2.6520002 9146003
-1.3310515 -0.078297146 2.6520002 9080468
-1.3260001 -0.078297146 2.6520002 9014676
-1.3209487 -0.078297146 2.6520002 8883091
-1.3158972 -0.078297146 2.6520002 8817043
-1.3108459 -0.078297146 2.6520002 8882836
-1.3057944 -0.078297146 2.6520002 8948374
-1.300743 -0.078297146 2.6520002 8948632
-1.3000886 -0.078562863 2.661 9013653
-1.2950201 -0.078562863 2.661 8948115
-1.2899513 -0.078562863 2.661 8882573
-1.2848829 -0.078562863 2.661 8883335
-1.2827001 -0.078740008 2.6670003 8949390
-1.2804942 -0.078917146 2.6730001 7372182
-1.2754029 -0.078917146 2.6730001 5795961
-1.2703115 -0.078917146 2.6730001 5330525
-1.26522 -0.078917146 2.6730001 4871262
-1.2643715 -0.079182856 2.6820002 5068895
-1.259263 -0.079182856 2.6820002 5265758
-1.25696 -0.079360008 2.6880002 5528670
-1.2518401 -0.079360008 2.6880002 5791587
-1.2467201 -0.079360008 2.6880002 5726311
-1.2443715 -0.079537146 2.6940002 5726054
