# .PCD v0.7 - Point Cloud Data file format
VERSION 0.7
FIELDS x y z
SIZE 4 4 4
TYPE F F F
COUNT 1 1 1
WIDTH 583
HEIGHT 1
VIEWPOINT 0 0 0 1 0 0 0
POINTS 583
DATA ascii
-23.6 -71.029999 94.660004
58.790001 -22.379999 83.059998
43.099998 -35.490002 183.36
13.8 59.400002 35.66
8.6199999 57.490002 172.66
7.803 57.810001 164.46001
7.4770002 57.27 175.66
59.169998 -23.879999 82.860001
-5.7579999 -10.63 244.25999
-53.060001 -29.85 242.56
-27.559999 -72.25 190.36
12.85 58.959999 59.759998
10.54 59.119999 70.660004
7.7210002 58.279999 68.160004
59.490002 -24.469999 36.360001
59.130001 -24.57 83.260002
-34.919998 37.779999 87.959999
-29.190001 -69.199997 202.36
-43.580002 -29.190001 243.66
-53.009998 -32.130001 239.75999
-52.529999 8.3129997 3.26
-22.190001 -61.509998 2.8199999
54.119999 -27.719999 7.1399999
30.73 -41.889999 9.3000002
8.5270004 -45.580002 4.52
3.721 -49.419998 4.3099999
-3.9349999 -60.560001 7.0300002
-9.2720003 -54.41 3.4200001
-10.6 -36.869999 229.46001
31.040001 7.9349999 244.75999
-38.599998 -24.83 245.16
59.560001 -24.709999 12.56
53.43 -20.6 199.86
20.27 -34.599998 223.36
12.44 -15.61 230.16
-70.690002 13.2 18.360001
-75.230003 7.3099999 193.75999
-38.91 -44.990002 5.1199999
44.720001 6.5689998 7.1500001
-30.74 -64.080002 207.56
-36.419998 -57.720001 211.75999
8.415 57.720001 165.16
8.448 57.650002 162.86
8.3660002 58.799999 9.7299995
1.1059999 -21.57 231.96001
5.6609998 -12.85 225.86
-74.510002 12.62 174.25999
-66.529999 16.870001 194.16
-57.689999 12.41 208.06
-69.790001 14.94 20.559999
-74.980003 10.22 197.36
-61.93 -16.18 218.75999
-22.98 -69.769997 25.559999
-19.540001 -68.43 13.06
-24.74 -70.800003 83.059998
-26.68 -72.260002 178.56
-31.209999 -67.480003 203.75999
55.299999 -27.52 38.060001
15.98 -42.790001 217.36
-66.769997 -6.2360001 212.46001
-37.150002 -45.040001 221.75999
10.06 58.200001 125.26
11.99 58.380001 94.559998
10.04 58.790001 91.860001
8.9230003 59.029999 38.560001
7.4949999 57.549999 150.46001
7.2420001 55.810001 197.96001
6.743 56.330002 193.06
31.24 12.07 240.46001
6.5019999 -43.529999 223.25999
-5.9619999 -47 222.46001
-21.860001 -56.84 211.25999
0.099129997 -49.330002 213.75999
-11.08 42.689999 6.8000002
7.7399998 -21.51 232.86
58.290001 -23.290001 107.36
57.52 -19.370001 91.660004
37.959999 -2.256 222.86
14.51 57.799999 60.060001
17.25 50.099998 6.2600002
-31.870001 -56.93 4.1500001
-35.209999 -64.300003 191.46001
21.5 31.58 219.36
-24.809999 -69.870003 36.16
-28.549999 -71.910004 195.36
-28.030001 -70.940002 199.46001
-34.029999 -62.91 207.86
-52.490002 -31.059999 243.06
-61.529999 17.879999 4.8899999
-0.78890002 -59.830002 15.76
-10.58 -62.799999 5.3000002
-11.49 -65.809998 172.16
3.3139999 -48.869999 218.66
0.5988 -32.220001 230.46001
-39.939999 -27.76 241.16
-3.3 -9.4399996 242.96001
-44.290001 -28.25 244.86
-6.724 31.42 215.36
2.1789999 0.82630002 232.16
-31.57 -14.41 228.96001
5.8979998 49.900002 208.06
9.165 53.919998 204.16
-49.25 -43.48 111.76
-29.280001 -64.459999 16.860001
-27.25 -65.739998 4.23
52.779999 -9.3839998 6.4099998
56.189999 -12.51 8.3500004
33.639999 29.74 8.4700003
47.220001 7.974 36.959999
47.439999 -12.58 213.25999
19.33 -52.419998 27.860001
41.18 -36.169998 9.8800001
12.27 59.290001 8.4799995
6.4699998 57.349998 8.3199997
-11.21 50.009998 26.26
-2.5810001 52.18 184.36
20.49 7.8779998 240.36
2.155 -2.5339999 244.46001
22.370001 3.102 227.75999
37.310001 -36.93 200.16
32.869999 33.669998 10.22
-66.389999 2.204 19.459999
-65.139999 5.8509998 4.4000001
-52.549999 -25.52 17.860001
-43.450001 -37.209999 5.6999998
-72.400002 3.378 204.66
28.24 15.74 228.86
32.07 25.58 161.66
46.869999 -15.71 213.66
52.459999 -29.469999 172.66
50.139999 -20.440001 209.56
-27.469999 -70.529999 108.46
59.099998 -23.59 77.959999
-14.95 -59.080002 3.5899999
3.164 -55.5 5.6599998
54.93 -27.84 87.160004
57.52 -25.5 133.86
17.43 -40.459999 214.16
-33.220001 -22.9 245.06
37.860001 -23.35 214.56
22.719999 -21.93 226.96001
-73.169998 7.8759999 202.56
-72.269997 2.875 174.36
16.26 58.040001 7.8299999
-33.619999 -61.529999 209.56
-33.57 -54.82 215.06
7.9990001 57.599998 167.25999
-48.669998 25.59 5.6399999
8.698 57 7.1799998
-69.419998 7.8169999 33.259998
-24.66 -71.43 116.16
-26.33 -72 167.96001
59.240002 -20.969999 52.759998
58.880001 -24.98 80.360001
31.610001 -2.47 225.16
9.6350002 57.139999 163.75999
12.4 58.310001 85.459999
23.26 24.49 4.1199999
7.5479999 57.48 170.25999
8.5559998 56.790001 187.36
20.290001 10.26 232.06
36.970001 4.2849998 223.06
10.32 33.220001 3.55
-22.290001 -17.41 233.86
19.09 2.0280001 245.75999
3.3989999 -4.8909998 245.25999
-24.99 -19.610001 244.36
20.629999 28.889999 222.16
-37.16 29.709999 201.86
-35.48 34.419998 186.75999
17.42 -16.459999 2.46
55.130001 -13.19 6.5
13.7 -50.139999 6.46
-1.119 -6.1989999 0
1.225 55.650002 93.760002
-4.3070002 52.549999 139.56
-26.85 -16.73 243.25999
-8.8380003 -7.6129999 244.06
31.299999 37.810001 30.360001
59.209999 -18.209999 19.559999
-28.75 -68.190002 87.760002
53.32 -24.68 6.4400001
10.35 -46.490002 216.25999
-57.689999 -1.951 215.75999
60.619999 -23.049999 8.9399996
46.419998 -18.42 212.66
33.950001 3.6340001 225.36
-31.24 -68.400002 170.36
-29.780001 -68.089996 203.75999
-34.73 -61.290001 208.75999
-53.650002 21.879999 5.2800002
-21.1 -68.57 5.2800002
-25.52 -70.339996 73.860001
-27.83 -72.190002 171.06
-50.990002 -29.84 244.25999
53.119999 -28.92 47.959999
-48.139999 -34.889999 225.46001
8.9359999 57.34 159.86
11.94 57.240002 114.86
10.06 57.790001 132.25999
16.16 -16.15 230.46001
31.610001 8.9860001 244.36
49.209999 -12.15 5.77
-54.419998 -31.16 238.86
-33.41 35.25 8.3800001
17.309999 -33.849998 225.06
24.139999 -25.74 224.46001
-31.950001 -30.969999 225.56
-28.040001 -21.049999 230.25999
-39.16 -29.42 227.46001
-9.0450001 -11.32 238.75999
-24 -19.25 240.86
8.1409998 46.27 211.66
41.799999 -2.5209999 218.86
34.580002 -40.119999 11.16
-5.3060002 50.369999 8.1199999
-7.336 -3.8499999 231.86
-44.009998 -25.280001 244.16
-45.610001 -26.92 244.75999
-11.36 -10.05 244.86
3.914 -7.1560001 227.86
44.779999 -33.099998 7.4099998
33.060001 -34.860001 5.6599998
15.56 -48.560001 5.9400001
-15.09 -64.68 5.1599998
53.959999 -28.58 155.16
56.029999 -27.049999 27.16
26.540001 7.4689999 232.96001
31.059999 8.9820004 229.66
-17.799999 -14.76 244.96001
56.349998 -26.040001 188.46001
-64.989998 -8.7869997 214.75999
17.309999 51.779999 105.56
-23.799999 -51.18 217.46001
-33.5 33.84 6.75
-46.34 24.9 5.1700001
-57.68 -20.34 221.96001
-52.720001 -26.610001 229.06
58.830002 -23.639999 88.660004
-65.260002 18.33 17.360001
-73.669998 4.7150002 200.86
-59.75 -17.459999 220.86
2.247 47.759998 6.8499999
53.130001 -21.639999 205.36
52.169998 -20.290001 207.06
22.190001 4.9330001 246.25999
-72.580002 13.31 95.459999
27 -11.78 226.46001
-53.900002 -30.059999 240.16
-54.259998 -29.93 224.56
-9.3240004 -10.44 245.16
11.94 58.759998 75.059998
14.01 58.75 44.66
-27.389999 -38.130001 225.36
-24.030001 -44.439999 223.06
-29 32.290001 5.8000002
11.9 -19.280001 231.75999
32.98 11.12 242.06
32.060001 10.47 230.66
42.040001 -5.4120002 219.25999
-48.860001 -31.73 230.36
26.73 19.299999 226.66
-33.240002 -65.370003 204.06
-33.599998 36.060001 11.16
-12.33 -64.769997 7.3099999
-14.52 -18.85 226.66
-26.690001 -23.6 226.86
-39.169998 -26.67 231.75999
25.6 6.1020002 246.36
8.2989998 -3.1530001 245.46001
10.8 -2.049 245.36
-47.799999 -41.060001 212.36
-25.93 -56.119999 2.46
59.080002 -21.07 7.04
50.02 -17.620001 209.86
-50.849998 -28.85 243.96001
-16.549999 -9.8140001 235.56
20.780001 5.559 245.56
-24.57 -16.58 244.56
-65.099998 13.69 4.1599998
-70.959999 0.8337 206.86
24.200001 28.07 217.16
-16.99 -68.050003 60.16
-15.08 -51.810001 215.96001
49.299999 -30.200001 7.2800002
18.530001 -46.990002 6.6700001
36.810001 -38.009998 8.1099997
55.630001 -27.639999 8.1199999
23.110001 -36.099998 215.46001
28.07 -30.77 217.36
-69.199997 5.842 48.759998
-45.400002 -23.73 232.25999
-75.459999 9.8120003 183.56
12.09 56.48 132.06
-28.59 -70.309998 141.06
12.62 -44.369999 220.06
-69.879997 1.686 208.36
-10.73 -23.91 0.49000001
9.7390003 57.220001 150.36
12.09 16.370001 2.9200001
16.700001 38.259998 5.23
-74.589996 12.42 182.66
-54.59 -27.280001 226.75999
54.919998 -17.139999 146.25999
54.049999 -18.92 183.25999
43.82 -1.27 5.9200001
-29.629999 -71.769997 186.46001
-53.43 -29.59 234.75999
9.559 56.799999 177.46001
-24.309999 -70.059998 44.759998
23.690001 24.66 224.06
-53.459999 27.49 80.260002
22.07 -36.970001 211.56
-40.5 -36.82 224.25999
24.620001 4.302 245.16
11.75 -1.965 243.46001
8.3050003 -1.966 245.66
-19.639999 35.580002 207.66
-68.989998 16.870001 164.86
41.27 13.11 7.4499998
-51.799999 -32.98 226.66
1.876 55.630001 9.8599997
-19.709999 -29.67 226.86
-61.700001 -17.73 204.25999
32.330002 7.52 227.56
18.110001 34.150002 218.46001
30.639999 16.49 222.56
10.12 51.259998 208.16
11.74 57.77 102.46
6.5300002 -3.322 235.56
-65.489998 -10.69 205.16
-25.23 -71.769997 141.66
-73.410004 12.54 116.96
58.040001 -25.34 104.66
-6.2059999 -51.720001 210.75999
-72.830002 12.15 91.660004
34.43 9.7119999 225.06
-54.349998 -29.84 229.56
20.48 -46.860001 194.96001
-67.309998 15.61 5.6999998
-25.280001 -20.91 228.56
17.68 15.41 226.86
8.1219997 58.040001 115.76
-26.219999 -71.400002 126.36
-71.18 14.42 67.459999
58.77 -18.77 44.16
-29.629999 -34.419998 225.56
51.139999 -3.444 7.9499998
56.77 -26.280001 180.06
13.76 1.067 245.86
-67.699997 17.280001 52.959999
-24.309999 -69.739998 24.059999
25.780001 23.950001 222.25999
-57.669998 -24.709999 211.75999
15.65 57.380001 45.459999
-26.33 -71.980003 156.36
13.86 45.630001 211.75999
-8.1660004 -22.98 227.86
-26.139999 -18.940001 245.36
59.27 -24.1 48.16
-54.27 -24.110001 225.75999
-73.529999 10.94 119.36
53.240002 -29.16 136.46001
13.59 -38.349998 224.25999
-25.780001 -70.790001 94.660004
11.94 54.970001 159.46001
57.619999 -23.92 130.66
14.93 -41.580002 210.25999
-74.389999 10.75 149.25999
19.379999 -11.17 227.75999
12 59.59 39.560001
16.4 0.8678 229.06
55.689999 -12.85 70.559998
18.09 -26.16 228.25999
32.130001 11.49 234.46001
28.58 18.530001 225.16
-36.580002 -49.490002 5.1399999
9.1079998 58.389999 102.86
4.0939999 -16.190001 227.46001
53.220001 -29.18 110.86
-73.879997 12.76 148.46001
-43.349998 32.689999 122.66
-64.349998 15.67 200.56
-25.85 -69.25 29.76
26.309999 5.724 229.06
-53.970001 -28.74 229.86
56.990002 -25.870001 169.96001
-52.939999 -19.34 5.5999999
-32.380001 -65.82 145.75999
4.1960001 -12.74 226.06
-7.9920001 -51.23 215.06
7.9400001 -52.43 5.9000001
23.299999 -36.869999 209.75999
6.5370002 57.23 163.56
-70.940002 13.76 41.860001
13.42 58.259998 67.260002
-13.45 -14.22 243.16
-11.63 5.2309999 1.74
7.855 -50.310001 202.75999
57.200001 -25.709999 156.36
15.61 -44.099998 5.0500002
58.66 -25.07 88.160004
29.73 7.6869998 245.66
-10.42 -12.63 230.46001
-75.150002 11.47 176.25999
9.4490004 -45.099998 212.36
-48.09 -28.620001 244.86
-72.279999 13.27 79.260002
-68.75 11.97 5.2399998
-19.709999 -68.150002 196.25999
-70.160004 12.67 8.5900002
12.09 51.799999 205.56
32.189999 12.8 232.66
13.07 -49.709999 198.66
-3.8740001 -4.1420002 242.46001
-36.73 -22.67 244.86
6.2979999 56.549999 180.06
20.66 -47.830002 10.76
43.130001 -3.954 211.25999
32.799999 12.13 228.96001
53.560001 -18.209999 6.0100002
-49.34 -30.27 244.36
-38.759998 -25.780001 244.75999
-0.88910002 -7.7930002 244.36
-15.85 -16.940001 228.06
19.77 -37.02 221.56
18.35 -41.040001 207.25999
3.8929999 -47.389999 209.75999
-7.6370001 -62.950001 7.71
-11.97 48.290001 9.8900003
-61.099998 19.66 5.98
-36.990002 -58.68 208.46001
-25.01 -69.489998 21.959999
-53.59 -31.629999 234.36
-29.25 -66.120003 54.560001
-48.869999 -13.19 2.8399999
-56.450001 -25.129999 223.36
13.62 59.549999 30.76
42.700001 -29.280001 5.9299998
-20.49 -69.989998 148.56
18.9 2.8629999 246.16
-63.66 -12.66 216.66
-60.830002 -15.07 219.75999
-75.620003 10.83 188.46001
9.0039997 -18.18 231.16
-70.940002 15.51 110.86
24.58 -31.24 221.46001
32.830002 10.1 228.56
-24.23 -67.949997 3.7
24.370001 -39.349998 5.8099999
-71.720001 12.57 58.360001
-70.389999 6.2140002 74.959999
7.6919999 57.959999 131.25999
-20.08 -33.009998 227.56
35.619999 9.0970001 215.75999
-68.839996 -4.6009998 193.66
-68.650002 -3.553 208.75999
-66.199997 3.681 8
27.639999 2.6630001 226.66
-1.832 -5.1259999 244.56
-2.2060001 54.150002 57.459999
3.1930001 54.580002 8.1099997
30.16 13.54 233.56
-40.09 -47.290001 12.86
11.37 49.82 209.66
14.01 0.069839999 245.86
27.24 5.7839999 245.66
10.95 -44.110001 208.36
7.5669999 -54.439999 8.5900002
-33.860001 -56.400002 5.96
-36.759998 -41.419998 3.2
9.7720003 -25.200001 231.46001
9.2010002 55.240002 200.25999
8.4610004 59.220001 16.959999
-45.889999 -38.709999 222.06
-26.25 -69.440002 50.959999
-66.910004 -4.5500002 212.16
-75.860001 9.8850002 192.25999
-45.599998 -13.05 223.66
-43.869999 29.139999 7.4200001
8.9940004 57.360001 168.66
33.549999 23.040001 6.3299999
57.790001 -19.190001 74.360001
39.279999 -18.290001 216.86
-21.08 -67.019997 3.8099999
-10.97 -54.799999 3.26
25.48 -43.540001 7.46
51.419998 -30.049999 8.1800003
-17.42 -68.860001 130.16
-26.91 -72.18 186.46001
11.33 56.630001 6.6799998
18.280001 38.509998 212.36
23.98 27.809999 221.06
30.959999 14.76 227.75999
-66.18 4.6630001 6.4899998
19.98 54.209999 21.76
40.459999 -33.849998 202.96001
52.23 -26.950001 203.16
41.889999 -29.82 206.66
-16.469999 -23.379999 226.16
15.27 -3.5420001 226.25999
-27.549999 -18.709999 245.25999
11.04 1.994 244.36
-47.43 -26.33 241.16
-0.067089997 50.810001 202.46001
-2.7349999 52.77 8.4499998
49.139999 -13.94 204.16
41.32 -3.161 220.46001
40.470001 -0.72909999 220.46001
43.740002 12.37 10.36
59 -16.98 10.46
-25.120001 -68.860001 8.6599998
-42.400002 -47.310001 218.46001
-8.8380003 -1.9069999 228.36
9.1969995 26.879999 220.86
13.54 39.080002 216.66
-8.1700001 -11.2 244.56
5.026 -4.5640001 230.46001
-45.84 -29.610001 236.46001
-4.02 -26.67 232.66
18.450001 -37.130001 223.56
-4.5890002 -52.889999 207.06
-14.86 -53.52 213.06
-23.690001 -70.370003 67.760002
-21.02 42.529999 8.8199997
-25.450001 39.540001 7.8800001
-39.48 33.970001 19.559999
-53.049999 24.389999 7.3499999
-53.799999 -31.41 241.36
-30.549999 -70.779999 198.46001
-25.66 -68.93 19.76
37.5 -10.87 221.06
23.799999 48.23 9.1099997
56.810001 -25.549999 183.96001
56.77 -25.540001 178.06
18.83 -18.42 229.66
-22.85 40.200001 7.2800002
32.68 12.05 238.25999
8.6020002 56.279999 196.25999
9.7030001 57.970001 138.86
14.45 59.490002 15.26
11.82 59.919998 28.26
14.38 56.380001 89.559998
18.93 -39.98 218.96001
-26.83 -72.260002 165.06
-28.559999 -71.389999 163.16
15.89 48.18 194.56
10.33 55.509998 196.16
2.635 31.049999 4.9400001
-61.450001 -12.15 218.25999
-74.959999 12 190.66
-70.379997 14.34 29.860001
-49.950001 -22.610001 227.25999
-29.459999 36.59 7.1300001
10.06 -11.9 226.06
30.65 10.27 244.36
35.43 11.32 5.9299998
-71.190002 3.448 134.06
55.139999 -26.42 197.46001
27.18 5.4590001 243.75999
31.559999 8.9530001 241.25999
30.469999 -30.5 213.16
34.16 -30.1 210.06
57.209999 -25.98 7.4099998
50.700001 -30.629999 11.86
-4.598 -54.93 4.0700002
14.03 -49.009998 5.5700002
31.620001 -39.939999 6.8899999
-50.139999 -31.870001 241.25999
-24.540001 -66.150002 203.66
59.950001 -22.42 32.459999
-30.049999 -67.459999 108.56
-27.59 -70.139999 98.059998
-18.92 -69.559998 123.66
9.7810001 59.009998 58.759998
58.939999 -23.030001 80.860001
59.119999 -22.799999 64.260002
56.110001 -26.780001 63.360001
8.0579996 57.349998 174.75999
22.42 -4.8150001 225.75999
-17.76 -69.110001 100.06
52.540001 -21.389999 207.46001
51.380001 -22.959999 207.36
