# .PCD v0.7 - Point Cloud Data file format
VERSION 0.7
FIELDS x y z rgba
SIZE 4 4 4 4
TYPE F F F U
COUNT 1 1 1 1
WIDTH 1243
HEIGHT 1
VIEWPOINT 0 0 0 1 0 0 0
POINTS 1243
DATA ascii
0.0036224697 -0.012506539 0.022868291 0
0.0052600503 -0.014148033 0.021891151 0
0.10779182 -0.012605043 0.022645624 0
-0.0064656003 -0.0074554961 0.022192812 0
0.0020871626 -0.0073869466 0.022252318 0
0.10407145 -0.0060952073 0.022051027 0
0.10578857 -0.0092187207 0.022097321 0
-0.0077534183 -0.003060542 0.022856822 0
-0.00061509665 -0.0020406493 0.022294596 0
0.00074103335 -0.004488796 0.023257291 0
0.10133466 -0.0018972626 0.022672983 0
-0.010524999 0.0042484459 0.022924071 0
-0.0093446514 0.0015725859 0.022143109 0
-0.0011345886 0.0025162075 0.021806706 0
0.097292654 0.0027237998 0.022466579 0
-0.011562801 0.0072880089 0.022366151 0
-0.0027679203 0.0092084324 0.022650642 0
0.093291856 0.0076808129 0.022374013 0
-0.0133228 0.012056671 0.022464408 0
-0.0025872278 0.013033505 0.022985784 0
0.0013974251 0.014098546 0.022118708 0
0.088750288 0.013464459 0.022415729 0
0.090356499 0.011099919 0.022326156 0
-0.015369333 0.018925453 0.022237977 0
-0.014442 0.016202796 0.02237281 0
-0.0021820485 0.017147169 0.022064345 0
0.0010945075 0.017497547 0.021882175 0
0.083405502 0.018744905 0.021635829 0
0.086488441 0.015921747 0.022704406 0
-0.016884401 0.023096899 0.022612423 0
0.078759179 0.024083562 0.022510132 0
0.081000142 0.021340039 0.022148365 0
-0.018592143 0.027956244 0.022616589 0
0.074576005 0.028587271 0.02275319 0
0.076522827 0.026367031 0.021771817 0
-0.020376001 0.033555128 0.023533823 0
-0.019488001 0.031124171 0.021909837 0
0.069003999 0.03431762 0.022316087 0
0.071889006 0.031485863 0.02305004 0
-0.021004727 0.037290473 0.022662545 0
0.064488195 0.039104503 0.022347614 0
0.066736676 0.036642902 0.022672886 0
-0.021468699 0.042549338 0.022128385 0
-0.019447999 0.043910325 0.020071819 0
0.059003253 0.043980077 0.022553913 0
0.062039562 0.041502971 0.022288037 0
-0.022296252 0.045943327 0.023464317 0
-0.017693352 0.047839377 0.021902051 0
-0.012079201 0.047722232 0.020618586 0
-0.0073917001 0.048761453 0.020789184 0
0.053443801 0.049253304 0.022638958 0
0.056027003 0.046820469 0.022499815 0
-0.015727334 0.051052883 0.023576122 0
-0.012172583 0.052507445 0.022404535 0
-0.0073667075 0.052206203 0.021285631 0
-0.0028366002 0.053652324 0.020741038 0
0.048401799 0.053640313 0.022610789 0
0.051360004 0.051107816 0.021798998 0
-0.011183999 0.055382878 0.024910767 0
-0.0066955853 0.057479102 0.023472348 0
-0.0026910414 0.057441466 0.021400161 0
0.0025805428 0.058795039 0.02034821 0
0.0082333004 0.059861913 0.020220958 0
0.042868204 0.058879297 0.022653354 0
0.045862667 0.05616188 0.022778725 0
-0.0019341749 0.061249517 0.024220292 0
0.0026040473 0.062219888 0.022871491 0
0.0070998245 0.062500022 0.021354709 0
0.011991667 0.063623257 0.020905176 0
0.016057501 0.064025089 0.020176467 0
0.038097933 0.063363664 0.02229658 0
0.040823668 0.060788773 0.022397641 0
0.0077750338 0.065554962 0.023777846 0
0.012848456 0.06705834 0.023054808 0
0.018112386 0.067757107 0.021917313 0
0.022474399 0.068147413 0.021099558 0
0.02705 0.068474263 0.021989008 0
0.032953702 0.06745261 0.022211641 0
0.035576999 0.065068543 0.022627592 0
0.018893201 0.071039453 0.024108598 0
0.022881499 0.071739875 0.023721755 0
0.027662 0.071291044 0.02385373 0
0.023141855 -0.070497587 0.027139852 0
0.027765002 -0.070916124 0.027057184 0
0.031375751 -0.070111811 0.027734913 0
0.018835092 -0.066704243 0.027537372 0
0.021083001 -0.069326721 0.028069666 0
0.033692252 -0.069484778 0.028267574 0
0.03783422 -0.067634612 0.027013363 0
0.042185556 -0.065692261 0.02801818 0
0.014716 -0.060656514 0.028505344 0
0.016105302 -0.062696062 0.027117191 0
0.047380362 -0.063546866 0.02718414 0
0.051962335 -0.061269384 0.027863953 0
0.013019645 -0.057813946 0.027195841 0
0.054721002 -0.059885535 0.025853097 0
0.057164464 -0.058254153 0.027655007 0
0.060281999 -0.055521742 0.025683643 0
0.0099827005 -0.050988257 0.029878203 0
0.010574 -0.052019559 0.027494596 0
0.061601587 -0.052625224 0.027512223 0
0.0090053137 -0.04695854 0.027841723 0
0.010186 -0.049912322 0.027058318 0
0.062089726 -0.047246028 0.027431099 0
0.006910916 -0.042685896 0.027535295 0
0.053155001 -0.040306624 0.029037844 0
0.058849253 -0.041456044 0.028141949 0
0.060813796 -0.043899756 0.026450662 0
0.073806748 -0.041414943 0.027124548 0
0.077708997 -0.042531304 0.027801549 0
0.082426384 -0.042037204 0.027212903 0
0.086259209 -0.040301759 0.027516806 0
0.0043040602 -0.037378382 0.027510826 0
0.0056677 -0.039777219 0.025946001 0
0.053477 -0.03618433 0.027686164 0
0.056148369 -0.03795293 0.026637387 0
0.0691882 -0.036562197 0.026407832 0
0.070951335 -0.038987644 0.027831567 0
0.088463172 -0.039009359 0.026525555 0
0.091316625 -0.036981888 0.027678829 0
0.0021745819 -0.032393813 0.027827835 0
0.051853001 -0.034295887 0.025668716 0
0.064754002 -0.030280769 0.02725539 0
0.068180792 -0.0321563 0.027557548 0
0.094259799 -0.034696814 0.02750667 0
0.097465247 -0.032256037 0.027716132 0
-0.00031368501 -0.026129609 0.028475355 0
0.0004366386 -0.027900059 0.027229588 0
0.0077273003 -0.026757127 0.029361047 0
0.063459501 -0.027852355 0.026902199 0
0.066922434 -0.02811881 0.028152114 0
0.10223812 -0.027434949 0.027564874 0
-0.0015861026 -0.022573942 0.027288251 0
0.0065852329 -0.021644572 0.02786243 0
0.10474 -0.02480353 0.028860867 0
0.10727615 -0.022649774 0.027125932 0
-0.003547882 -0.017662568 0.027405309 0
0.0039848667 -0.016534057 0.028386667 0
0.0052697337 -0.017743893 0.02683845 0
0.10934857 -0.017505627 0.02707893 0
-0.005562637 -0.012584937 0.027737813 0
-0.0048083002 -0.014364443 0.027581219 0
0.0029562544 -0.012366988 0.026980022 0
0.1078525 -0.012579254 0.027514042 0
-0.0072876001 -0.0075829267 0.027866606 0
0.0016157916 -0.0076295729 0.027677521 0
0.10395126 -0.0064318441 0.027407957 0
0.10574143 -0.0094284732 0.027539954 0
-0.0088660782 -0.002056818 0.027972188 0
-0.00059299747 -0.0034541965 0.027156884 0
0.00042085 -0.0046094353 0.026111536 0
0.099784002 -0.0003312733 0.028784582 0
0.10136333 -0.0023867388 0.027559383 0
-0.011005572 0.0040546036 0.027500471 0
-0.0095445607 0.0011143432 0.026320145 0
-0.0025008 0.0031766794 0.029085323 0
0.097301796 0.0026984911 0.027566608 0
-0.0124255 0.0077749356 0.027522866 0
-0.0034750402 0.0075025829 0.027557401 0
0.093516305 0.0075884778 0.0272016 0
-0.01393825 0.012216836 0.027460195 0
-0.00563575 0.013611509 0.029823668 0
-0.0027608669 0.012717035 0.027481867 0
0.0013974248 0.013216885 0.026927046 0
0.088471249 0.013744557 0.027566738 0
0.090623498 0.011369403 0.027493052 0
-0.015508199 0.017515421 0.027545661 0
-0.014864 0.016184118 0.026394296 0
-0.0054592006 0.015477864 0.028956091 0
-0.0024758482 0.016667321 0.026089966 0
0.00042085 0.016537007 0.02582345 0
0.08383882 0.018623596 0.027960494 0
0.086335503 0.016243722 0.027498022 0
-0.017151909 0.022709144 0.027634816 0
0.0787265 0.024261564 0.027564697 0
0.08100909 0.021591619 0.027088176 0
-0.018932499 0.027811015 0.027185587 0
0.073918432 0.028914046 0.027845837 0
0.076701 0.026494339 0.027158214 0
-0.020807445 0.033495732 0.027680181 0
-0.019688999 0.030216718 0.027596829 0
0.068909667 0.034369633 0.027195891 0
0.071288407 0.031447206 0.027674874 0
-0.021567667 0.037441932 0.027613437 0
0.064504668 0.038846653 0.027520746 0
0.066452503 0.036745641 0.027619699 0
-0.023024503 0.042596679 0.026977398 0
0.059014201 0.04380035 0.027942693 0
0.061737418 0.041403718 0.027272586 0
-0.022467539 0.047208685 0.027737839 0
-0.019373499 0.049535401 0.025895657 0
0.0533274 0.049261685 0.026985604 0
0.056194734 0.046589255 0.027262369 0
-0.017121997 0.05257763 0.027588867 0
-0.013997 0.054215085 0.0255525 0
0.048675429 0.053720046 0.02724286 0
0.05118756 0.051174652 0.027241308 0
-0.012177601 0.056335099 0.027832305 0
-0.0078509338 0.058604911 0.027291387 0
0.043263573 0.05886114 0.027318871 0
0.046264999 0.056277189 0.027962131 0
-0.0054385005 0.06050688 0.028304927 0
-0.0024673224 0.062340632 0.027595278 0
0.00076531002 0.064076968 0.027549721 0
0.038480204 0.063170709 0.027835352 0
0.0411538 0.060801875 0.027022392 0
0.0038172165 0.065697953 0.027477268 0
0.0074083097 0.067348897 0.027472246 0
0.011568501 0.069015034 0.027000867 0
0.033014335 0.068268381 0.027103949 0
0.035690501 0.065954223 0.027762622 0
0.0139026 0.071033321 0.028745282 0
0.017705668 0.072750986 0.027590897 0
0.022686198 0.073983096 0.027615631 0
0.02783072 0.073704056 0.026815748 0
0.0309678 0.071198419 0.02780859 0
0.023743 0.075691327 0.029082548 0
0.027382201 0.075655371 0.028955257 0
0.022916555 -0.070662096 0.032552682 0
0.02785608 -0.07097932 0.032730918 0
0.031701498 -0.070141353 0.032027073 0
0.018942416 -0.067066506 0.032690194 0
0.020519501 -0.068829849 0.031882532 0
0.033678249 -0.069335438 0.03265113 0
0.037065871 -0.067852542 0.032655675 0
0.042085249 -0.065765329 0.032238051 0
0.014284 -0.060582817 0.032979149 0
0.016328376 -0.063339643 0.032866113 0
0.044179 -0.064851545 0.033039201 0
0.047101427 -0.063686773 0.032590438 0
0.052131802 -0.061490979 0.032358486 0
0.055108 -0.060054358 0.034294821 0
0.012492308 -0.057580661 0.032202225 0
0.057505623 -0.057805985 0.032562874 0
0.060116 -0.055352081 0.030047614 0
0.0095975325 -0.050875168 0.032787483 0
0.010388143 -0.052835848 0.032194749 0
0.061422665 -0.052909926 0.032362938 0
0.0082657896 -0.047370926 0.032417141 0
0.061130002 -0.046816487 0.032519367 0
0.0062706904 -0.042780139 0.032792069 0
0.05338534 -0.042594589 0.031633057 0
0.057569694 -0.042013358 0.032047685 0
0.060074329 -0.04417181 0.032818131 0
0.073691502 -0.040698756 0.03254319 0
0.077326283 -0.041686274 0.032463104 0
0.082561553 -0.041498404 0.032553565 0
0.086144343 -0.040214725 0.032129359 0
0.0039351908 -0.037691027 0.032530963 0
0.053850003 -0.039357811 0.030172668 0
0.055145752 -0.039539564 0.030296652 0
0.069671005 -0.035158843 0.032322653 0
0.071180001 -0.038242836 0.032349478 0
0.087747894 -0.039318196 0.032597557 0
0.091676451 -0.036586493 0.032500017 0
0.0019078549 -0.033235017 0.032634426 0
0.0091572003 -0.030710207 0.034335207 0
0.010186 -0.031386666 0.034145541 0
0.064874001 -0.030214574 0.03137397 0
0.068148203 -0.032331236 0.032638952 0
0.094316006 -0.034600314 0.032235947 0
0.097215272 -0.032072321 0.032814294 0
-0.00066668342 -0.026402097 0.032710601 0
0.00039547289 -0.029112514 0.031932633 0
0.0082192253 -0.027181074 0.032668415 0
0.068840995 -0.029032085 0.033333734 0
0.099445999 -0.029939182 0.03168305 0
0.10163923 -0.027540384 0.03241837 0
-0.0019250638 -0.023147291 0.032481495 0
0.0059876642 -0.022878138 0.03255412 0
0.10402 -0.024788529 0.03307905 0
0.1067054 -0.022325253 0.032403897 0
-0.0053551998 -0.015275182 0.033586375 0
-0.0038566333 -0.018314604 0.03227276 0
0.0038626429 -0.016814884 0.032415163 0
0.0052601248 -0.018558649 0.032114509 0
0.10887429 -0.017556377 0.032200437 0
-0.0064454898 -0.012292598 0.032886952 0
0.0024250157 -0.012370466 0.0324663 0
0.10763547 -0.012718931 0.032488197 0
-0.0079997629 -0.0081245005 0.03228014 0
0.0013549 -0.00897492 0.031304903 0
0.10396751 -0.0067383256 0.032439932 0
0.10578001 -0.0096205575 0.032558158 0
-0.010304499 -0.0010175281 0.033618614 0
-0.0093415007 -0.0031137022 0.032100618 0
-0.00158107 -0.0010448422 0.033633627 0
0.099737003 -0.00016173255 0.03314833 0
0.10134833 -0.0024327352 0.032345377 0
-0.011225 0.0031313866 0.032660913 0
-0.0099467998 0.00060929265 0.030496173 0
-0.0030081801 0.0027843006 0.032636445 0
0.097323209 0.0030600303 0.03268104 0
-0.013007 0.0078597888 0.032519422 0
-0.004277586 0.0069842618 0.032248113 0
0.093106747 0.0084747616 0.032421954 0
0.095500499 0.0055280952 0.033364303 0
-0.014362 0.012488101 0.032510869 0
-0.0054385001 0.013355065 0.030177396 0
0.088377438 0.013878133 0.032838576 0
0.090511151 0.011570137 0.032321479 0
-0.0156912 0.01687886 0.03231461 0
0.083513305 0.018725332 0.032856654 0
0.086450003 0.016202439 0.032252807 0
-0.017517444 0.021779226 0.032717012 0
0.078766003 0.023710743 0.032564305 0
0.080911502 0.021424588 0.032825243 0
-0.0202765 0.029145082 0.033758007 0
-0.019190274 0.02641313 0.032424062 0
0.074244574 0.028500285 0.032135487 0
0.076764144 0.026026765 0.032866202 0
-0.021155909 0.032550015 0.032333627 0
0.068788446 0.033452418 0.032243054 0
0.071960293 0.030859366 0.032540895 0
-0.022328401 0.037402648 0.032562938 0
0.064721338 0.038448788 0.032873698 0
0.066643 0.036358833 0.032314502 0
-0.023032604 0.041902341 0.032398678 0
0.058969803 0.043886434 0.032268781 0
0.061791819 0.041305162 0.032598317 0
-0.022086002 0.047472689 0.032639034 0
0.05340917 0.049453445 0.031836282 0
0.056410417 0.046532061 0.032277983 0
-0.017183 0.052549444 0.032432359 0
-0.014277 0.054473005 0.033210374 0
0.048994001 0.053718735 0.032571539 0
0.051528715 0.051324889 0.03302576 0
-0.011915601 0.056209363 0.032515444 0
-0.0074882144 0.058535229 0.03257015 0
0.043680336 0.058994859 0.032285489 0
0.046222001 0.05667901 0.032628193 0
-0.0027395901 0.061112758 0.032502346 0
0.001307165 0.063644648 0.032742236 0
0.038672801 0.063614346 0.032767665 0
0.041436166 0.060942709 0.031810146 0
0.0039692284 0.065430515 0.032057345 0
0.0072361003 0.067227364 0.032606751 0
0.011514726 0.069303274 0.032531511 0
0.03285889 0.069107212 0.032914832 0
0.035968713 0.066400915 0.033110138 0
0.014145001 0.070583344 0.032673512 0
0.017870435 0.073254466 0.032675102 0
0.020052999 0.074967027 0.031977549 0
0.028838186 0.073220037 0.032779895 0
0.031163501 0.070568189 0.032410271 0
0.023202443 0.075821735 0.032804087 0
0.026463002 0.075662002 0.032188796 0
0.0228635 -0.07054884 0.037604332 0
0.027810303 -0.070873126 0.037841629 0
0.018888908 -0.067342907 0.037556447 0
0.020940499 -0.069516003 0.036716759 0
0.032610502 -0.069476642 0.037006669 0
0.037346456 -0.067398407 0.037846569 0
0.042140704 -0.065614142 0.037189897 0
0.01429475 -0.060904525 0.038113181 0
0.016004251 -0.063404985 0.037774201 0
0.044755001 -0.064681858 0.037403211 0
0.04728236 -0.063373581 0.037579753 0
0.052350543 -0.061217532 0.03749273 0
0.0119427 -0.057326604 0.037570741 0
0.057597622 -0.058020901 0.037684914 0
0.060049001 -0.055012777 0.038775504 0
0.0091662165 -0.051748361 0.037957206 0
0.0102632 -0.054027636 0.037359323 0
0.061738897 -0.052782971 0.037313256 0
0.0076974998 -0.047884244 0.037163127 0
0.061980732 -0.047468465 0.03739043 0
0.0047271503 -0.040594243 0.038652524 0
0.0059138872 -0.043237016 0.037201416 0
0.059139997 -0.044180796 0.036699198 0
0.060968 -0.044670437 0.039778277 0
0.073126495 -0.04082277 0.037739985 0
0.077297747 -0.04146513 0.036990643 0
0.082700543 -0.04106399 0.037809774 0
0.085842997 -0.040208731 0.037326448 0
0.00385065 -0.038211275 0.037580695 0
0.01214 -0.035802711 0.039362136 0
0.069742009 -0.036729034 0.036899894 0
0.070940502 -0.038571518 0.037837941 0
0.087502256 -0.039174236 0.037629582 0
0.091367453 -0.036691092 0.037376855 0
0.0015893133 -0.032941893 0.037773453 0
0.0091682998 -0.031010946 0.03784316 0
0.010421 -0.0326671 0.037909739 0
0.068887003 -0.033825323 0.036012817 0
0.094117202 -0.034483697 0.037113328 0
0.096924171 -0.031900536 0.037869893 0
-0.001134339 -0.026546491 0.037289198 0
0.00042721001 -0.029747274 0.036054283 0
0.0079424093 -0.027938573 0.037368722 0
0.099198997 -0.02976964 0.036046799 0
0.10120462 -0.02763507 0.037492838 0
-0.0029823889 -0.021641122 0.03719224 0
0.0043270998 -0.020040426 0.039615303 0
0.0058645802 -0.023037387 0.037579149 0
0.10410167 -0.024428181 0.037951633 0
0.10664374 -0.021762341 0.036968254 0
-0.00536972 -0.015865475 0.038217228 0
-0.0044647502 -0.017918585 0.037334491 0
0.0037443433 -0.017733335 0.037386246 0
0.0052896002 -0.01838911 0.036478259 0
0.10824 -0.01812165 0.037893116 0
-0.0067950897 -0.011990092 0.037832368 0
0.0023424667 -0.013179163 0.035844851 0
0.10755 -0.012914154 0.037569616 0
-0.0089803729 -0.0070126802 0.037163317 0
-0.00059667998 -0.0065384703 0.037766751 0
0.00065141247 -0.0081036827 0.037481271 0
0.10404124 -0.0067098308 0.037451286 0
0.105748 -0.0095226206 0.036846008 0
-0.0104295 -0.0021740654 0.037596852 0
-0.0097706998 -0.003970427 0.03635554 0
-0.0013838683 -0.0025166823 0.037361853 0
0.10128785 -0.0022142362 0.037491858 0
-0.011588364 0.0018018441 0.037778243 0
-0.0032757998 0.0023978259 0.037312932 0
0.097775184 0.0025163877 0.037631843 0
-0.013313835 0.0074121654 0.037684821 0
-0.0045008999 0.0060831495 0.036401972 0
0.093225829 0.0085405 0.037597258 0
0.095869251 0.0054766228 0.038357835 0
-0.015138 0.014669875 0.037832983 0
-0.014520332 0.01224374 0.037473477 0
0.088335335 0.014081774 0.037712298 0
0.090466492 0.011817098 0.037645597 0
-0.016235923 0.017529605 0.037259944 0
0.083834872 0.018720053 0.037571464 0
0.086347587 0.016336797 0.037678942 0
-0.018617667 0.022888744 0.037743799 0
0.078673288 0.023744646 0.037280004 0
0.081360869 0.021114796 0.037623171 0
-0.02050725 0.028651476 0.037929058 0
-0.019793667 0.026248462 0.037949648 0
0.074449576 0.028502632 0.03713702 0
0.07638929 0.0264563 0.037897542 0
-0.021441273 0.032020964 0.037521191 0
0.068542495 0.034770604 0.036237776 0
0.071559928 0.032332651 0.037343495 0
-0.02292891 0.03771193 0.03755039 0
0.064716004 0.03870694 0.037636992 0
0.067149878 0.036538158 0.037494916 0
-0.023634287 0.042204674 0.037246175 0
0.059108339 0.044408426 0.03727147 0
0.062120333 0.041480981 0.037637778 0
-0.022050463 0.0478478 0.037508216 0
0.054226499 0.04942324 0.038214382 0
0.056251638 0.04729433 0.037327498 0
-0.017306186 0.052645579 0.037575036 0
0.049249671 0.054173317 0.038204528 0
0.05175592 0.051774226 0.037604697 0
-0.012202546 0.056295868 0.03757016 0
-0.0070556928 0.058375999 0.037544727 0
0.043586202 0.059211072 0.037015799 0
0.046515364 0.056723695 0.037408084 0
-0.0025623282 0.061083622 0.037544373 0
0.0015694188 0.063618556 0.037291247 0
0.038925998 0.063692197 0.037271466 0
0.041485 0.061257578 0.037047181 0
0.0043970197 0.065370806 0.038015664 0
0.0073774108 0.067196406 0.037402079 0
0.010990376 0.069228396 0.037774026 0
0.033042248 0.068766773 0.037576132 0
0.036329113 0.066066533 0.038008645 0
0.013735001 0.070659123 0.037443478 0
0.017844802 0.073127821 0.037773777 0
0.021904999 0.074956179 0.036219634 0
0.02771144 0.073100723 0.037925445 0
0.031240001 0.070286788 0.037520748 0
0.023464501 0.075212993 0.037092894 0
0.022824874 -0.070527747 0.042590544 0
0.027974639 -0.07058499 0.042479455 0
0.018512819 -0.067022547 0.042347729 0
0.020915002 -0.069446556 0.042250112 0
0.032318398 -0.069289558 0.042205647 0
0.037739005 -0.067126721 0.042465102 0
0.041696668 -0.06556046 0.042594597 0
0.014028428 -0.061073501 0.042686 0
0.015978836 -0.063773267 0.042319708 0
0.043549497 -0.064776361 0.042230185 0
0.047428001 -0.063039683 0.042400077 0
0.052082598 -0.061087836 0.042480182 0
0.011504545 -0.057469517 0.042384744 0
0.057396736 -0.058046054 0.042519283 0
0.0087856902 -0.051876873 0.042450868 0
0.010127001 -0.05479886 0.042001151 0
0.062338807 -0.052935258 0.042456143 0
0.0066362182 -0.047142003 0.042298157 0
0.06378267 -0.047029279 0.041556045 0
0.066752508 -0.047035411 0.043830089 0
0.070984006 -0.04539774 0.044496417 0
0.0041852165 -0.041093826 0.042470001 0
0.0052132998 -0.043519761 0.042117231 0
0.064874001 -0.044660393 0.044229675 0
0.067942455 -0.042191226 0.042604133 0
0.072871618 -0.042877849 0.04228339 0
0.077320658 -0.042624202 0.042538438 0
0.082311183 -0.041012257 0.042721484 0
0.085251004 -0.040039185 0.041690193 0
0.0026684557 -0.036821887 0.04262609 0
0.012137666 -0.036450803 0.044172533 0
0.069233 -0.03874651 0.040979832 0
0.070733003 -0.037011258 0.040026262 0
0.087490134 -0.038922369 0.042014413 0
0.09118209 -0.036689937 0.042401064 0
0.00085997302 -0.032234814 0.042596303 0
0.009171634 -0.031255178 0.042805694 0
0.0108585 -0.033628915 0.042829532 0
0.094142288 -0.034143813 0.042415325 0
0.096996799 -0.031546079 0.042727526 0
-0.0011539627 -0.026964031 0.042389646 0
0.0076233009 -0.027664721 0.04212784 0
0.099302337 -0.029229902 0.042435952 0
0.10155091 -0.026844418 0.042530861 0
-0.0031976274 -0.021646056 0.042268433 0
0.0055588288 -0.023109404 0.042085521 0
0.104045 -0.024461735 0.042332187 0
0.10624124 -0.022142626 0.042143904 0
-0.005483266 -0.016131526 0.042857733 0
-0.0043583 -0.018604599 0.042168964 0
0.003297 -0.016337954 0.044266064 0
0.0052477 -0.019930677 0.041783448 0
0.10814334 -0.018360533 0.042476866 0
-0.0070805806 -0.012026449 0.042649291 0
0.0019928715 -0.012468603 0.043094803 0
0.107572 -0.01282837 0.042451214 0
-0.0091843549 -0.0074408869 0.042407181 0
-0.00066917995 -0.0065779998 0.042426433 0
0.0007269833 -0.0090093277 0.042274594 0
0.10381002 -0.0065129092 0.042100977 0
0.10571 -0.0094421301 0.042166833 0
-0.010964444 -0.0015684792 0.042434324 0
-0.0099750999 -0.0049582999 0.044698007 0
-0.0017116587 -0.0032937715 0.042509899 0
0.10115714 -0.0021021063 0.042883374 0
-0.0127811 0.0029648701 0.042692389 0
0.097557589 0.0029571091 0.042316001 0
-0.014185833 0.0076354435 0.042606108 0
0.093305275 0.0084545147 0.042636991 0
0.095402502 0.0058671767 0.042091798 0
-0.015301112 0.012931242 0.042765141 0
-0.0146275 0.011086963 0.041452415 0
0.088452004 0.01440922 0.042067058 0
0.090636574 0.01175239 0.043095957 0
-0.017049454 0.017802941 0.042817034 0
0.083981991 0.018735118 0.042368643 0
0.086436436 0.016456064 0.043023899 0
-0.019023599 0.022768466 0.042122636 0
0.078863725 0.024043057 0.042258047 0
0.0814052 0.02138911 0.042480581 0
-0.0208485 0.028173177 0.042826414 0
0.074623205 0.029503589 0.042544778 0
0.07661587 0.026906321 0.042680617 0
-0.022034399 0.032538738 0.042366859 0
0.071742669 0.032395676 0.042383842 0
-0.02322582 0.037103102 0.042758983 0
0.064630203 0.03924761 0.042409081 0
0.067754403 0.036404032 0.042672895 0
-0.024232717 0.042777587 0.042343963 0
0.059420597 0.044474732 0.042116307 0
0.062007405 0.041804075 0.042479601 0
-0.022361752 0.047924653 0.04219621 0
0.056540851 0.047591388 0.042347312 0
-0.020274 0.050062433 0.043434847 0
-0.017580286 0.052600257 0.042395271 0
0.049312249 0.054586299 0.042839281 0
0.052242003 0.051644988 0.042654671 0
-0.015204 0.055023007 0.042937338 0
-0.012683819 0.05618627 0.042835832 0
-0.0072986167 0.058575075 0.042480707 0
-0.0047764 0.059561834 0.040443126 0
0.043884404 0.059593309 0.041960534 0
0.046836164 0.056788217 0.042443879 0
-0.0024795004 0.061354354 0.042336941 0
0.0016517098 0.063871302 0.042167775 0
0.039086573 0.063921139 0.042713296 0
0.041892335 0.061435428 0.042478245 0
0.0043754997 0.065664023 0.04311993 0
0.0075237271 0.067609742 0.042284388 0
0.01027425 0.069112152 0.042292818 0
0.033114456 0.068793625 0.042636793 0
0.036494251 0.066029377 0.042330522 0
0.013256889 0.070803061 0.042282224 0
0.017677335 0.073398888 0.042614024 0
0.027756006 0.07288526 0.042866949 0
0.0306515 0.070557088 0.042201102 0
0.019951999 0.075159237 0.044493001 0
0.0230627 0.075267069 0.041967269 0
0.022891 -0.070627525 0.047505509 0
0.027512819 -0.070585325 0.047247231 0
0.018559534 -0.067439049 0.047579188 0
0.020470001 -0.069477312 0.048952844 0
0.029718 -0.069798946 0.049129594 0
0.032360334 -0.068943672 0.04742856 0
0.037585337 -0.066982076 0.047520425 0
0.041503251 -0.065248102 0.048204705 0
0.014254143 -0.061694425 0.047617711 0
0.015951401 -0.06411016 0.046929426 0
0.043479502 -0.064414181 0.046602946 0
0.047132928 -0.062847629 0.047711425 0
0.051935129 -0.060879447 0.047307473 0
0.011433429 -0.057574112 0.047114037 0
0.053672001 -0.059978548 0.045962043 0
0.057005934 -0.057970382 0.047651347 0
0.060763668 -0.055286974 0.046769753 0
0.0084848916 -0.051959407 0.047522552 0
0.010186 -0.054889631 0.049850918 0
0.063472077 -0.05303904 0.047137674 0
0.066674665 -0.050964128 0.048329126 0
0.0062419455 -0.047181364 0.047460601 0
0.068438776 -0.048231293 0.046949886 0
0.072398998 -0.046591934 0.048037697 0
0.076118 -0.045005299 0.048876122 0
0.0042589502 -0.042514123 0.04715674 0
0.074150003 -0.044354636 0.046002854 0
0.077676997 -0.043827116 0.047128145 0
0.082315266 -0.041570395 0.04756242 0
0.002451991 -0.037681699 0.047474869 0
0.011478749 -0.036502324 0.047380172 0
0.087498501 -0.038487718 0.046896845 0
0.091127716 -0.03603239 0.047089648 0
-0.00014882001 -0.030201102 0.047427326 0
0.00053986779 -0.03246088 0.047252212 0
0.0090071177 -0.032444876 0.047917526 0
0.010186 -0.034505934 0.049792949 0
0.093314283 -0.034072332 0.047962762 0
0.097042911 -0.031203572 0.04734784 0
-0.001374724 -0.027017713 0.047479223 0
0.0076558576 -0.028598787 0.047169495 0
0.099414498 -0.028875023 0.047812838 0
0.10125726 -0.026939515 0.047401018 0
-0.0032931999 -0.022515068 0.047736436 0
0.0043270998 -0.020095263 0.049596474 0
0.0055935672 -0.02183608 0.04913212 0
0.10393333 -0.024045605 0.047383975 0
0.10595 -0.021830112 0.047378294 0
-0.0055463715 -0.01682172 0.047763996 0
-0.0046054004 -0.018877085 0.046404205 0
0.0036956123 -0.01748495 0.047258757 0
0.0052665002 -0.018820571 0.047858786 0
0.10777999 -0.017612915 0.047087774 0
-0.0073604505 -0.012446389 0.047356032 0
0.0020727911 -0.012971243 0.047463942 0
0.107113 -0.012591461 0.04682564 0
-0.010234 -0.0057293251 0.047350165 0
-0.0094157252 -0.0082479194 0.047694281 0
-0.00090199336 -0.0069634831 0.045799911 0
0.00042085 -0.0090892995 0.046365634 0
0.10398626 -0.0069238245 0.047045246 0
0.10560334 -0.0096515715 0.048147321 0
-0.011441167 -0.0029362205 0.047657683 0
0.099959001 -0.00042452663 0.04889309 0
0.10126583 -0.0025343306 0.047661241 0
-0.013221 0.0024311792 0.047391471 0
0.097847506 0.0026417009 0.047043812 0
-0.01521375 0.0086303996 0.048189513 0
-0.0144338 0.0070209592 0.047030047 0
0.093481742 0.0084559759 0.04745682 0
0.095679604 0.0058016665 0.047426689 0
-0.01576443 0.012019221 0.047204114 0
0.08863201 0.0140382 0.047337718 0
0.091171868 0.011082108 0.04765879 0
-0.017492091 0.017089887 0.047939751 0
0.084336147 0.01871378 0.047918942 0
0.086328581 0.016555462 0.047359202 0
-0.019313091 0.022245513 0.047133911 0
0.079422504 0.02443359 0.047489394 0
0.081521906 0.021964949 0.047438916 0
-0.020935001 0.027537515 0.047529183 0
0.074640751 0.029074257 0.047505144 0
0.077262454 0.026659902 0.047504578 0
-0.022246575 0.032104321 0.047254 0
0.068839252 0.034741841 0.048130132 0
0.071833715 0.031867772 0.047363531 0
-0.023437334 0.036847342 0.047589328 0
0.064686835 0.038921047 0.047599696 0
0.06696929 0.036790144 0.047474895 0
-0.024595145 0.042727038 0.047465846 0
0.059369337 0.0446935 0.04787086 0
0.061992187 0.042056035 0.047374737 0
-0.022530541 0.047926445 0.047175981 0
0.054784 0.04929141 0.046087004 0
0.056753129 0.047235362 0.047442071 0
-0.020680999 0.050231971 0.047798593 0
-0.017630201 0.052910186 0.047227357 0
0.049232598 0.054617908 0.047578063 0
0.052258309 0.051754031 0.047579922 0
-0.015204 0.0550665 0.048987202 0
-0.012457223 0.05652282 0.04774648 0
-0.0081357891 0.058697779 0.047090359 0
0.044334501 0.059430871 0.048315264 0
0.046462279 0.057282083 0.047465444 0
-0.0054385005 0.060235377 0.047050856 0
-0.0025771454 0.061996382 0.047422644 0
0.0011446686 0.063952513 0.04736761 0
0.039465401 0.063794248 0.048156656 0
0.042193003 0.061395571 0.047453932 0
0.0041319397 0.065728121 0.047279239 0
0.0070458185 0.067573994 0.04757721 0
0.01015 0.069466144 0.046756033 0
0.033027001 0.068777382 0.047392968 0
0.036275752 0.066131674 0.047384903 0
0.013161584 0.071142659 0.047423653 0
0.0175352 0.073682606 0.047625676 0
0.027492788 0.07328593 0.047611691 0
0.030941751 0.070693448 0.047697883 0
0.019951999 0.075122446 0.046998035 0
0.0228815 0.075432032 0.047748968 0
0.022803374 -0.070617512 0.052461691 0
0.026777253 -0.070515946 0.052502729 0
0.018296847 -0.06755545 0.05270794 0
0.029718002 -0.069777846 0.05242797 0
0.032584112 -0.06857004 0.052398797 0
0.037306774 -0.066683911 0.052643824 0
0.041437 -0.065092087 0.051000532 0
0.014244286 -0.061695773 0.052310023 0
0.015915401 -0.064389102 0.051838785 0
0.042895105 -0.064246319 0.052536923 0
0.047447272 -0.062136523 0.052730106 0
0.051220998 -0.060666766 0.052441686 0
0.011226933 -0.057273343 0.052621823 0
0.053234 -0.059521444 0.052130528 0
0.057431169 -0.057347935 0.052661985 0
0.060899291 -0.055230401 0.052405037 0
0.0083261803 -0.052156974 0.052568257 0
0.063676335 -0.053364363 0.052225541 0
0.067651004 -0.050907511 0.052650936 0
0.0061706621 -0.04765214 0.052146889 0
0.0726678 -0.047796354 0.05245677 0
0.076378249 -0.045392886 0.052187614 0
0.0041386997 -0.042756051 0.052544761 0
0.0050838999 -0.044835273 0.053240746 0
0.078385428 -0.044169597 0.052539151 0
0.082242221 -0.041760311 0.052387517 0
0.002034741 -0.037790842 0.052634895 0
0.087239929 -0.038243886 0.052213598 0
0.090529501 -0.035623945 0.052783366 0
-0.00055103749 -0.030887354 0.05226136 0
0.00047407427 -0.033331472 0.052257065 0
0.0078948671 -0.030562256 0.051513329 0
0.093165323 -0.033454292 0.052192789 0
0.096301287 -0.030973054 0.052308455 0
-0.001810189 -0.027980702 0.052389581 0
0.0061018001 -0.026284752 0.052881192 0
0.098481201 -0.029246023 0.052445222 0
0.100919 -0.026715446 0.052537154 0
-0.00368573 -0.0228968 0.052429028 0
0.0039840164 -0.021560904 0.053056519 0
0.0057611 -0.023412412 0.051670562 0
0.10386126 -0.02334057 0.052483391 0
0.105986 -0.021029828 0.052234668 0
-0.0058632088 -0.017443703 0.052728232 0
-0.0047602998 -0.019592471 0.050511427 0
0.0032998249 -0.017602917 0.051089458 0
0.10742 -0.01732539 0.052608285 0
-0.0080672847 -0.01269243 0.052888241 0
0.10630818 -0.01156679 0.052380569 0
-0.010864399 -0.0061849258 0.052504051 0
-0.0095711006 -0.0094105545 0.052035388 0
0.103924 -0.0071560577 0.052407514 0
0.10537 -0.0099235326 0.051883455 0
-0.012090889 -0.0027108418 0.052590176 0
0.099740997 -0.00025498681 0.05325684 0
0.10126182 -0.0024486438 0.052218921 0
-0.0136972 0.0019911719 0.052106947 0
0.098003455 0.0023820605 0.052422106 0
-0.015373998 0.007720992 0.052547093 0
-0.014764 0.0054357154 0.053472329 0
0.09335918 0.0085711256 0.052464098 0
0.096048281 0.0052148076 0.052900214 0
-0.016745364 0.013161193 0.052582007 0
0.088574007 0.013890284 0.05236917 0
0.090756506 0.011574076 0.052043281 0
-0.018323667 0.017643057 0.052706622 0
0.084270291 0.018741928 0.05304518 0
0.086421005 0.016437214 0.052009519 0
-0.020258 0.02390423 0.05260938 0
-0.019270573 0.021082323 0.051877078 0
0.079241 0.024603244 0.051853649 0
0.081510402 0.022046881 0.051995654 0
-0.021331364 0.027156826 0.052757367 0
0.074584171 0.029428972 0.052920252 0
0.077440925 0.026644804 0.05273341 0
-0.02289791 0.032986816 0.05206766 0
0.069619998 0.034187302 0.051044434 0
0.071709543 0.031995706 0.052684605 0
-0.024163572 0.037798882 0.052402459 0
0.064709 0.03921831 0.052429616 0
0.067414172 0.036839828 0.052617606 0
-0.025258999 0.043000095 0.052886941 0
-0.024944669 0.041779302 0.051897198 0
0.059171669 0.0446283 0.053422876 0
0.061921075 0.042082798 0.052508324 0
-0.025157001 0.04526674 0.054984041 0
-0.023604751 0.047483526 0.05261369 0
0.0546645 0.049545959 0.052633062 0
0.057075568 0.047028072 0.052509639 0
-0.020902168 0.050486218 0.052409232 0
-0.017363857 0.053535841 0.052527562 0
0.049333405 0.054466665 0.05293531 0
0.051969822 0.051898606 0.052324366 0
-0.015204 0.055070728 0.051826078 0
-0.0124442 0.056557745 0.052303668 0
-0.0086694919 0.058654532 0.052340634 0
0.044040248 0.059269704 0.053284641 0
0.046475664 0.057205386 0.0524536 0
-0.0056392602 0.060498752 0.052564181 0
-0.0027326299 0.062291455 0.052404638 0
0.00059618748 0.06419234 0.052761197 0
0.039315801 0.063755713 0.052493941 0
0.041859373 0.061332632 0.05223773 0
0.0034728891 0.065714732 0.051879782 0
0.0073274458 0.068099335 0.052920289 0
0.01017575 0.069646269 0.051078308 0
0.03332486 0.068823926 0.052476663 0
0.036599502 0.065962277 0.05264743 0
0.0127592 0.071342468 0.052744072 0
0.017375547 0.073791474 0.052265994 0
0.028147217 0.073254041 0.052630328 0
0.031327166 0.070394635 0.052503105 0
0.019951999 0.075171426 0.052904546 0
0.0228815 0.07564871 0.0530557 0
0.025812 0.075018615 0.053279866 0
0.022643859 -0.070376955 0.057178378 0
0.026230499 -0.070331708 0.057574548 0
0.018698167 -0.067787588 0.0574167 0
0.020367 -0.06913887 0.057681266 0
0.028881002 -0.069585606 0.057257786 0
0.032429546 -0.068234757 0.057447188 0
0.037569549 -0.066143118 0.057337888 0
0.013945624 -0.061444845 0.057422165 0
0.015848717 -0.064348765 0.057662286 0
0.039483 -0.064937048 0.059829168 0
0.0423989 -0.064030439 0.057481673 0
0.047525842 -0.061683591 0.05755917 0
0.050760999 -0.060318135 0.056176715 0
0.0098890001 -0.055105697 0.058884628 0
0.011381309 -0.057505891 0.057812147 0
0.052348875 -0.059316602 0.057640288 0
0.057233069 -0.056805141 0.057557724 0
0.0083537707 -0.052445348 0.057767738 0
0.063316792 -0.053203866 0.057357196 0
0.067293718 -0.050818495 0.057361979 0
0.0062257419 -0.047910817 0.057188779 0
0.069248006 -0.049549829 0.057317168 0
0.072401434 -0.04727098 0.057467297 0
0.0040358896 -0.042958084 0.057664853 0
0.077529594 -0.043966621 0.057512086 0
0.081975184 -0.04121539 0.057176646 0
0.0019749221 -0.037943594 0.057533436 0
0.084286004 -0.039258555 0.058761686 0
0.08755751 -0.037269503 0.057330038 0
0.090264998 -0.035199434 0.056859422 0
-0.00092114432 -0.031529874 0.058125682 0
0.00044917333 -0.034508031 0.057681568 0
0.0082333004 -0.030589484 0.056925427 0
0.092632145 -0.033118315 0.057553109 0
0.095756009 -0.030301079 0.056849476 0
-0.00229243 -0.027830187 0.057261713 0
0.0065238699 -0.027439926 0.05738261 0
0.097968005 -0.028222248 0.057731561 0
0.100345 -0.026012816 0.057610191 0
-0.0054228995 -0.020350829 0.05816067 0
-0.0039944001 -0.023558082 0.057089992 0
0.0052489 -0.023786679 0.055044714 0
0.10294166 -0.023472903 0.057596438 0
0.105828 -0.020506633 0.056752779 0
-0.0067320443 -0.017187642 0.05742659 0
0.10687833 -0.017947458 0.057779223 0
-0.0088461908 -0.012167445 0.057914283 0
0.106363 -0.01224853 0.057914581 0
-0.0110458 -0.0068116859 0.05737533 0
-0.0097402995 -0.0097535085 0.056248076 0
0.10382222 -0.0073789451 0.05752309 0
0.10531 -0.0097535085 0.056248076 0
-0.013008091 -0.0021196739 0.057293162 0
0.099633001 -8.5446984e-05 0.057620589 0
0.10132499 -0.0026860905 0.057166666 0
-0.014532399 0.0025328037 0.057518866 0
0.097371101 0.0030314734 0.05774235 0
-0.015506908 0.0067623835 0.057912063 0
0.093353853 0.0084584551 0.057567772 0
0.0956745 0.0056048203 0.057836317 0
-0.017065728 0.012492549 0.057744727 0
0.088388868 0.013975198 0.057324357 0
0.090479106 0.011783949 0.057474561 0
-0.0187546 0.017992606 0.057405155 0
0.0843428 0.018519333 0.057648111 0
0.086330116 0.016495885 0.057377771 0
-0.0207424 0.024068005 0.057986047 0
-0.01963325 0.020879077 0.057243437 0
0.078765668 0.024725728 0.058560338 0
0.081633605 0.021672668 0.057181984 0
-0.021718625 0.026914898 0.057348587 0
0.074509807 0.029010886 0.058215059 0
0.077220663 0.026402693 0.057168562 0
-0.023167912 0.032434452 0.057281528 0
0.069480501 0.034441397 0.057590179 0
0.071663678 0.03202682 0.057327479 0
-0.024675099 0.038118299 0.057506878 0
0.064874001 0.039244033 0.057646424 0
0.067297503 0.036830194 0.057489067 0
-0.025360571 0.042112224 0.057354726 0
0.059201166 0.044464163 0.057363525 0
0.062221415 0.041461196 0.057737865 0
-0.025324 0.045436762 0.059348665 0
-0.023713 0.047745302 0.057407603 0
0.054393999 0.049800511 0.059179123 0
0.056334328 0.047714204 0.057517122 0
-0.02114575 0.050705887 0.057148319 0
-0.017359883 0.053359911 0.05766385 0
0.049278669 0.054583844 0.057706051 0
0.052088998 0.052078675 0.057420015 0
-0.012153455 0.056751881 0.057373829 0
-0.0085007874 0.059120834 0.057584174 0
0.043782201 0.059433378 0.057240497 0
0.0463911 0.056855131 0.057594206 0
-0.0054702288 0.060809094 0.057789635 0
-0.0023543802 0.062831238 0.05743891 0
0.00047072201 0.064485483 0.057730582 0
0.039290667 0.063732632 0.057270866 0
0.041401669 0.061380446 0.057316799 0
0.0030189001 0.065882146 0.057315785 0
0.007427664 0.068497755 0.05777641 0
0.033439573 0.068805024 0.057543997 0
0.036639363 0.06602408 0.057620868 0
0.012441461 0.071416907 0.057157714 0
0.016972302 0.073926009 0.057647903 0
0.028118499 0.073052004 0.057531439 0
0.031544801 0.070291221 0.057624858 0
0.01992625 0.075127035 0.056980591 0
0.02311 0.075894818 0.057617277 0
0.0257325 0.075081773 0.057543464 0
0.023858 -0.070124611 0.060451418 0
0.025812 -0.07017719 0.060480312 0
0.018170502 -0.067028329 0.062413722 0
0.022321749 -0.069507837 0.062119864 0
0.028046912 -0.069309391 0.062287699 0
0.032617748 -0.067592479 0.062491488 0
0.036745094 -0.065968066 0.062758744 0
0.014034126 -0.061576676 0.06255471 0
0.015804751 -0.064467847 0.062684655 0
0.039483003 -0.064747289 0.062436387 0
0.042159446 -0.063448854 0.062226314 0
0.047007538 -0.061237965 0.062583447 0
0.011260182 -0.057470616 0.062506549 0
0.049249001 -0.059902862 0.063749254 0
0.052342601 -0.058423102 0.062521778 0
0.056379702 -0.056451567 0.062295735 0
0.0084875608 -0.052704282 0.062964521 0
0.058958672 -0.054848939 0.063327491 0
0.062416568 -0.053007778 0.06256482 0
0.066466503 -0.050549056 0.062821627 0
0.0049060001 -0.045352422 0.062438767 0
0.0062516001 -0.0483418 0.062679924 0
0.068564862 -0.049261555 0.062250577 0
0.072726712 -0.046492569 0.062278152 0
0.0035648912 -0.042428993 0.062585011 0
0.074639998 -0.044975374 0.064460024 0
0.077683099 -0.04327729 0.062314868 0
0.081283443 -0.040842533 0.062365141 0
0.0012718609 -0.037458993 0.062408455 0
0.083828598 -0.039030191 0.063278362 0
0.087023549 -0.036835529 0.062374853 0
-0.001215503 -0.032240968 0.062664606 0
0.089511 -0.034828126 0.063340753 0
0.092594646 -0.032504555 0.062319152 0
-0.0032526914 -0.027170872 0.062494192 0
0.0082333004 -0.029301608 0.060303777 0
0.096949667 -0.028340954 0.062462367 0
0.10012334 -0.025334992 0.062935233 0
-0.0056203147 -0.021232659 0.062177852 0
-0.0046996335 -0.023503628 0.062318511 0
0.10324786 -0.022124296 0.062714614 0
-0.0073231901 -0.017208824 0.062320806 0
0.1063411 -0.017656039 0.062571585 0
-0.0091708601 -0.012303364 0.062706396 0
0.105982 -0.012326437 0.06269078 0
-0.011299917 -0.0073570996 0.062709391 0
0.10372584 -0.0075032394 0.06263414 0
-0.013267555 -0.0022479712 0.062371425 0
0.099498004 -0.00068692863 0.064636491 0
0.10102692 -0.002599573 0.062442072 0
-0.015178833 0.0041958787 0.063187681 0
-0.0144996 0.0018295952 0.061916519 0
0.097409435 0.0026532994 0.062421389 0
-0.016140334 0.0075427201 0.06271489 0
0.09318608 0.0081959665 0.06268727 0
0.095196001 0.0057741636 0.062200747 0
-0.017423332 0.01222459 0.062443309 0
0.088481002 0.013806063 0.062379051 0
0.090584002 0.011426576 0.062595308 0
-0.019085456 0.017543785 0.062883735 0
0.083908997 0.018535726 0.062420048 0
0.086282581 0.016259816 0.063083872 0
-0.020754332 0.023479909 0.062507704 0
-0.019618999 0.020192606 0.062077593 0
0.078949571 0.024024209 0.062494706 0
0.081500664 0.021123724 0.062365659 0
-0.022479445 0.028125789 0.062637262 0
0.074430145 0.028685208 0.063063405 0
0.076508284 0.026680149 0.061829366 0
-0.023524251 0.032402135 0.061827566 0
0.068818502 0.034710884 0.062016152 0
0.071566097 0.031971425 0.062317677 0
-0.025272001 0.039160289 0.062797755 0
-0.024834501 0.037112441 0.062986307 0
0.064629331 0.038879648 0.062542528 0
0.066935122 0.036532063 0.062805042 0
-0.025842858 0.042684976 0.062452607 0
0.059177797 0.044554122 0.063025653 0
0.062068895 0.041723546 0.062266007 0
-0.025332 0.045991641 0.062386435 0
-0.023857182 0.048285317 0.062410031 0
0.054127999 0.049970053 0.063542873 0
0.056330413 0.047711119 0.062304638 0
-0.021021402 0.050566155 0.062012184 0
-0.017355286 0.053040806 0.062663436 0
0.049277 0.05441726 0.06280002 0
0.052020092 0.052078091 0.062361419 0
-0.012515818 0.056605816 0.062276971 0
-0.0086188009 0.059265714 0.062247735 0
0.043475572 0.059391178 0.06239881 0
0.046430003 0.056629952 0.062497586 0
-0.0062211999 0.060921688 0.063348696 0
-0.0023072218 0.063223973 0.06258408 0
0.00042895752 0.064812213 0.062616348 0
0.039154142 0.063677862 0.062491838 0
0.04152086 0.061384574 0.062509142 0
0.0034179445 0.066445239 0.062554337 0
0.0070490302 0.068706505 0.062704109 0
0.033706333 0.06863118 0.062384099 0
0.036382005 0.066245496 0.062525399 0
0.0093604997 0.070078567 0.063636132 0
0.012405002 0.071604334 0.062447872 0
0.016934875 0.074137725 0.062657945 0
0.028034536 0.073057972 0.062561482 0
0.031425398 0.070266835 0.062644027 0
0.019819999 0.075385183 0.061404336 0
0.022741999 0.075895958 0.062155113 0
0.0256075 0.075126655 0.060656682 0
0.018552337 -0.067056313 0.067460909 0
0.022654288 -0.069038652 0.066955045 0
0.027852546 -0.068445742 0.067232743 0
0.032689799 -0.066683538 0.067376502 0
0.035681751 -0.065413624 0.06833224 0
0.014170624 -0.061495733 0.067538239 0
0.015912602 -0.064268783 0.066991679 0
0.038721334 -0.064359538 0.067088909 0
0.042360168 -0.06257309 0.067493379 0
0.046387006 -0.060712308 0.067593083 0
0.011387694 -0.057416253 0.067325979 0
0.049293399 -0.059241731 0.06773515 0
0.052214801 -0.057627846 0.067460209 0
0.056128863 -0.055675857 0.067187361 0
0.0083915675 -0.052436452 0.067552425 0
0.05849329 -0.054161463 0.068298362 0
0.062977463 -0.051848225 0.067352809 0
0.065453 -0.050402865 0.067442581 0
0.0045244 -0.045098551 0.068984628 0
0.0059809885 -0.047888245 0.067627631 0
0.067946777 -0.048831437 0.0678977 0
0.071951464 -0.046372257 0.067653097 0
0.0033869999 -0.042500533 0.067579851 0
0.074639998 -0.044741686 0.06689249 0
0.077557161 -0.042780261 0.06721583 0
0.080421999 -0.040614277 0.068418235 0
-1.9059e-05 -0.035599157 0.065992914 0
0.00099069218 -0.03766913 0.067547917 0
0.083281912 -0.038751353 0.067464873 0
0.086747147 -0.036300838 0.067344159 0
-0.0013365 -0.032485742 0.067404591 0
0.088558003 -0.03450777 0.068420812 0
0.092123143 -0.032199807 0.066904232 0
-0.003310211 -0.027228445 0.067355059 0
0.0944805 -0.029594798 0.069379866 0
0.097298734 -0.027322315 0.067076653 0
-0.0054151248 -0.021730021 0.067501225 0
-0.0043492666 -0.024161628 0.067879833 0
0.099265002 -0.024989165 0.069077402 0
0.10221867 -0.02239082 0.067975037 0
-0.0071954401 -0.017554045 0.067430124 0
0.10487 -0.019854393 0.066255704 0
0.10587554 -0.017425504 0.067524828 0
-0.0091738207 -0.012404306 0.067469135 0
0.1049 -0.010186328 0.06762822 0
0.10585999 -0.012988023 0.067406178 0
-0.011232125 -0.0074756006 0.067584157 0
0.10310273 -0.0072384402 0.067732707 0
-0.013107547 -0.002517527 0.067650594 0
0.099334002 -0.00098719075 0.06814532 0
0.10054667 -0.0026594319 0.067623951 0
-0.015243401 0.0040673963 0.067953862 0
-0.0145354 0.0016912073 0.067342006 0
0.09700308 0.0024875531 0.067300856 0
-0.016642667 0.0079855006 0.067467317 0
0.093245879 0.007584909 0.06762132 0
-0.017869286 0.011936656 0.06693282 0
0.08863429 0.013261068 0.066940501 0
0.090412997 0.011099922 0.067810059 0
-0.020112 0.019591119 0.069093496 0
-0.01922 0.016411381 0.067699946 0
0.083478458 0.018755689 0.067455247 0
0.08627367 0.016062621 0.067749351 0
-0.020925101 0.023302466 0.067567937 0
-0.019965 0.020362146 0.066441342 0
0.078619435 0.023999767 0.067486025 0
0.080677748 0.02172032 0.067232549 0
-0.022601668 0.027939299 0.06728489 0
0.074470803 0.028479854 0.067805924 0
0.076453999 0.02638524 0.067144819 0
-0.023690002 0.032011654 0.067362837 0
0.068971835 0.034268644 0.067361735 0
0.072002396 0.031333931 0.067525662 0
-0.02548125 0.038331226 0.067710266 0
-0.024951402 0.035867479 0.067707926 0
0.064632833 0.038705956 0.067741111 0
0.066789858 0.036545318 0.067536458 0
-0.02603757 0.042634077 0.067574196 0
0.059074163 0.044530727 0.06772624 0
0.06173658 0.041805506 0.067384161 0
-0.025359668 0.046345972 0.067762874 0
-0.023940455 0.048177738 0.067416817 0
0.054572999 0.04919903 0.066195033 0
0.056358717 0.047326256 0.0676568 0
-0.020999199 0.050436128 0.066957034 0
-0.0172482 0.052917108 0.067631267 0
-0.015 0.05450334 0.06773708 0
0.0492156 0.054015636 0.066899411 0
0.052395929 0.051333822 0.067605056 0
-0.012420168 0.056714784 0.067247063 0
-0.0091418177 0.059080746 0.067882963 0
0.043485288 0.059059221 0.06756743 0
0.046595547 0.056183558 0.067769125 0
-0.0064937891 0.06085417 0.06772884 0
-0.002580449 0.063143849 0.067646272 0
0.00026078499 0.064828642 0.067635328 0
0.039087143 0.063602179 0.067501538 0
0.04132767 0.061348092 0.067210376 0
0.002956558 0.066250071 0.067283161 0
0.0070424774 0.068786658 0.067571163 0
0.033643287 0.068498731 0.067431554 0
0.036279101 0.066220805 0.067368254 0
0.0095821004 0.070248105 0.06799987 0
0.012126787 0.071534157 0.067834668 0
0.016999224 0.073979281 0.067230381 0
0.027907465 0.073145919 0.067406036 0
0.031268835 0.070525318 0.067495905 0
0.019941334 0.075384825 0.066940784 0
0.022973401 0.075654142 0.067444019 0
0.025683999 0.075512148 0.069492176 0
0.018836636 -0.066819772 0.072512999 0
0.022766443 -0.068513006 0.072122335 0
0.02771147 -0.067612395 0.07247632 0
0.032865498 -0.065755442 0.072280392 0
0.035576999 -0.065045118 0.071031988 0
0.014168335 -0.061482292 0.072474614 0
0.015998572 -0.063998692 0.072379448 0
0.037902694 -0.063856781 0.072534494 0
0.042618748 -0.061618589 0.072560444 0
0.045343004 -0.060427636 0.072516739 0
0.011210564 -0.057233158 0.072566755 0
0.048110638 -0.059176181 0.072567277 0
0.052335251 -0.057007737 0.071975991 0
0.055183001 -0.055488627 0.072887041 0
0.0082037821 -0.052208275 0.072412059 0
0.057930004 -0.053897507 0.072941586 0
0.062269155 -0.051493794 0.072266392 0
0.0048698001 -0.045869574 0.071636789 0
0.0061082998 -0.048333976 0.072604083 0
0.064874001 -0.049882151 0.073046498 0
0.068008639 -0.048104808 0.072781399 0
0.071263008 -0.046010893 0.071812354 0
0.0034143417 -0.042663008 0.072567269 0
0.073866382 -0.044150915 0.072502315 0
0.077339903 -0.041875303 0.072582498 0
0.080499001 -0.04007595 0.07068263 0
-7.9229998e-05 -0.03525959 0.074721284 0
0.00093291001 -0.037370093 0.072296821 0
0.082461156 -0.038395073 0.072708637 0
0.086333297 -0.035533037 0.072996818 0
-0.0015575591 -0.032175738 0.072229713 0
0.088381402 -0.034126591 0.072870679 0
0.091607273 -0.031730749 0.072092384 0
-0.003573467 -0.027411992 0.072085641 0
0.094115004 -0.029221416 0.072888784 0
0.096692584 -0.026512226 0.072408214 0
-0.0056345128 -0.022224931 0.072782077 0
-0.0046778498 -0.024434548 0.072115317 0
0.099179 -0.024434548 0.072115317 0
0.10115399 -0.022534527 0.072676085 0
-0.0074655833 -0.017513707 0.072679467 0
0.10412143 -0.019151401 0.072873116 0
0.10566401 -0.015928399 0.07212095 0
-0.010228001 -0.010401819 0.073318921 0
-0.0093268221 -0.012670843 0.072347045 0
0.10443 -0.010722208 0.072826214 0
0.10573 -0.013587924 0.071981765 0
-0.011364889 -0.0072835819 0.072199658 0
0.10273539 -0.0073815142 0.072369218 0
-0.013207701 -0.002499077 0.072691619 0
0.099167004 -0.0012314165 0.073107861 0
0.10037715 -0.0030810435 0.072542801 0
-0.015340714 0.0038577891 0.072452292 0
-0.014570333 0.0013642255 0.072424307 0
0.094826996 0.0048721805 0.072725043 0
0.097056173 0.0018393763 0.07229279 0
-0.016911548 0.0085432129 0.07262601 0
0.092968836 0.0074780388 0.072649084 0
-0.018424889 0.013029282 0.072594181 0
0.088342607 0.013290869 0.072214372 0
0.090478607 0.010929088 0.073045887 0
-0.020186 0.019290861 0.072602324 0
-0.019490002 0.01664054 0.072201125 0
0.083528176 0.018260475 0.07252425 0
0.08633551 0.0157356 0.072281942 0
-0.0211519 0.022622246 0.072409831 0
0.07865572 0.023733484 0.072454408 0
0.08076784 0.021562282 0.072259352 0
-0.022866301 0.028388722 0.072372139 0
0.074289002 0.028679952 0.072579548 0
0.076348856 0.026356097 0.072453529 0
-0.024051856 0.032584183 0.072460189 0
0.069013171 0.034220919 0.072478533 0
0.071682014 0.031475589 0.072555117 0
-0.025493143 0.037705958 0.072510794 0
-0.024970001 0.035585359 0.072211593 0
0.064622998 0.038964625 0.072508536 0
0.06653475 0.036810771 0.072210975 0
-0.0262748 0.042453632 0.072575957 0
0.059224665 0.044498663 0.072492108 0
0.061860401 0.041876417 0.072096936 0
-0.025672 0.045474574 0.071584404 0
-0.023935832 0.048107959 0.072767213 0
0.054405499 0.049453184 0.072741307 0
0.05643528 0.047286864 0.07269378 0
-0.0210984 0.050335445 0.072302006 0
-0.017437689 0.052917272 0.07276763 0
-0.014811 0.054673366 0.072101705 0
0.04911337 0.053904999 0.072501123 0
0.051977903 0.051359572 0.072572865 0
-0.012290272 0.056684036 0.072214492 0
-0.0088060433 0.059033852 0.072771326 0
0.043615434 0.059022415 0.072654702 0
