# .PCD v0.7 - Point Cloud Data file format
VERSION 0.7
FIELDS x y z rgba
SIZE 4 4 4 4
TYPE F F F U
COUNT 1 1 1 1
WIDTH 1018
HEIGHT 1
VIEWPOINT 0 0 0 1 0 0 0
POINTS 1018
DATA ascii
-0.010545 -0.015957937 0.14858721 4278190080
0.084404998 -0.015521616 0.14840201 4278190080
0.0845 -0.015957937 0.14858721 4278190080
-0.010566 -0.015196014 0.15038219 4278190080
0.083268002 -0.015196014 0.15038219 4278190080
0.084404998 -0.015903238 0.14871608 4278190080
-0.010547 -0.014434084 0.15217718 4278190080
0.082354002 -0.014434084 0.15217718 4278190080
0.082451999 -0.014523953 0.15196547 4278190080
-0.010552 -0.013668254 0.15398137 4278190080
0.081487998 -0.013668254 0.15398137 4278190080
-0.010517 -0.012906328 0.15577637 4278190080
0.080149002 -0.012906328 0.15577637 4278190080
0.080499001 -0.013117321 0.15527929 4278190080
-0.011298 -0.01058691 0.15691024 4278190080
-0.010652 -0.012144402 0.15757136 4278190080
0.078546003 -0.010754436 0.15698135 4278190080
0.079157002 -0.012144402 0.15757136 4278190080
-0.010517 -0.011382475 0.15936634 4278190080
0.077918001 -0.011382475 0.15936634 4278190080
0.078546003 -0.011757582 0.15848264 4278190080
-0.010404 -0.010616645 0.16117051 4278190080
0.076592997 -0.009803839 0.16082549 4278190080
0.076881997 -0.010616645 0.16117051 4278190080
-0.010451 -0.0098547153 0.16296552 4278190080
0.075828999 -0.0098547153 0.16296552 4278190080
0.076592997 -0.010393929 0.16169521 4278190080
-0.010615 -0.0090927929 0.1647605 4278190080
0.074639998 -0.0084272698 0.164478 4278190080
0.074821003 -0.0090927929 0.1647605 4278190080
-0.010498 -0.0083269626 0.16656467 4278190080
0.073790997 -0.0083269626 0.16656467 4278190080
0.074639998 -0.0089482218 0.16510108 4278190080
-0.010544 -0.0075650327 0.16835967 4278190080
0.072617002 -0.0075650327 0.16835967 4278190080
0.072687 -0.0076119229 0.1682492 4278190080
-0.01038 -0.0068031065 0.17015466 4278190080
0.071525 -0.0068031065 0.17015466 4278190080
-0.0098278997 -0.0060372762 0.17195883 4278190080
0.001372 -0.0050053559 0.16939156 4278190080
0.0023739999 -0.0046029054 0.17033967 4278190080
0.0023739999 -0.0059304647 0.16978425 4278190080
0.070486002 -0.0060372762 0.17195883 4278190080
0.070733003 -0.0062287338 0.17150779 4278190080
-0.0093448004 -0.005787205 0.17254797 4278190080
-0.0093448004 -0.0035475641 0.17302041 4278190080
-0.0084287003 -0.0052753538 0.17375381 4278190080
0.068779998 -0.0038264766 0.1731388 4278190080
0.06938 -0.0052753538 0.17375381 4278190080
-0.0073917001 -0.0049158745 0.17460069 4278190080
-0.0057028001 -0.0045134239 0.17554881 4278190080
0.068099 -0.0045134239 0.17554881 4278190080
0.068779998 -0.0049119666 0.1746099 4278190080
-0.0054385001 -0.0044587255 0.17567769 4278190080
-0.0034854 -0.0040953457 0.17653374 4278190080
-0.0015323 -0.0038140118 0.17719652 4278190080
-0.0015323 -0.0033085048 0.17716661 4278190080
-0.00080809998 -0.0037475899 0.17735299 4278190080
0.066748999 -0.0037475899 0.17735299 4278190080
0.066826999 -0.0037944764 0.17724253 4278190080
0.00042085 -0.0036420971 0.17760153 4278190080
0.0023739999 -0.0034857988 0.17796974 4278190080
0.0043270998 -0.0033216923 0.17835635 4278190080
0.0062802001 -0.0031028837 0.17887184 4278190080
0.0062802001 -0.0021627322 0.17879866 4278190080
0.0075165001 -0.0029856712 0.17914797 4278190080
0.064874001 -0.00268282 0.17901942 4278190080
0.064957999 -0.0029856712 0.17914797 4278190080
0.0082333004 -0.0029192418 0.17930447 4278190080
0.010186 -0.0026848018 0.17985676 4278190080
0.01214 -0.0024659932 0.18037225 4278190080
0.014093 -0.0023370534 0.18067601 4278190080
0.014093 -0.0013915971 0.18058974 4278190080
0.015504 -0.0022237375 0.18094297 4278190080
0.062167 -0.0022237375 0.18094297 4278190080
0.062921003 -0.0024073794 0.18051034 4278190080
0.064874001 -0.0029583126 0.17921242 4278190080
0.016046001 -0.002176851 0.18105343 4278190080
0.017999001 -0.001989305 0.18149526 4278190080
0.019951999 -0.0018408224 0.18184505 4278190080
0.021904999 -0.0017626807 0.18202916 4278190080
0.023858 -0.0016454607 0.18230532 4278190080
0.025812 -0.0015360564 0.18256305 4278190080
0.025812 -0.00071413815 0.18243144 4278190080
0.027765 -0.0014735311 0.18271033 4278190080
0.027765 -0.0013465285 0.18269987 4278190080
0.028069001 -0.0014579073 0.18274716 4278190080
0.059014998 -0.00038919598 0.1822935 4278190080
0.058591999 -0.0014579073 0.18274716 4278190080
0.059014998 -0.0015243292 0.18259068 4278190080
0.060968 -0.0018877164 0.18173459 4278190080
0.029718 -0.0013563186 0.18298648 4278190080
0.031670999 -0.0011609495 0.18344675 4278190080
0.033624001 -0.0010554567 0.18369527 4278190080
0.035576999 -0.00087181479 0.18412791 4278190080
0.035576999 0.00064611435 0.18397245 4278190080
0.037530001 -0.00083273649 0.18421996 4278190080
0.037530001 0.00022821128 0.18414983 4278190080
0.039483 -0.00077412277 0.18435805 4278190080
0.039483 -0.00011514127 0.18429558 4278190080
0.040716 -0.00069598109 0.18454213 4278190080
0.045343 2.3856759e-05 0.18423659 4278190080
0.044622999 -0.00069598109 0.18454213 4278190080
0.045343 -0.00072723627 0.18446851 4278190080
0.047295999 -0.00088743865 0.18409109 4278190080
0.049249001 -0.00091478974 0.18402666 4278190080
0.051201999 -0.0010046586 0.18381494 4278190080
0.053155001 -0.00102029 0.18377812 4278190080
0.055108 -0.0011179671 0.183548 4278190080
0.057062 -0.0012664497 0.1831982 4278190080
0.041437 -0.00064909458 0.1846526 4278190080
0.043389998 -0.00064909458 0.1846526 4278190080
0.025812 -0.073263854 0.013772295 4278190080
0.023858 -0.073176406 0.015856836 4278190080
0.025812 -0.073522523 0.016003754 4278190080
0.027765 -0.073196664 0.015865434 4278190080
0.029718 -0.072931558 0.015752904 4278190080
0.021904999 -0.072177663 0.017554555 4278190080
0.023858 -0.073169053 0.017975373 4278190080
0.025812 -0.073377997 0.018064069 4278190080
0.027765 -0.073450714 0.018094936 4278190080
0.029718 -0.07297574 0.01789332 4278190080
0.031670999 -0.072342426 0.017624496 4278190080
0.021904999 -0.072451971 0.019792657 4278190080
0.022751 -0.072704189 0.019899717 4278190080
0.023858 -0.073096871 0.01897461 4278190080
0.025812 -0.073389143 0.018286072 4278190080
0.027765 -0.073448531 0.018146154 4278190080
0.029718 -0.072919093 0.019393438 4278190080
0.031670999 -0.072408706 0.019774292 4278190080
0.03049 -0.072704189 0.019899717 4278190080
0.033624001 -0.071852721 0.019538291 4278190080
0.035576999 -0.070948787 0.019154593 4278190080
0.019951999 -0.070625573 0.021139385 4278190080
0.021046 -0.071940973 0.021697739 4278190080
0.021904999 -0.072521053 0.020331157 4278190080
0.031670999 -0.072481632 0.020424034 4278190080
0.033624001 -0.07204327 0.02145675 4278190080
0.035576999 -0.070905402 0.021258166 4278190080
0.033897001 -0.071940973 0.021697739 4278190080
0.037530001 -0.070161633 0.020942455 4278190080
0.019951999 -0.070775539 0.02332492 4278190080
0.020214001 -0.071177796 0.023495669 4278190080
0.035576999 -0.071257196 0.023308622 4278190080
0.037530001 -0.070525154 0.023218641 4278190080
0.035918999 -0.071177796 0.023495669 4278190080
0.039483 -0.069728926 0.022880659 4278190080
0.019951999 -0.070914641 0.024115629 4278190080
0.019393999 -0.070414662 0.025293507 4278190080
0.037530001 -0.070496485 0.025100753 4278190080
0.039483 -0.069790564 0.025028592 4278190080
0.03771 -0.070414662 0.025293507 4278190080
0.041437 -0.068882942 0.02464333 4278190080
0.017999001 -0.069255717 0.026923332 4278190080
0.018310999 -0.069651529 0.027091345 4278190080
0.039483 -0.06988585 0.026539318 4278190080
0.041437 -0.069019146 0.026822913 4278190080
0.040128998 -0.069651529 0.027091345 4278190080
0.043389998 -0.068245001 0.026494309 4278190080
0.017999001 -0.069380321 0.027730267 4278190080
0.017579 -0.068888374 0.02888922 4278190080
0.041437 -0.069111153 0.028364375 4278190080
0.043389998 -0.068394057 0.028679397 4278190080
0.042038001 -0.068888374 0.02888922 4278190080
0.045343 -0.067564689 0.02832735 4278190080
0.016046001 -0.066733405 0.030096328 4278190080
0.016760999 -0.068125211 0.030687112 4278190080
0.043389998 -0.068548545 0.029689809 4278190080
0.045343 -0.067811318 0.030553874 4278190080
0.044755001 -0.068125211 0.030687112 4278190080
0.047295999 -0.066910148 0.030171348 4278190080
0.016046001 -0.067222156 0.03242556 4278190080
0.016121 -0.067362078 0.032484952 4278190080
0.045343 -0.067733273 0.03161047 4278190080
0.047295999 -0.066804253 0.032248169 4278190080
0.045974001 -0.067362078 0.032484952 4278190080
0.049249001 -0.065997891 0.03190589 4278190080
0.016046001 -0.067272909 0.03269501 4278190080
0.01545 -0.066598937 0.034282789 4278190080
0.047295999 -0.06693653 0.033487473 4278190080
0.049249001 -0.066096336 0.034069449 4278190080
0.048282001 -0.066598937 0.034282789 4278190080
0.051201999 -0.06526421 0.033716232 4278190080
0.014093 -0.065127015 0.035779767 4278190080
0.014513 -0.065835804 0.036080629 4278190080
0.049249001 -0.066189259 0.035247937 4278190080
0.051201999 -0.065326765 0.035864554 4278190080
0.050136 -0.065835804 0.036080629 4278190080
0.053155001 -0.06459865 0.035555486 4278190080
0.014093 -0.065305658 0.037329569 4278190080
0.013887 -0.065072626 0.037878558 4278190080
0.051201999 -0.065496296 0.036880452 4278190080
0.053155001 -0.064693384 0.037717577 4278190080
0.0524 -0.065072626 0.037878558 4278190080
0.055108 -0.063701071 0.03729637 4278190080
0.01214 -0.063205652 0.039208278 4278190080
0.012897 -0.064309336 0.039676763 4278190080
0.053155001 -0.064666465 0.038835421 4278190080
0.055108 -0.063584901 0.039369259 4278190080
0.053672001 -0.064309336 0.039676763 4278190080
0.057062 -0.062607326 0.038954303 4278190080
0.01214 -0.063510336 0.04145927 4278190080
0.012166 -0.063546233 0.04147451 4278190080
0.055108 -0.063735351 0.041028984 4278190080
0.057062 -0.062408488 0.040991567 4278190080
0.055605002 -0.063546233 0.04147451 4278190080
0.01214 -0.063516147 0.041545387 4278190080
0.011691 -0.062783137 0.043272257 4278190080
0.057062 -0.062619291 0.043202706 4278190080
0.056832001 -0.062783137 0.043272257 4278190080
0.011092 -0.062020041 0.04507 4278190080
0.057062 -0.062611215 0.043677278 4278190080
0.059014998 -0.061471425 0.044837128 4278190080
0.057955001 -0.062020041 0.04507 4278190080
0.010186 -0.0606043 0.046590723 4278190080
0.010498 -0.061256941 0.046867751 4278190080
0.059014998 -0.061483175 0.046334773 4278190080
0.060968 -0.060139451 0.046393402 4278190080
0.059379 -0.061256941 0.046867751 4278190080
0.010186 -0.060690381 0.048202477 4278190080
0.010068 -0.060493845 0.048665494 4278190080
0.060968 -0.06033184 0.048596725 4278190080
0.060697999 -0.060493845 0.048665494 4278190080
0.062921003 -0.058890324 0.047984838 4278190080
0.0095057003 -0.059730746 0.050463237 4278190080
0.060968 -0.060312934 0.049091689 4278190080
0.062921003 -0.058981456 0.050145186 4278190080
0.061652999 -0.059730746 0.050463237 4278190080
0.0082333004 -0.057634365 0.051696129 4278190080
0.0087687997 -0.058967259 0.052261904 4278190080
0.062921003 -0.059155982 0.051817305 4278190080
0.064874001 -0.057754029 0.05174692 4278190080
0.063276 -0.058967259 0.052261904 4278190080
0.0082333004 -0.058265895 0.053914212 4278190080
0.0081936 -0.058204159 0.054059654 4278190080
0.064874001 -0.057453945 0.053741209 4278190080
0.063762002 -0.058204159 0.054059654 4278190080
0.066826999 -0.056503989 0.053337973 4278190080
0.0078571001 -0.057441063 0.055857398 4278190080
0.064874001 -0.05758876 0.055509448 4278190080
0.066826999 -0.05649294 0.055454947 4278190080
0.065203004 -0.057441063 0.055857398 4278190080
0.0074661002 -0.056677964 0.057655144 4278190080
0.066826999 -0.056431267 0.05755043 4278190080
0.066288002 -0.056677964 0.057655144 4278190080
0.068779998 -0.05514716 0.057005361 4278190080
0.0062802001 -0.054583814 0.058887891 4278190080
0.0069494001 -0.055914868 0.059452891 4278190080
0.066826999 -0.056416955 0.058270045 4278190080
0.068779998 -0.055171099 0.05913718 4278190080
0.067603 -0.055914868 0.059452891 4278190080
0.0062802001 -0.054801054 0.061101764 4278190080
0.0064683999 -0.055151768 0.061250634 4278190080
0.068779998 -0.055049591 0.061207265 4278190080
0.068594001 -0.055151768 0.061250634 4278190080
0.070733003 -0.053747997 0.060654771 4278190080
0.0062802001 -0.054901309 0.061840683 4278190080
0.0058867 -0.054388672 0.063048378 4278190080
0.068779998 -0.055024393 0.061550722 4278190080
0.070733003 -0.053620048 0.062722117 4278190080
0.069522999 -0.054388672 0.063048378 4278190080
0.072687 -0.052607492 0.062292315 4278190080
0.0053221998 -0.053625572 0.064846128 4278190080
0.070733003 -0.053501304 0.064793378 4278190080
0.070542999 -0.053625572 0.064846128 4278190080
0.072687 -0.052401301 0.064326458 4278190080
0.0043270998 -0.051610585 0.066112481 4278190080
0.0048698001 -0.052862477 0.066643871 4278190080
0.070733003 -0.05345834 0.065240107 4278190080
0.072687 -0.05207913 0.066311359 4278190080
0.071428999 -0.052862477 0.066643871 4278190080
0.0043270998 -0.051442668 0.068163946 4278190080
0.0045710001 -0.052098989 0.068442538 4278190080
0.072687 -0.052020751 0.068409331 4278190080
0.072575003 -0.052098989 0.068442538 4278190080
0.074639998 -0.050623417 0.067816198 4278190080
0.0043270998 -0.051743813 0.069279283 4278190080
0.0040477999 -0.05133589 0.070240282 4278190080
0.072687 -0.051970437 0.068745382 4278190080
0.074639998 -0.050398815 0.069842517 4278190080
0.073333003 -0.05133589 0.070240282 4278190080
0.0035888001 -0.05057279 0.072038032 4278190080
0.074639998 -0.050424591 0.071975127 4278190080
0.074441999 -0.05057279 0.072038032 4278190080
0.076592997 -0.049219646 0.071463659 4278190080
0.0023739999 -0.048329525 0.073207483 4278190080
0.0031077999 -0.049809694 0.073835775 4278190080
0.074639998 -0.050414935 0.07240992 4278190080
0.076592997 -0.048922323 0.073459111 4278190080
0.075466 -0.049809694 0.073835775 4278190080
0.0023739999 -0.048466682 0.075387366 4278190080
0.0026775 -0.049046598 0.075633526 4278190080
0.076592997 -0.048947185 0.075591326 4278190080
0.076444 -0.049046598 0.075633526 4278190080
0.078546003 -0.047411785 0.074939586 4278190080
0.0023739999 -0.048749641 0.076333106 4278190080
0.0019245 -0.048283499 0.077431269 4278190080
0.076592997 -0.048928984 0.075910598 4278190080
0.078546003 -0.047271866 0.077001855 4278190080
0.077265002 -0.048283499 0.077431269 4278190080
0.0016364 -0.047520399 0.07922902 4278190080
0.078546003 -0.046786755 0.078917608 4278190080
0.077676997 -0.047520399 0.07922902 4278190080
0.0013618 -0.046757303 0.081026763 4278190080
0.078546003 -0.046599895 0.080959946 4278190080
0.078354999 -0.046757303 0.081026763 4278190080
0.080499001 -0.045282654 0.08040081 4278190080
0.00042085 -0.044914983 0.082367495 4278190080
0.001008 -0.045993812 0.08282543 4278190080
0.078546003 -0.046020776 0.082761914 4278190080
0.080499001 -0.044930629 0.082374133 4278190080
0.078557 -0.045993812 0.08282543 4278190080
0.00042085 -0.045351844 0.084337816 4278190080
0.00031363001 -0.045230716 0.084623173 4278190080
0.080499001 -0.044654481 0.084378578 4278190080
0.079538003 -0.045230716 0.084623173 4278190080
0.00018043999 -0.044467621 0.086420923 4278190080
0.080499001 -0.044335984 0.086365044 4278190080
0.080306001 -0.044467621 0.086420923 4278190080
0.082451999 -0.04286962 0.085742608 4278190080
-0.00044522999 -0.043704521 0.088218667 4278190080
0.080499001 -0.044233963 0.086971387 4278190080
0.082451999 -0.042691048 0.087788478 4278190080
0.080960996 -0.043704521 0.088218667 4278190080
-0.0015323 -0.041589193 0.089442432 4278190080
-0.00099805999 -0.042941421 0.090016417 4278190080
0.082451999 -0.042284183 0.08973743 4278190080
0.081532001 -0.042941421 0.090016417 4278190080
-0.0015323 -0.042330712 0.091455162 4278190080
-0.0016666 -0.042178325 0.09181416 4278190080
0.082451999 -0.041900337 0.091696158 4278190080
0.082084998 -0.042178325 0.09181416 4278190080
0.084404998 -0.040496558 0.09110029 4278190080
-0.0020490999 -0.041415229 0.093611903 4278190080
0.082451999 -0.041742273 0.092841446 4278190080
0.084404998 -0.040194646 0.093093798 4278190080
0.082763001 -0.041415229 0.093611903 4278190080
-0.0024067999 -0.040651739 0.095410578 4278190080
0.084404998 -0.039757013 0.095030785 4278190080
0.083512999 -0.040651739 0.095410578 4278190080
-0.0034854 -0.038148887 0.096469834 4278190080
-0.0026008 -0.039888643 0.097208321 4278190080
0.084404998 -0.03980948 0.097174719 4278190080
0.084299996 -0.039888643 0.097208321 4278190080
0.086358003 -0.038421355 0.096585497 4278190080
-0.0034854 -0.037915081 0.09849225 4278190080
-0.0029451 -0.039125547 0.099006064 4278190080
0.084404998 -0.039783534 0.097455941 4278190080
0.086358003 -0.038143367 0.098589152 4278190080
0.085037999 -0.039125547 0.099006064 4278190080
-0.0034854 -0.038200442 0.10073504 4278190080
-0.0034268999 -0.038362447 0.10080381 4278190080
0.086358003 -0.037713494 0.10052834 4278190080
0.085353002 -0.038362447 0.10080381 4278190080
-0.0034854 -0.037726335 0.10230239 4278190080
-0.0034989 -0.037599348 0.10260156 4278190080
0.086358003 -0.03714554 0.10240893 4278190080
0.085771002 -0.037599348 0.10260156 4278190080
-0.0038957 -0.036836252 0.1043993 4278190080
0.086358003 -0.036648467 0.10431959 4278190080
0.086129002 -0.036836252 0.1043993 4278190080
-0.0042808 -0.036073152 0.10619705 4278190080
0.086358003 -0.036448255 0.10531336 4278190080
0.088312 -0.03449725 0.10552812 4278190080
0.086549997 -0.036073152 0.10619705 4278190080
-0.0045960001 -0.035310056 0.10799479 4278190080
0.088312 -0.034089472 0.10747668 4278190080
0.086873002 -0.035310056 0.10799479 4278190080
-0.0054385001 -0.033225644 0.10923276 4278190080
-0.0048413002 -0.034546565 0.10979346 4278190080
0.088312 -0.033799108 0.10947619 4278190080
0.087517001 -0.034546565 0.10979346 4278190080
-0.0054385001 -0.033164892 0.11132863 4278190080
-0.0051135998 -0.033783469 0.11159121 4278190080
0.088312 -0.033263382 0.11137044 4278190080
0.087746002 -0.033783469 0.11159121 4278190080
-0.0054385001 -0.032922801 0.11334754 4278190080
-0.0053940001 -0.033020373 0.11338896 4278190080
0.088312 -0.03252146 0.11317718 4278190080
0.087797999 -0.033020373 0.11338896 4278190080
-0.0054385001 -0.03292894 0.11360435 4278190080
-0.0057552001 -0.032257274 0.1151867 4278190080
0.088312 -0.0319084 0.11503861 4278190080
0.088004999 -0.032257274 0.1151867 4278190080
0.090264998 -0.030615091 0.11448963 4278190080
-0.0060824002 -0.031494174 0.11698445 4278190080
0.088312 -0.03149325 0.11698405 4278190080
0.088310003 -0.031494174 0.11698445 4278190080
0.090264998 -0.029944044 0.11632646 4278190080
-0.0063430001 -0.030731078 0.11878219 4278190080
0.088312 -0.031454712 0.11707742 4278190080
0.090264998 -0.029046554 0.11806715 4278190080
0.088338003 -0.030731078 0.11878219 4278190080
-0.0066954 -0.029967979 0.12057994 4278190080
0.090264998 -0.028679267 0.12003291 4278190080
0.088820003 -0.029967979 0.12057994 4278190080
-0.0073917001 -0.028643511 0.12214157 4278190080
-0.0071680001 -0.0292041 0.12237953 4278190080
0.090264998 -0.027804933 0.12178561 4278190080
0.088707 -0.0292041 0.12237953 4278190080
-0.0073917001 -0.027842004 0.12391975 4278190080
-0.0071454998 -0.028442178 0.12417451 4278190080
0.090264998 -0.027303513 0.12369117 4278190080
0.089079 -0.028442178 0.12417451 4278190080
-0.0073917001 -0.027421586 0.12585969 4278190080
-0.0072805001 -0.027680248 0.12596948 4278190080
0.090264998 -0.026460581 0.12545177 4278190080
0.089111999 -0.027680248 0.12596948 4278190080
-0.0073917001 -0.026808556 0.12772875 4278190080
-0.0073533999 -0.026914414 0.12777369 4278190080
0.090264998 -0.025593493 0.12721299 4278190080
0.089083001 -0.026914414 0.12777369 4278190080
-0.0073917001 -0.026601832 0.12851009 4278190080
-0.0074606002 -0.026152492 0.12956867 4278190080
0.090264998 -0.024826966 0.12900601 4278190080
0.089148998 -0.026152492 0.12956867 4278190080
-0.0077966 -0.025390565 0.13136365 4278190080
0.090264998 -0.024089895 0.13081154 4278190080
0.089185998 -0.025390565 0.13136365 4278190080
-0.0082408004 -0.024624731 0.13316785 4278190080
0.090264998 -0.023104977 0.13252275 4278190080
0.089080997 -0.024624731 0.13316785 4278190080
-0.0082647 -0.023862809 0.13496283 4278190080
0.088825002 -0.023862809 0.13496283 4278190080
-0.0084752003 -0.023100879 0.13675781 4278190080
0.088485003 -0.023100879 0.13675781 4278190080
-0.0093448004 -0.021268185 0.13810915 4278190080
-0.0087499004 -0.022335049 0.13856199 4278190080
0.088312 -0.022062581 0.13844635 4278190080
0.088192999 -0.022335049 0.13856199 4278190080
0.088312 -0.022651542 0.13781638 4278190080
-0.0093448004 -0.020766761 0.14001471 4278190080
-0.0090386998 -0.021573123 0.14035699 4278190080
0.088312 -0.019788262 0.13959935 4278190080
0.087747 -0.021573123 0.14035699 4278190080
-0.0093448004 -0.020287428 0.14192964 4278190080
-0.0091401003 -0.020811196 0.14215197 4278190080
0.087219 -0.020811196 0.14215197 4278190080
-0.0093448004 -0.020318877 0.1433118 4278190080
-0.0094525004 -0.020045366 0.14395615 4278190080
0.086507 -0.020045366 0.14395615 4278190080
-0.0096672 -0.01928344 0.14575113 4278190080
0.086129002 -0.01928344 0.14575113 4278190080
0.086358003 -0.019732781 0.14469256 4278190080
-0.0099261999 -0.01852151 0.14754613 4278190080
0.085148998 -0.01852151 0.14754613 4278190080
-0.010046 -0.01775568 0.14935032 4278190080
0.084404998 -0.016513921 0.14882322 4278190080
0.084164999 -0.01775568 0.14935032 4278190080
0.084404998 -0.017923698 0.1489545 4278190080
-0.01009 -0.016993757 0.15114529 4278190080
0.083245002 -0.016993757 0.15114529 4278190080
-0.010069 -0.016231827 0.15294029 4278190080
0.082451999 -0.014939442 0.1523917 4278190080
0.082730003 -0.016231827 0.15294029 4278190080
-0.010035 -0.015465997 0.15474446 4278190080
0.081912003 -0.015465997 0.15474446 4278190080
0.082451999 -0.015966129 0.15356623 4278190080
-0.0099512003 -0.014704071 0.15653946 4278190080
0.080499001 -0.013647325 0.1560909 4278190080
0.081092 -0.014704071 0.15653946 4278190080
-0.0099163996 -0.013942145 0.15833445 4278190080
0.080023997 -0.013942145 0.15833445 4278190080
0.080499001 -0.014270362 0.15756121 4278190080
-0.0099585 -0.013180219 0.16012943 4278190080
0.078546003 -0.012389503 0.15979379 4278190080
0.078997001 -0.013180219 0.16012943 4278190080
-0.0097901998 -0.012414388 0.1619336 4278190080
0.077761002 -0.012414388 0.1619336 4278190080
0.078546003 -0.012887169 0.16081981 4278190080
-0.0098797996 -0.011652458 0.16372861 4278190080
0.076592997 -0.011580657 0.16369814 4278190080
0.076621003 -0.011652458 0.16372861 4278190080
-0.0098791998 -0.010890536 0.16552359 4278190080
0.075460002 -0.010890536 0.16552359 4278190080
0.076592997 -0.011632923 0.16377462 4278190080
-0.0099943997 -0.010124706 0.16732776 4278190080
0.074395001 -0.010124706 0.16732776 4278190080
0.074639998 -0.010308348 0.16689514 4278190080
-0.0098454999 -0.0093627758 0.16912276 4278190080
0.072687 -0.0077261142 0.16842803 4278190080
0.073357001 -0.0093627758 0.16912276 4278190080
-0.0095416997 -0.0086008497 0.17091775 4278190080
0.072265998 -0.0086008497 0.17091775 4278190080
0.072687 -0.0088821799 0.17025498 4278190080
-0.0093448004 -0.0083195269 0.17158049 4278190080
-0.0093448004 -0.0070323385 0.17238121 4278190080
-0.0089539997 -0.0078350194 0.17272192 4278190080
0.070733003 -0.0067598708 0.17226556 4278190080
0.071084999 -0.0078350194 0.17272192 4278190080
-0.0074753999 -0.0070730969 0.1745169 4278190080
0.070152 -0.0070730969 0.1745169 4278190080
0.070733003 -0.0075380616 0.17342152 4278190080
-0.0073917001 -0.0070457421 0.17458135 4278190080
-0.0054385001 -0.0065729544 0.17569517 4278190080
-0.0054385001 -0.0048438795 0.17568907 4278190080
-0.0043771002 -0.006311167 0.1763119 4278190080
0.068465002 -0.006311167 0.1763119 4278190080
0.068779998 -0.0064596459 0.17596211 4278190080
-0.0034854 -0.0061470643 0.17669851 4278190080
-0.0015323 -0.0059282556 0.17721398 4278190080
0.00042085 -0.00580322 0.17750855 4278190080
0.00042085 -0.0043100119 0.17759173 4278190080
0.0023739999 -0.0055961311 0.17799643 4278190080
0.0023739999 -0.0052351207 0.17798442 4278190080
0.0028651999 -0.005545333 0.17811608 4278190080
0.066826999 -0.004121311 0.17751163 4278190080
0.067133002 -0.005545333 0.17811608 4278190080
0.0043270998 -0.0053812265 0.17850271 4278190080
0.0062802001 -0.0051311553 0.17909183 4278190080
0.0082333004 -0.0049475133 0.17952447 4278190080
0.0082333004 -0.0034716949 0.17935428 4278190080
0.0095669003 -0.0047834143 0.17991106 4278190080
0.065144002 -0.0047834143 0.17991106 4278190080
0.066826999 -0.0054320171 0.17838304 4278190080
0.010186 -0.0046974495 0.18011358 4278190080
0.01214 -0.0044708252 0.18064746 4278190080
0.014093 -0.0043301582 0.18097886 4278190080
0.016046001 -0.0041894987 0.18131024 4278190080
0.016046001 -0.0025845692 0.18109614 4278190080
0.017494 -0.0040214807 0.18170606 4278190080
0.061942998 -0.0040214807 0.18170606 4278190080
0.062921003 -0.0042442009 0.18118137 4278190080
0.064874001 -0.0046935454 0.18012278 4278190080
0.017999001 -0.0039706901 0.18182573 4278190080
0.019951999 -0.0038769096 0.18204664 4278190080
0.021904999 -0.0037518814 0.1823412 4278190080
0.023858 -0.0036346614 0.18261735 4278190080
0.025812 -0.0035135373 0.18290271 4278190080
0.027765 -0.0034588352 0.18303157 4278190080
0.029718 -0.0033494234 0.18328932 4278190080
0.029718 -0.0022697896 0.18309177 4278190080
0.031670999 -0.0032673702 0.18348263 4278190080
0.031670999 -0.0031902939 0.18348251 4278190080
0.031803999 -0.0032556504 0.18351024 4278190080
0.057062 -0.0027079508 0.18327777 4278190080
0.056141 -0.0032556504 0.18351024 4278190080
0.057062 -0.0033377036 0.18331693 4278190080
0.059014998 -0.0034978986 0.18293954 4278190080
0.060968 -0.0037753209 0.18228596 4278190080
0.033624001 -0.0031227991 0.18382321 4278190080
0.035576999 -0.0030524656 0.18398891 4278190080
0.037530001 -0.002931349 0.18427426 4278190080
0.039483 -0.0028414801 0.18448597 4278190080
0.041437 -0.0026500151 0.18493703 4278190080
0.041437 -0.0011645183 0.18474102 4278190080
0.043389998 -0.0027437881 0.18471611 4278190080
0.043389998 -0.00096568465 0.18465662 4278190080
0.045343 -0.0027008131 0.18481737 4278190080
0.047295999 -0.0028414801 0.18448597 4278190080
0.049249001 -0.0028531998 0.18445836 4278190080
0.051201999 -0.0029469728 0.18423745 4278190080
0.053155001 -0.0030329376 0.18403493 4278190080
0.055108 -0.0031579658 0.18374036 4278190080
0.023858 -0.073000588 0.020025531 4278190080
0.025812 -0.073466368 0.020223243 4278190080
0.027765 -0.073389038 0.02019042 4278190080
0.029718 -0.0729426 0.020000918 4278190080
0.021904999 -0.072566912 0.021963436 4278190080
0.023858 -0.073187336 0.02222679 4278190080
0.025812 -0.073527001 0.022370968 4278190080
0.027765 -0.073484659 0.022352993 4278190080
0.029718 -0.073036373 0.022162708 4278190080
0.031670999 -0.072613858 0.021983363 4278190080
0.033624001 -0.072091021 0.021761429 4278190080
0.021904999 -0.073100582 0.023964208 4278190080
0.021615 -0.072975546 0.024258768 4278190080
0.023858 -0.073429696 0.023188867 4278190080
0.025812 -0.073614001 0.022754664 4278190080
0.027765 -0.073580205 0.022834286 4278190080
0.029718 -0.073310286 0.023470171 4278190080
0.031670999 -0.073001608 0.02419737 4278190080
0.033624001 -0.072283328 0.023964938 4278190080
0.031792998 -0.072975546 0.024258768 4278190080
0.035576999 -0.071310356 0.023551935 4278190080
0.019951999 -0.071108721 0.025588118 4278190080
0.020825 -0.072212413 0.026056606 4278190080
0.033624001 -0.07230334 0.025842406 4278190080
0.035576999 -0.071444705 0.025730735 4278190080
0.033840999 -0.072212413 0.026056606 4278190080
0.037530001 -0.070486456 0.025323983 4278190080
0.019951999 -0.071594238 0.027512938 4278190080
0.019741001 -0.07144928 0.027854444 4278190080
0.035576999 -0.071573682 0.027561355 4278190080
0.037530001 -0.070644751 0.027512943 4278190080
0.035905 -0.07144928 0.027854444 4278190080
0.039483 -0.069971867 0.02722732 4278190080
0.017999001 -0.069705784 0.02923619 4278190080
0.018724 -0.070686124 0.02965232 4278190080
0.037530001 -0.070690766 0.029641375 4278190080
0.039483 -0.069894485 0.029316289 4278190080
0.037540998 -0.070686124 0.02965232 4278190080
0.041437 -0.069143355 0.028997455 4278190080
0.017999001 -0.069916517 0.031447478 4278190080
0.018005 -0.069922961 0.031450212 4278190080
0.039483 -0.070085198 0.03106802 4278190080
0.041437 -0.069426805 0.031239606 4278190080
0.040061001 -0.069922961 0.031450212 4278190080
0.043389998 -0.068707891 0.030934446 4278190080
0.017999001 -0.069917612 0.031462822 4278190080
0.017178001 -0.069159828 0.033248052 4278190080
0.041437 -0.069472142 0.032512292 4278190080
0.043389998 -0.068696812 0.033051513 4278190080
0.042270001 -0.069159828 0.033248052 4278190080
0.045343 -0.067651115 0.032607641 4278190080
0.016046001 -0.067432918 0.034636792 4278190080
0.016666001 -0.068396688 0.035045888 4278190080
0.043389998 -0.068724394 0.034273863 4278190080
0.045343 -0.067722872 0.034759872 4278190080
0.044027999 -0.068396688 0.035045888 4278190080
0.047295999 -0.067092329 0.034492221 4278190080
0.016046001 -0.067953326 0.036090385 4278190080
0.015619 -0.067633554 0.036843728 4278190080
0.045343 -0.067863539 0.036301918 4278190080
0.047295999 -0.067065597 0.036602642 4278190080
0.046073001 -0.067633554 0.036843728 4278190080
0.049249001 -0.066262916 0.036261927 4278190080
0.014093 -0.06539388 0.038014922 4278190080
0.014989 -0.066870376 0.038641658 4278190080
0.047295999 -0.067160927 0.037957169 4278190080
0.049249001 -0.066345684 0.038418937 4278190080
0.048025001 -0.066870376 0.038641658 4278190080
0.051201999 -0.0656415 0.038120031 4278190080
0.014093 -0.065923899 0.040362105 4278190080
0.014221 -0.066107087 0.040439863 4278190080
0.049249001 -0.066469684 0.039585635 4278190080
0.051201999 -0.065612771 0.04023004 4278190080
0.050333001 -0.066107087 0.040439863 4278190080
0.053155001 -0.064709753 0.039846733 4278190080
0.014093 -0.065924615 0.040869739 4278190080
0.013603 -0.065343983 0.04223761 4278190080
0.051201999 -0.06570971 0.041376017 4278190080
0.053155001 -0.064822055 0.042016063 4278190080
0.052076999 -0.065343983 0.04223761 4278190080
0.055108 -0.063866571 0.041610483 4278190080
0.01214 -0.063699037 0.043661036 4278190080
0.012762 -0.064580888 0.044035356 4278190080
0.053155001 -0.064432681 0.043972444 4278190080
0.052882999 -0.064580888 0.044035356 4278190080
0.055108 -0.063765317 0.043689169 4278190080
0.01214 -0.064049497 0.04528724 4278190080
0.011971 -0.063817792 0.045833103 4278190080
0.053155001 -0.064454682 0.044332676 4278190080
0.055108 -0.06369444 0.045780741 4278190080
0.054843999 -0.063817792 0.045833103 4278190080
0.057062 -0.06256406 0.045300923 4278190080
0.011552 -0.063054696 0.047630847 4278190080
0.055108 -0.063696273 0.046119377 4278190080
0.057062 -0.06263034 0.047450721 4278190080
0.056332 -0.063054696 0.047630847 4278190080
0.059014998 -0.061491672 0.046967387 4278190080
0.010186 -0.060688991 0.048748326 4278190080
0.011018 -0.062291596 0.04942859 4278190080
0.057062 -0.062462736 0.049025413 4278190080
0.059014998 -0.061399627 0.049049973 4278190080
0.057298001 -0.062291596 0.04942859 4278190080
0.010186 -0.060761712 0.050900858 4278190080
0.010579 -0.061528496 0.05122634 4278190080
0.059014998 -0.061261542 0.051113024 4278190080
0.058660999 -0.061528496 0.05122634 4278190080
0.060968 -0.060165226 0.050647665 4278190080
0.010186 -0.061100647 0.052234292 4278190080
0.0098890001 -0.060765009 0.053025007 4278190080
0.059014998 -0.06123076 0.051927764 4278190080
0.060968 -0.060240317 0.052802287 4278190080
0.059861001 -0.060765009 0.053025007 4278190080
0.062921003 -0.05918726 0.052355289 4278190080
0.0082333004 -0.058292523 0.054097161 4278190080
0.0090444004 -0.06000191 0.05482275 4278190080
0.060968 -0.060046844 0.054716893 4278190080
0.062921003 -0.058745414 0.054289401 4278190080
0.061012998 -0.06000191 0.05482275 4278190080
0.0082333004 -0.058189429 0.056175061 4278190080
0.0087195998 -0.059238814 0.056620497 4278190080
0.062921003 -0.058764748 0.056419268 4278190080
0.062137 -0.059238814 0.056620497 4278190080
0.064874001 -0.057621479 0.055933982 4278190080
0.0082333004 -0.058239143 0.058317825 4278190080
0.0083325002 -0.058475714 0.058418244 4278190080
0.062921003 -0.058769155 0.057726946 4278190080
0.064874001 -0.057310354 0.057923578 4278190080
0.063340999 -0.058475714 0.058418244 4278190080
0.0082333004 -0.058300279 0.05883155 4278190080
0.0078228004 -0.057712618 0.060215987 4278190080
0.064874001 -0.057261568 0.06002453 4278190080
0.064055003 -0.057712618 0.060215987 4278190080
0.066826999 -0.05631252 0.059621684 4278190080
0.0073211002 -0.056949519 0.062013738 4278190080
0.064874001 -0.057287112 0.061218418 4278190080
0.066826999 -0.056078717 0.061644103 4278190080
0.065453 -0.056949519 0.062013738 4278190080
0.0062802001 -0.055197798 0.063391834 4278190080
0.0067359 -0.056186423 0.063811481 4278190080
0.066826999 -0.056056626 0.063756384 4278190080
0.066583 -0.056186423 0.063811481 4278190080
0.068779998 -0.054886661 0.063259766 4278190080
0.0062802001 -0.05560267 0.065186717 4278190080
0.0061122002 -0.055423323 0.065609232 4278190080
0.066826999 -0.056065295 0.064096838 4278190080
0.068779998 -0.054817628 0.065352127 4278190080
0.067902997 -0.055423323 0.065609232 4278190080
0.0058105998 -0.054660227 0.067406975 4278190080
0.068779998 -0.054755956 0.067181446 4278190080
0.070733003 -0.053320888 0.066838458 4278190080
0.068898998 -0.054660227 0.067406975 4278190080
0.0052499999 -0.05389674 0.069205642 4278190080
0.070733003 -0.053383097 0.068987608 4278190080
0.069894999 -0.05389674 0.069205642 4278190080
0.0043270998 -0.052023504 0.070532158 4278190080
0.0048471 -0.05313364 0.071003385 4278190080
0.070733003 -0.053299703 0.07061217 4278190080
0.072687 -0.051754717 0.070418067 4278190080
0.070932001 -0.05313364 0.071003385 4278190080
0.0043270998 -0.052309781 0.072775342 4278190080
0.0043540001 -0.052370541 0.072801135 4278190080
0.072687 -0.0516866 0.072510824 4278190080
0.071630001 -0.052370541 0.072801135 4278190080
0.0043270998 -0.052314669 0.072932765 4278190080
0.0039591999 -0.051607445 0.074598879 4278190080
0.072687 -0.051641829 0.074517876 4278190080
0.074639998 -0.050363839 0.074070998 4278190080
0.072742999 -0.051607445 0.074598879 4278190080
0.0034572 -0.050844349 0.076396622 4278190080
0.074639998 -0.050169617 0.076110214 4278190080
0.073660001 -0.050844349 0.076396622 4278190080
0.0023739999 -0.049216893 0.077827469 4278190080
0.0028144 -0.050081249 0.078194372 4278190080
0.074639998 -0.05000392 0.078161545 4278190080
0.074505001 -0.050081249 0.078194372 4278190080
0.076592997 -0.048776891 0.077640705 4278190080
0.0023739999 -0.049230695 0.079954997 4278190080
0.0024208 -0.04931815 0.079992115 4278190080
0.074639998 -0.049974579 0.078445666 4278190080
0.076592997 -0.048439063 0.079618968 4278190080
0.075291 -0.04931815 0.079992115 4278190080
0.0023739999 -0.049110282 0.08048182 4278190080
0.0022535999 -0.048555054 0.081789859 4278190080
0.076592997 -0.048076384 0.081586674 4278190080
0.075732 -0.048555054 0.081789859 4278190080
0.0018287 -0.047791563 0.083588526 4278190080
0.076592997 -0.047758423 0.083574459 4278190080
0.076537997 -0.047791563 0.083588526 4278190080
0.078546003 -0.045999341 0.082827777 4278190080
0.00042085 -0.045418501 0.084702887 4278190080
0.0013271 -0.047028467 0.085386276 4278190080
0.076592997 -0.047701698 0.083800241 4278190080
0.078546003 -0.045836411 0.084880278 4278190080
0.07694 -0.047028467 0.085386276 4278190080
0.00042085 -0.044999674 0.086646765 4278190080
0.00093614002 -0.046265371 0.087184019 4278190080
0.078546003 -0.045801431 0.086987093 4278190080
0.077903003 -0.046265371 0.087184019 4278190080
0.00042085 -0.045553066 0.088862099 4278190080
0.00038074001 -0.045502272 0.08898177 4278190080
0.078546003 -0.04536419 0.088923156 4278190080
0.078365996 -0.045502272 0.08898177 4278190080
0.080499001 -0.044033144 0.088358164 4278190080
-0.00029391999 -0.044739172 0.090779513 4278190080
0.078546003 -0.045365516 0.089303941 4278190080
0.080499001 -0.043752387 0.090360649 4278190080
0.079288997 -0.044739172 0.090779513 4278190080
-0.0015323 -0.042484857 0.091944277 4278190080
-0.00075577002 -0.043976076 0.092577256 4278190080
0.080499001 -0.043404438 0.092334613 4278190080
0.079657003 -0.043976076 0.092577256 4278190080
-0.0015323 -0.042634897 0.094129622 4278190080
-0.0012342 -0.04321298 0.094374999 4278190080
0.080499001 -0.043225482 0.094345547 4278190080
0.082451999 -0.04161682 0.093697473 4278190080
0.080509998 -0.04321298 0.094374999 4278190080
-0.0015323 -0.042404383 0.096154526 4278190080
-0.0015115 -0.042449489 0.096173674 4278190080
0.082451999 -0.041463621 0.095755205 4278190080
0.081156999 -0.042449489 0.096173674 4278190080
-0.0015323 -0.042346336 0.096416682 4278190080
-0.0016848 -0.041686393 0.097971417 4278190080
0.082451999 -0.041142374 0.097740494 4278190080
0.081781998 -0.041686393 0.097971417 4278190080
-0.0021913999 -0.040923297 0.09976916 4278190080
0.082451999 -0.04098542 0.099622801 4278190080
0.084404998 -0.039651155 0.099229172 4278190080
0.082535997 -0.040923297 0.09976916 4278190080
-0.0024899 -0.040160198 0.1015669 4278190080
0.084404998 -0.039111745 0.10112186 4278190080
0.083213001 -0.040160198 0.1015669 4278190080
-0.0034854 -0.037630647 0.10261484 4278190080
-0.0028317 -0.039397098 0.10336465 4278190080
0.084404998 -0.038765624 0.10309661 4278190080
0.083516002 -0.039397098 0.10336465 4278190080
-0.0034854 -0.037554242 0.10470407 4278190080
-0.0030294 -0.038634002 0.1051624 4278190080
0.084404998 -0.03832195 0.10502994 4278190080
0.083940998 -0.038634002 0.1051624 4278190080
-0.0034854 -0.037503619 0.10680425 4278190080
-0.0033277001 -0.037870903 0.10696015 4278190080
0.084404998 -0.037750315 0.10690896 4278190080
0.084227003 -0.037870903 0.10696015 4278190080
0.086358003 -0.036238838 0.10626738 4278190080
-0.0034854 -0.037460636 0.10792667 4278190080
-0.0036676 -0.037107807 0.10875789 4278190080
0.084404998 -0.037551288 0.10771312 4278190080
0.086358003 -0.035710473 0.10816476 4278190080
0.084618002 -0.037107807 0.10875789 4278190080
-0.0039992998 -0.036344316 0.11055656 4278190080
0.086358003 -0.035541635 0.11021584 4278190080
0.085353002 -0.036344316 0.11055656 4278190080
-0.0042307 -0.03558122 0.1123543 4278190080
0.086358003 -0.034974601 0.11209681 4278190080
0.085542001 -0.03558122 0.1123543 4278190080
-0.0046668998 -0.034818124 0.11415205 4278190080
0.086358003 -0.034443472 0.11399303 4278190080
0.085790001 -0.034818124 0.11415205 4278190080
-0.0054385001 -0.033178695 0.11557782 4278190080
-0.0050677001 -0.034055024 0.11594979 4278190080
0.086358003 -0.033740208 0.11581616 4278190080
0.085923001 -0.034055024 0.11594979 4278190080
-0.0054385001 -0.032996442 0.11762212 4278190080
-0.0053083999 -0.033291925 0.11774755 4278190080
0.086358003 -0.033064555 0.11765104 4278190080
0.086076997 -0.033291925 0.11774755 4278190080
-0.0054385001 -0.032979339 0.11848395 4278190080
-0.0055955001 -0.032528829 0.11954529 4278190080
0.086358003 -0.032358531 0.119473 4278190080
0.086173996 -0.032528829 0.11954529 4278190080
0.088312 -0.030751329 0.11879079 4278190080
-0.0061005 -0.031765729 0.12134303 4278190080
0.086358003 -0.031611077 0.12127739 4278190080
0.086181998 -0.031765729 0.12134303 4278190080
0.088312 -0.030305803 0.12072333 4278190080
-0.0063053002 -0.031001851 0.12314262 4278190080
0.086358003 -0.031290993 0.12246145 4278190080
0.088312 -0.029578745 0.12253855 4278190080
0.086487003 -0.031001851 0.12314262 4278190080
-0.0063542998 -0.030239929 0.1249376 4278190080
0.088312 -0.029075485 0.12444332 4278190080
0.086685002 -0.030239929 0.1249376 4278190080
-0.0066590002 -0.029477999 0.12673259 4278190080
0.088312 -0.028429545 0.12628755 4278190080
0.087099999 -0.029477999 0.12673259 4278190080
-0.0066840998 -0.028712165 0.12853679 4278190080
0.088312 -0.027616758 0.12807181 4278190080
0.087232001 -0.028712165 0.12853679 4278190080
-0.0073917001 -0.026290566 0.12962727 4278190080
-0.0068496 -0.027950242 0.13033177 4278190080
0.088312 -0.026849315 0.12986445 4278190080
0.087030999 -0.027950242 0.13033177 4278190080
-0.0073917001 -0.026169308 0.13169421 4278190080
-0.007007 -0.027188316 0.13212675 4278190080
0.088312 -0.026262283 0.13173367 4278190080
0.087214001 -0.027188316 0.13212675 4278190080
-0.0073917001 -0.026567053 0.13359036 4278190080
-0.0075082998 -0.026422482 0.13393095 4278190080
0.088312 -0.025420967 0.13350584 4278190080
0.087213002 -0.026422482 0.13393095 4278190080
-0.0075300001 -0.02566056 0.13572593 4278190080
0.088312 -0.024386577 0.13518515 4278190080
0.087059997 -0.02566056 0.13572593 4278190080
-0.0075459001 -0.02489863 0.13752091 4278190080
0.088312 -0.023327325 0.13685393 4278190080
0.086937003 -0.02489863 0.13752091 4278190080
-0.0077975001 -0.024132799 0.1393251 4278190080
0.087058999 -0.024132799 0.1393251 4278190080
-0.0082721002 -0.023370873 0.14112009 4278190080
0.086634003 -0.023370873 0.14112009 4278190080
-0.0084795002 -0.022608947 0.14291507 4278190080
0.086514004 -0.022608947 0.14291507 4278190080
-0.0093448004 -0.020363864 0.14409135 4278190080
-0.0087523004 -0.021843117 0.14471926 4278190080
0.086358003 -0.020450387 0.14412807 4278190080
0.085754998 -0.021843117 0.14471926 4278190080
0.086358003 -0.022417489 0.14336611 4278190080
-0.0093448004 -0.020287711 0.14617743 4278190080
-0.0090685003 -0.021081191 0.14651424 4278190080
0.085035004 -0.021081191 0.14651424 4278190080
-0.0093448004 -0.020220764 0.14826742 4278190080
-0.0092962002 -0.020319261 0.14830923 4278190080
0.084404998 -0.020160012 0.14824164 4278190080
0.084325001 -0.020319261 0.14830923 4278190080
0.084404998 -0.02040913 0.14809752 4278190080
-0.0093448004 -0.020061377 0.14891677 4278190080
-0.0094199004 -0.01955343 0.15011342 4278190080
0.083549999 -0.01955343 0.15011342 4278190080
-0.0095231999 -0.018791508 0.1519084 4278190080
0.083035 -0.018791508 0.1519084 4278190080
-0.0095248995 -0.018029578 0.15370339 4278190080
0.082451999 -0.01786112 0.15363188 4278190080
0.082423002 -0.018029578 0.15370339 4278190080
0.082451999 -0.018072557 0.15360214 4278190080
-0.0093825003 -0.017263748 0.15550756 4278190080
0.081937 -0.017263748 0.15550756 4278190080
-0.0093448004 -0.01695507 0.15623477 4278190080
-0.0093448004 -0.016367428 0.15724552 4278190080
-0.0092842001 -0.016501822 0.15730256 4278190080
0.081028 -0.016501822 0.15730256 4278190080
-0.0093448004 -0.01548215 0.15898815 4278190080
-0.0092510004 -0.015739895 0.15909755 4278190080
0.080200002 -0.015739895 0.15909755 4278190080
0.080499001 -0.015997779 0.15849002 4278190080
-0.0093448004 -0.015528902 0.15959461 4278190080
-0.0095571 -0.014977969 0.16089253 4278190080
0.079245001 -0.014977969 0.16089253 4278190080
-0.0093448004 -0.014407501 0.16223647 4278190080
-0.0093448004 -0.013908371 0.16256776 4278190080
-0.0092700003 -0.014212139 0.1626967 4278190080
0.078152001 -0.014212139 0.1626967 4278190080
0.078546003 -0.01447393 0.16207998 4278190080
-0.0093448004 -0.013199825 0.16438544 4278190080
-0.0092706 -0.013450209 0.16449171 4278190080
0.077119 -0.013450209 0.16449171 4278190080
-0.0093448004 -0.012977429 0.1656055 4278190080
-0.0093957996 -0.012688287 0.16628669 4278190080
0.075900003 -0.012688287 0.16628669 4278190080
0.076592997 -0.013102464 0.16531095 4278190080
-0.0093448004 -0.012086563 0.16770425 4278190080
-0.0093448004 -0.011885636 0.16807523 4278190080
-0.0093323002 -0.011922456 0.16809087 4278190080
0.074639998 -0.010859266 0.16763957 4278190080
0.075014003 -0.011922456 0.16809087 4278190080
-0.0093448004 -0.010853995 0.16975574 4278190080
-0.0092425002 -0.011160526 0.16988586 4278190080
0.073937997 -0.011160526 0.16988586 4278190080
0.074639998 -0.01164503 0.16874444 4278190080
-0.0093448004 -0.0093694739 0.17124401 4278190080
-0.0090623004 -0.0103986 0.17168085 4278190080
0.072687 -0.010038678 0.17152807 4278190080
0.072805002 -0.0103986 0.17168085 4278190080
-0.0080928998 -0.00963277 0.17348503 4278190080
0.071544997 -0.00963277 0.17348503 4278190080
0.072687 -0.010336086 0.17182812 4278190080
-0.0073917001 -0.0092967376 0.17427666 4278190080
-0.0073917001 -0.0072286651 0.17458294 4278190080
-0.0061243 -0.0088708475 0.17528 4278190080
0.070439003 -0.0088708475 0.17528 4278190080
0.070733003 -0.0090662092 0.17481977 4278190080
-0.0054385001 -0.008714553 0.17564821 4278190080
-0.0034854 -0.0083511733 0.17650428 4278190080
-0.0034854 -0.0070751868 0.1766362 4278190080
-0.001851 -0.0081089176 0.177075 4278190080
0.068779998 -0.0071893297 0.17668466 4278190080
0.069080003 -0.0081089176 0.177075 4278190080
-0.0015323 -0.0080659352 0.17717627 4278190080
0.00042085 -0.0078510344 0.17768253 4278190080
0.0023739999 -0.0076908395 0.17805994 4278190080
0.0043270998 -0.0074368641 0.17865828 4278190080
0.0043270998 -0.0066665038 0.178592 4278190080
0.0050503002 -0.0073430836 0.17887919 4278190080
0.057062 -0.0071359389 0.176662 4278190080
0.055108 -0.0059126168 0.17725082 4278190080
0.056164999 -0.006311167 0.1763119 4278190080
0.057062 -0.0076947436 0.17805074 4278190080
0.055108 -0.0077025592 0.17803232 4278190080
0.058104999 -0.0081089176 0.177075 4278190080
0.067335002 -0.0073430836 0.17887919 4278190080
0.068779998 -0.0079604387 0.17742479 4278190080
0.0062802001 -0.0071906969 0.1792382 4278190080
0.0082333004 -0.0069210902 0.17987335 4278190080
0.010186 -0.0066475868 0.18051769 4278190080
0.010186 -0.0058033392 0.180344 4278190080
0.010906 -0.0065811649 0.18067417 4278190080
0.064983003 -0.0065811649 0.18067417 4278190080
0.066826999 -0.0071633533 0.17930262 4278190080
0.01214 -0.0064834729 0.18090431 4278190080
0.014093 -0.0063857958 0.18113443 4278190080
0.016046001 -0.0061787069 0.1816223 4278190080
0.017999001 -0.0059989691 0.18204573 4278190080
0.017999001 -0.0044614822 0.18189283 4278190080
0.019951999 -0.0058622137 0.18236791 4278190080
0.019951999 -0.005455628 0.18231483 4278190080
0.020316999 -0.0058192313 0.18246916 4278190080
0.061294001 -0.0058192313 0.18246916 4278190080
0.062921003 -0.0060966536 0.18181559 4278190080
0.064874001 -0.0065459982 0.18075702 4278190080
0.021904999 -0.00568638 0.18278213 4278190080
0.023858 -0.0055808872 0.18303066 4278190080
0.025812 -0.0054245964 0.18339887 4278190080
0.027765 -0.0054206848 0.18340808 4278190080
0.029718 -0.0053659827 0.18353695 4278190080
0.031670999 -0.0052604899 0.18378548 4278190080
0.033624001 -0.0051549897 0.18403402 4278190080
0.033624001 -0.0042884573 0.18394865 4278190080
0.035247002 -0.005053401 0.18427335 4278190080
0.037530001 -0.0049981624 0.18424991 4278190080
0.036878001 -0.005053401 0.18427335 4278190080
0.037530001 -0.0050651208 0.18424574 4278190080
0.037675999 -0.005053401 0.18427335 4278190080
0.053155001 -0.0049291253 0.1842206 4278190080
0.05291 -0.005053401 0.18427335 4278190080
0.053155001 -0.0050729364 0.18422733 4278190080
0.055108 -0.0051862523 0.18396038 4278190080
0.055108 -0.0039607584 0.18380955 4278190080
0.057062 -0.0053190961 0.18364741 4278190080
0.059014998 -0.0054480433 0.18334363 4278190080
0.060968 -0.0057645291 0.18259802 4278190080
0.035576999 -0.0050338656 0.18431936 4278190080
0.039483 -0.0049283653 0.18456791 4278190080
0.041437 -0.0048697591 0.18470599 4278190080
0.043389998 -0.0048033297 0.18486248 4278190080
0.045343 -0.0047798902 0.1849177 4278190080
0.047295999 -0.0047994256 0.18487167 4278190080
0.049249001 -0.0048697591 0.18470599 4278190080
0.051201999 -0.0049205497 0.18458632 4278190080
0.021904999 -0.073221326 0.024363093 4278190080
0.023858 -0.073873043 0.024639729 4278190080
0.025812 -0.074096724 0.024734678 4278190080
0.027765 -0.073917225 0.024658484 4278190080
0.029718 -0.073524162 0.024491642 4278190080
0.031670999 -0.073016971 0.024276348 4278190080
0.021904999 -0.073440365 0.02657784 4278190080
0.023487 -0.074010156 0.026819704 4278190080
0.023858 -0.074087128 0.026638364 4278190080
0.025812 -0.074281402 0.02618069 4278190080
0.027765 -0.07417661 0.026427569 4278190080
0.029718 -0.073824212 0.026740776 4278190080
0.028949 -0.074010156 0.026819704 4278190080
0.031670999 -0.073063873 0.026418032 4278190080
0.033624001 -0.072303541 0.026095288 4278190080
0.019951999 -0.071662828 0.027945092 4278190080
0.021562999 -0.073247023 0.028617542 4278190080
