# .PCD v0.7 - Point Cloud Data file format
VERSION 0.7
FIELDS x y z rgba
SIZE 4 4 4 4
TYPE F F F U
COUNT 1 1 1 1
WIDTH 1075
HEIGHT 1
VIEWPOINT 0 0 0 1 0 0 0
POINTS 1075
DATA ascii
0.076592997 0.037482999 0.0094414996 4278190080
0.077215001 0.036628 0.0094414996 4278190080
0.078546003 0.036628 0.0079084998 4278190080
-0.021063 0.036628 0.010502 4278190080
-0.019353 0.036628 0.011395 4278190080
-0.01911 0.036703002 0.011395 4278190080
-0.017157 0.037976 0.011395 4278190080
0.074639998 0.038520999 0.011395 4278190080
0.076002002 0.036628 0.011395 4278190080
0.076592997 0.036628 0.010417 4278190080
-0.01911 0.036628 0.011885 4278190080
-0.018514 0.036628 0.013348 4278190080
-0.017157 0.037122998 0.013348 4278190080
-0.015204 0.037974 0.013348 4278190080
0.074412003 0.036628 0.013348 4278190080
0.074639998 0.036628 0.012984 4278190080
-0.017157 0.036628 0.014962 4278190080
-0.016860999 0.036628 0.015301 4278190080
-0.015204 0.037776001 0.015301 4278190080
0.072687 0.037620001 0.015301 4278190080
0.073146999 0.036628 0.015301 4278190080
-0.015204 0.036672 0.017254001 4278190080
-0.015278 0.036628 0.017254001 4278190080
-0.013251 0.038557999 0.017254001 4278190080
0.072213002 0.036628 0.017254001 4278190080
0.072687 0.036628 0.016139001 4278190080
-0.015204 0.036628 0.017329 4278190080
-0.013792 0.036628 0.019207001 4278190080
-0.013251 0.037094001 0.019207001 4278190080
0.070733003 0.037345 0.019207001 4278190080
0.071116 0.036628 0.019207001 4278190080
-0.013251 0.036628 0.019898999 4278190080
-0.011298 0.037916999 0.021159999 4278190080
-0.012477 0.036628 0.021159999 4278190080
0.068779998 0.038541999 0.021159999 4278190080
0.069751002 0.036628 0.021159999 4278190080
0.070733003 0.036628 0.019861 4278190080
-0.011298 0.036628 0.022713 4278190080
-0.0093448004 0.037723001 0.023112999 4278190080
-0.010712 0.036628 0.023112999 4278190080
0.068100996 0.036628 0.023112999 4278190080
0.068779998 0.036628 0.022309 4278190080
-0.0093448004 0.036628 0.024574 4278190080
-0.0073917001 0.037620001 0.025067 4278190080
-0.0088036004 0.036628 0.025067 4278190080
0.066248 0.036628 0.025067 4278190080
0.066826999 0.036628 0.024457 4278190080
-0.0073917001 0.036628 0.026125001 4278190080
-0.0054385001 0.037363 0.02702 4278190080
-0.0061838999 0.036628 0.02702 4278190080
0.064455003 0.036628 0.02702 4278190080
0.064874001 0.036628 0.026578 4278190080
-0.0054385001 0.036628 0.027634 4278190080
-0.0034854 0.036727998 0.028973 4278190080
-0.0035598001 0.036628 0.028973 4278190080
0.062419999 0.036628 0.028973 4278190080
0.062921003 0.036628 0.028511999 4278190080
-0.0034854 0.036628 0.029031999 4278190080
-0.0015323 0.036628 0.030347001 4278190080
0.00042085 0.038286 0.030926 4278190080
-0.00015221001 0.036628 0.030926 4278190080
0.060582001 0.036628 0.030926 4278190080
0.060968 0.036628 0.030572001 4278190080
0.00042085 0.036628 0.031198001 4278190080
0.0023739999 0.036951002 0.032878999 4278190080
0.0022624 0.036628 0.032878999 4278190080
0.05844 0.036628 0.032878999 4278190080
0.059014998 0.036628 0.032295 4278190080
0.0023739999 0.036628 0.033013999 4278190080
0.0043270998 0.037269998 0.034832001 4278190080
0.0036625999 0.036628 0.034832001 4278190080
0.056356002 0.036628 0.034832001 4278190080
0.057062 0.036628 0.034097999 4278190080
0.0043270998 0.036628 0.035137001 4278190080
0.054483999 0.036628 0.036784999 4278190080
0.055108 0.036628 0.036247998 4278190080
0.052556001 0.036628 0.038738001 4278190080
0.053155001 0.036628 0.038040001 4278190080
0.051201999 0.03669 0.040690999 4278190080
0.051247001 0.036628 0.040690999 4278190080
0.049249001 0.036986999 0.042645 4278190080
0.049538001 0.036628 0.042645 4278190080
0.051201999 0.036628 0.040743999 4278190080
-0.0093448004 0.036770999 0.044597998 4278190080
-0.0093448004 0.036628 0.044468999 4278190080
-0.010213 0.036628 0.044597998 4278190080
-0.0088090003 0.036628 0.044597998 4278190080
-0.0034854 0.038485002 0.044597998 4278190080
-0.0034854 0.036628 0.043632001 4278190080
-0.0047964002 0.036628 0.044597998 4278190080
-0.0015323 0.038242001 0.044597998 4278190080
-0.0015323 0.036628 0.043237001 4278190080
0.047295999 0.037960999 0.044597998 4278190080
0.048478 0.036628 0.044597998 4278190080
0.049249001 0.036628 0.043102998 4278190080
-0.0093448004 0.037184998 0.046551 4278190080
-0.011076 0.036628 0.046551 4278190080
-0.0073917001 0.036628 0.045249 4278190080
-0.0073917001 0.038160998 0.046551 4278190080
-0.0054385001 0.036628 0.045313001 4278190080
0.047295999 0.036692001 0.046551 4278190080
0.047363002 0.036628 0.046551 4278190080
-0.0093448004 0.037707999 0.048503999 4278190080
-0.01107 0.036628 0.048503999 4278190080
0.045343 0.038210999 0.048503999 4278190080
0.046810001 0.036628 0.048503999 4278190080
0.047295999 0.036628 0.046737999 4278190080
-0.011298 0.036897998 0.050457001 4278190080
-0.011298 0.036628 0.049215 4278190080
-0.01175 0.036628 0.050457001 4278190080
-0.0093448004 0.038075 0.050457001 4278190080
-0.0073917001 0.038447 0.050457001 4278190080
0.045343 0.037597999 0.050457001 4278190080
0.046314999 0.036628 0.050457001 4278190080
-0.011298 0.036628 0.052234001 4278190080
-0.011178 0.036628 0.052409999 4278190080
-0.0093448004 0.037280999 0.052409999 4278190080
0.043389998 0.038229 0.052409999 4278190080
0.045217 0.036628 0.052409999 4278190080
0.045343 0.036628 0.052239999 4278190080
-0.0093448004 0.036628 0.05373 4278190080
-0.0073917001 0.037675999 0.054363001 4278190080
-0.0084076002 0.036628 0.054363001 4278190080
0.043389998 0.037395 0.054363001 4278190080
0.044227 0.036628 0.054363001 4278190080
-0.0073917001 0.036628 0.055698 4278190080
-0.0054385001 0.037308 0.056315999 4278190080
-0.0067552999 0.036628 0.056315999 4278190080
0.041437 0.038399 0.056315999 4278190080
0.043389998 0.036812998 0.056315999 4278190080
0.043554001 0.036628 0.056315999 4278190080
-0.0054385001 0.036628 0.057036001 4278190080
-0.0034854 0.036784001 0.05827 4278190080
-0.0037316999 0.036628 0.05827 4278190080
-0.0015323 0.038424 0.05827 4278190080
0.041437 0.037765998 0.05827 4278190080
0.042633001 0.036628 0.05827 4278190080
0.043389998 0.036628 0.056705002 4278190080
-0.0034854 0.036628 0.058619998 4278190080
-0.0026552 0.036628 0.060222998 4278190080
-0.0015323 0.037268002 0.060222998 4278190080
0.041437 0.036807001 0.060222998 4278190080
0.041588001 0.036628 0.060222998 4278190080
-0.0015323 0.036628 0.061356001 4278190080
0.00042085 0.037687 0.062176 4278190080
-0.00090121001 0.036628 0.062176 4278190080
0.039483 0.037928998 0.062176 4278190080
0.040470999 0.036628 0.062176 4278190080
0.041437 0.036628 0.060524002 4278190080
0.00042085 0.03664 0.064129002 4278190080
0.00039922001 0.036628 0.064129002 4278190080
0.0023739999 0.037994001 0.064129002 4278190080
0.039483 0.036823999 0.064129002 4278190080
0.039634999 0.036628 0.064129002 4278190080
0.00042085 0.036628 0.064153999 4278190080
0.0022052 0.036628 0.066082001 4278190080
0.0023739999 0.036729999 0.066082001 4278190080
0.0043270998 0.038332 0.066082001 4278190080
0.037530001 0.037921 0.066082001 4278190080
0.038773999 0.036628 0.066082001 4278190080
0.039483 0.036628 0.064455003 4278190080
0.0023739999 0.036628 0.066352002 4278190080
0.0032168999 0.036628 0.068034999 4278190080
0.0043270998 0.037399001 0.068034999 4278190080
0.037530001 0.036876999 0.068034999 4278190080
0.037795998 0.036628 0.068034999 4278190080
0.0043270998 0.036628 0.069643997 4278190080
0.0062802001 0.037916001 0.069987997 4278190080
0.0045206998 0.036628 0.069987997 4278190080
0.035576999 0.037682001 0.069987997 4278190080
0.036665998 0.036628 0.069987997 4278190080
0.037530001 0.036628 0.068469003 4278190080
0.0062802001 0.036878999 0.071942002 4278190080
0.0059404001 0.036628 0.071942002 4278190080
0.0082333004 0.038231999 0.071942002 4278190080
0.035473999 0.036628 0.071942002 4278190080
0.035576999 0.036628 0.071782 4278190080
0.0062802001 0.036628 0.072590001 4278190080
0.0070729 0.036628 0.073895 4278190080
0.0082333004 0.037338 0.073895 4278190080
0.033624001 0.037377 0.073895 4278190080
0.034412999 0.036628 0.073895 4278190080
0.0082333004 0.036628 0.075088002 4278190080
0.010186 0.037613999 0.075847998 4278190080
0.0088751996 0.036628 0.075847998 4278190080
0.031670999 0.038236 0.075847998 4278190080
0.033206999 0.036628 0.075847998 4278190080
0.033624001 0.036628 0.074957997 4278190080
0.010186 0.036660001 0.077800997 4278190080
0.010145 0.036628 0.077800997 4278190080
0.01214 0.037868001 0.077800997 4278190080
0.031670999 0.037222002 0.077800997 4278190080
0.03238 0.036628 0.077800997 4278190080
0.010186 0.036628 0.077868998 4278190080
0.011398 0.036628 0.079754002 4278190080
0.01214 0.037129998 0.079754002 4278190080
0.014093 0.038376 0.079754002 4278190080
0.029718 0.038392 0.079754002 4278190080
0.03119 0.036628 0.079754002 4278190080
0.031670999 0.036628 0.078768998 4278190080
0.01214 0.036628 0.080684997 4278190080
0.012851 0.036628 0.081707001 4278190080
0.014093 0.037496001 0.081707001 4278190080
0.016046001 0.038511999 0.081707001 4278190080
0.029718 0.037117999 0.081707001 4278190080
0.030089 0.036628 0.081707001 4278190080
0.014093 0.036628 0.082950003 4278190080
0.014775 0.036628 0.083659999 4278190080
0.016046001 0.037764002 0.083659999 4278190080
0.027765 0.038070999 0.083659999 4278190080
0.029077001 0.036628 0.083659999 4278190080
0.029718 0.036628 0.082287997 4278190080
0.016046001 0.036628 0.085385002 4278190080
0.017999001 0.037965 0.085612997 4278190080
0.01623 0.036628 0.085612997 4278190080
0.025812 0.038481001 0.085612997 4278190080
0.027765 0.036889002 0.085612997 4278190080
0.028046001 0.036628 0.085612997 4278190080
0.017999001 0.036984999 0.087567002 4278190080
0.017313 0.036628 0.087567002 4278190080
0.019951999 0.037808999 0.087567002 4278190080
0.021904999 0.038472999 0.087567002 4278190080
0.025812 0.037594002 0.087567002 4278190080
0.026702 0.036628 0.087567002 4278190080
0.027765 0.036628 0.085986003 4278190080
0.017999001 0.036628 0.088412002 4278190080
0.019424001 0.036628 0.08952 4278190080
0.019951999 0.036873002 0.08952 4278190080
0.021904999 0.037425 0.08952 4278190080
0.023858 0.037390001 0.08952 4278190080
0.025403 0.036628 0.08952 4278190080
0.025812 0.036628 0.089160003 4278190080
0.019951999 0.036628 0.089965999 4278190080
0.021904999 0.036628 0.090994999 4278190080
0.023858 0.036628 0.090759002 4278190080
-0.22028001 0.034805998 -0.072590001 4278190080
-0.22028001 0.034674998 -0.072720997 4278190080
-0.22056 0.034674998 -0.072590001 4278190080
-0.21991999 0.034674998 -0.072590001 4278190080
-0.26519999 0.034674998 -0.071015 4278190080
-0.26519999 0.035137001 -0.070637003 4278190080
-0.26374999 0.034674998 -0.070637003 4278190080
-0.2613 0.034681998 -0.070637003 4278190080
-0.2613 0.034674998 -0.070642002 4278190080
-0.26135999 0.034674998 -0.070637003 4278190080
-0.26128 0.034674998 -0.070637003 4278190080
-0.25347999 0.034924999 -0.070637003 4278190080
-0.25347999 0.034674998 -0.070735998 4278190080
-0.25404999 0.034674998 -0.070637003 4278190080
-0.25152999 0.035948001 -0.070637003 4278190080
-0.25152999 0.034674998 -0.071603999 4278190080
-0.24958 0.034674998 -0.071590997 4278190080
-0.24763 0.034674998 -0.071534999 4278190080
-0.24567001 0.034674998 -0.071915999 4278190080
-0.24372 0.034674998 -0.071307003 4278190080
-0.24177 0.035392001 -0.070637003 4278190080
-0.24177 0.034674998 -0.071170002 4278190080
-0.23981 0.036506001 -0.070637003 4278190080
-0.23981 0.034674998 -0.071147002 4278190080
-0.23785999 0.035052001 -0.070637003 4278190080
-0.23785999 0.034674998 -0.070899002 4278190080
-0.23591 0.035480998 -0.070637003 4278190080
-0.23591 0.034674998 -0.071059003 4278190080
-0.23395 0.035108998 -0.070637003 4278190080
-0.23395 0.034674998 -0.070951998 4278190080
-0.23199999 0.036508001 -0.070637003 4278190080
-0.23199999 0.034674998 -0.071323998 4278190080
-0.23005 0.036178 -0.070637003 4278190080
-0.23005 0.034674998 -0.071639001 4278190080
-0.22809 0.03599 -0.070637003 4278190080
-0.22809 0.034674998 -0.071727999 4278190080
-0.22614001 0.034674998 -0.071452998 4278190080
-0.22419 0.035641 -0.070637003 4278190080
-0.22419 0.034674998 -0.071346 4278190080
-0.22223 0.035381 -0.070637003 4278190080
-0.22223 0.034674998 -0.071713999 4278190080
-0.22028001 0.035712 -0.070637003 4278190080
-0.21833 0.034674998 -0.071906 4278190080
-0.21833 0.035742 -0.070637003 4278190080
-0.21638 0.035347 -0.070637003 4278190080
-0.21638 0.034674998 -0.07181 4278190080
-0.21442001 0.035406999 -0.070637003 4278190080
-0.21442001 0.034674998 -0.071368001 4278190080
-0.21247 0.034899998 -0.070637003 4278190080
-0.21247 0.034674998 -0.070863999 4278190080
-0.21157999 0.034674998 -0.070637003 4278190080
-0.20856 0.034752 -0.070637003 4278190080
-0.20856 0.034674998 -0.070712 4278190080
-0.20889001 0.034674998 -0.070637003 4278190080
-0.20660999 0.034922 -0.070637003 4278190080
-0.20660999 0.034674998 -0.070878997 4278190080
-0.20466 0.035592999 -0.070637003 4278190080
-0.20466 0.034674998 -0.071483999 4278190080
-0.2027 0.034735002 -0.070637003 4278190080
-0.2027 0.034674998 -0.070697002 4278190080
-0.20259 0.034674998 -0.070637003 4278190080
-0.17145 0.034715999 -0.070637003 4278190080
-0.17145 0.034674998 -0.070678003 4278190080
-0.1715 0.034674998 -0.070637003 4278190080
-0.16949999 0.035349 -0.070637003 4278190080
-0.16949999 0.034674998 -0.071309999 4278190080
-0.16755 0.035397001 -0.070637003 4278190080
-0.16755 0.034674998 -0.071358003 4278190080
-0.16559 0.03548 -0.070637003 4278190080
-0.16559 0.034674998 -0.071441002 4278190080
-0.164 0.034674998 -0.070637003 4278190080
-0.16169 0.035762001 -0.070637003 4278190080
-0.16064 0.034674998 -0.070637003 4278190080
-0.15973 0.034674998 -0.071539 4278190080
-0.15973 0.035578001 -0.070637003 4278190080
-0.26324999 0.036357999 -0.068682998 4278190080
-0.26324999 0.034674998 -0.070216 4278190080
-0.25933999 0.035719 -0.068682998 4278190080
-0.25933999 0.034674998 -0.069339998 4278190080
-0.25738999 0.035622999 -0.068682998 4278190080
-0.25738999 0.034674998 -0.069404997 4278190080
-0.25544 0.034674998 -0.069774002 4278190080
-0.21052 0.034674998 -0.070279002 4278190080
-0.20074999 0.034674998 -0.069811001 4278190080
-0.1988 0.034674998 -0.069453001 4278190080
-0.19684 0.034674998 -0.069747001 4278190080
-0.19489001 0.034674998 -0.069444001 4278190080
-0.19294 0.034674998 -0.069476999 4278190080
-0.19098 0.035921 -0.068682998 4278190080
-0.19098 0.034674998 -0.069532 4278190080
-0.18903001 0.034674998 -0.069424003 4278190080
-0.18708 0.034674998 -0.069807999 4278190080
-0.18513 0.034674998 -0.069913 4278190080
-0.18317001 0.036481 -0.068682998 4278190080
-0.18317001 0.034674998 -0.069487996 4278190080
-0.18122 0.034674998 -0.070006996 4278190080
-0.17927 0.036619999 -0.068682998 4278190080
-0.17927 0.034674998 -0.069438003 4278190080
-0.17731 0.034674998 -0.070024997 4278190080
-0.17535999 0.036005002 -0.068682998 4278190080
-0.17535999 0.034674998 -0.069436997 4278190080
-0.17341 0.035937 -0.068682998 4278190080
-0.17341 0.034674998 -0.069408 4278190080
-0.17145 0.036173999 -0.068682998 4278190080
-0.16364001 0.034674998 -0.070341997 4278190080
-0.16169 0.034674998 -0.069605 4278190080
-0.15778001 0.034674998 -0.069614001 4278190080
-0.15883 0.034674998 -0.070637003 4278190080
-0.15583 0.036628 -0.069643997 4278190080
-0.15583 0.034674998 -0.069596 4278190080
-0.25933999 0.034674998 -0.067014001 4278190080
-0.25933999 0.034968998 -0.06673 4278190080
-0.25960001 0.034674998 -0.06673 4278190080
-0.25738999 0.035206001 -0.06673 4278190080
-0.25738999 0.034674998 -0.067495003 4278190080
-0.25621 0.034674998 -0.06673 4278190080
-0.26324999 0.034674998 -0.066362999 4278190080
-0.26519999 0.034674998 -0.066087 4278190080
-0.2613 0.034674998 -0.065865003 4278190080
-0.25544 0.034674998 -0.066468 4278190080
-0.25347999 0.034674998 -0.065646999 4278190080
-0.25347999 0.035727002 -0.064777002 4278190080
-0.25152999 0.034674998 -0.064902999 4278190080
-0.25152999 0.034908 -0.064777002 4278190080
-0.24958 0.034674998 -0.064906999 4278190080
-0.24958 0.035025999 -0.064777002 4278190080
-0.24816 0.034674998 -0.064777002 4278190080
-0.24763 0.034674998 -0.064714998 4278190080
-0.24567001 0.034674998 -0.064404003 4278190080
-0.24372 0.034674998 -0.064074002 4278190080
-0.24177 0.034674998 -0.063928999 4278190080
-0.23981 0.034674998 -0.063919999 4278190080
-0.23785999 0.034674998 -0.063794002 4278190080
-0.23785999 0.036242001 -0.062824003 4278190080
-0.23591 0.034674998 -0.063364998 4278190080
-0.23591 0.036003001 -0.062824003 4278190080
-0.23395 0.034674998 -0.063147999 4278190080
-0.23395 0.035358999 -0.062824003 4278190080
-0.23199999 0.034674998 -0.063304998 4278190080
-0.23199999 0.036024999 -0.062824003 4278190080
-0.23005 0.034674998 -0.063718997 4278190080
-0.23005 0.036307 -0.062824003 4278190080
-0.22809 0.034674998 -0.063474998 4278190080
-0.22809 0.035704002 -0.062824003 4278190080
-0.22614001 0.034674998 -0.062872 4278190080
-0.22614001 0.034747001 -0.062824003 4278190080
-0.22582 0.034674998 -0.062824003 4278190080
-0.22419 0.034674998 -0.062639996 4278190080
-0.22223 0.034674998 -0.062582999 4278190080
-0.22028001 0.034674998 -0.062592 4278190080
-0.21833 0.034674998 -0.062631004 4278190080
-0.21638 0.034674998 -0.062277999 4278190080
-0.21442001 0.034674998 -0.062077999 4278190080
-0.21247 0.034674998 -0.062217001 4278190080
-0.21052 0.034674998 -0.061868999 4278190080
-0.20856 0.034674998 -0.061751999 4278190080
-0.20660999 0.034674998 -0.061827 4278190080
-0.20660999 0.036524002 -0.060871001 4278190080
-0.20466 0.034674998 -0.061524998 4278190080
-0.20466 0.036093999 -0.060871001 4278190080
-0.2027 0.034674998 -0.061115 4278190080
-0.2027 0.035062 -0.060871001 4278190080
-0.20074999 0.034674998 -0.060931999 4278190080
-0.20074999 0.034763001 -0.060871001 4278190080
-0.20031001 0.034674998 -0.060871001 4278190080
-0.1988 0.034674998 -0.060676001 4278190080
-0.19684 0.034674998 -0.060681 4278190080
-0.19489001 0.034674998 -0.060371999 4278190080
-0.19294 0.034674998 -0.060350001 4278190080
-0.19098 0.034674998 -0.060416002 4278190080
-0.18903001 0.034674998 -0.060281999 4278190080
-0.18708 0.034674998 -0.060619 4278190080
-0.18513 0.034674998 -0.060320999 4278190080
-0.18317001 0.034674998 -0.060286999 4278190080
-0.18122 0.034674998 -0.060286 4278190080
-0.17927 0.034674998 -0.060095999 4278190080
-0.17731 0.034674998 -0.059981 4278190080
-0.17535999 0.034674998 -0.059889998 4278190080
-0.17341 0.034674998 -0.059937 4278190080
-0.17145 0.034674998 -0.059907999 4278190080
-0.17145 0.036593001 -0.058917999 4278190080
-0.16949999 0.034674998 -0.059925001 4278190080
-0.16949999 0.036331002 -0.058917999 4278190080
-0.16755 0.034674998 -0.059928998 4278190080
-0.16755 0.036557999 -0.058917999 4278190080
-0.16559 0.034674998 -0.059835002 4278190080
-0.16559 0.036584001 -0.058917999 4278190080
-0.16364001 0.034674998 -0.059780002 4278190080
-0.16364001 0.036341 -0.058917999 4278190080
-0.16169 0.034674998 -0.059592001 4278190080
-0.16169 0.036019001 -0.058917999 4278190080
-0.15973 0.034674998 -0.05948 4278190080
-0.15973 0.035767 -0.058917999 4278190080
-0.15778001 0.034674998 -0.059323002 4278190080
-0.15778001 0.035608999 -0.058917999 4278190080
-0.15583 0.034674998 -0.059362002 4278190080
-0.15583 0.035672002 -0.058917999 4278190080
-0.15388 0.034674998 -0.059227999 4278190080
-0.15388 0.035386998 -0.058917999 4278190080
-0.15192001 0.034674998 -0.05926 4278190080
-0.15192001 0.035439 -0.058917999 4278190080
-0.14997 0.034674998 -0.059308998 4278190080
-0.14997 0.035491999 -0.058917999 4278190080
-0.14802 0.034674998 -0.059275001 4278190080
-0.14802 0.035330001 -0.058917999 4278190080
-0.14606 0.034674998 -0.059172999 4278190080
-0.14606 0.035163 -0.058917999 4278190080
-0.14410999 0.034674998 -0.059138 4278190080
-0.14410999 0.035085 -0.058917999 4278190080
-0.14216 0.034674998 -0.059037998 4278190080
-0.14216 0.034935001 -0.058917999 4278190080
-0.14052001 0.034674998 -0.058917999 4278190080
0.22503 0.035613999 -0.058917999 4278190080
0.22503 0.034674998 -0.059857 4278190080
0.22698 0.034674998 -0.059840001 4278190080
0.22894 0.034674998 -0.059847001 4278190080
0.23089001 0.035595 -0.058917999 4278190080
0.23089001 0.034674998 -0.059836999 4278190080
0.23284 0.034674998 -0.059836 4278190080
-0.1402 0.034674998 -0.058894001 4278190080
-0.13824999 0.034674998 -0.058887001 4278190080
-0.1363 0.034674998 -0.058734 4278190080
-0.13434 0.034674998 -0.058600999 4278190080
-0.13239001 0.034674998 -0.058534 4278190080
-0.13044 0.034674998 -0.058369 4278190080
-0.12848 0.034674998 -0.058559 4278190080
-0.12653001 0.034674998 -0.058385 4278190080
-0.12458 0.034674998 -0.058233999 4278190080
-0.12263 0.034674998 -0.058313001 4278190080
-0.12067 0.034674998 -0.058086 4278190080
-0.12067 0.036533002 -0.056965001 4278190080
-0.11872 0.034674998 -0.058120001 4278190080
-0.11677 0.034674998 -0.057992999 4278190080
-0.11677 0.036359001 -0.056965001 4278190080
-0.11481 0.034674998 -0.058026001 4278190080
-0.11481 0.036336999 -0.056965001 4278190080
-0.11286 0.034674998 -0.057734001 4278190080
-0.11286 0.035946999 -0.056965001 4278190080
-0.11091 0.034674998 -0.057539001 4278190080
-0.11091 0.035590999 -0.056965001 4278190080
-0.10895 0.034674998 -0.057606 4278190080
-0.10895 0.035746001 -0.056965001 4278190080
-0.107 0.034674998 -0.057328999 4278190080
-0.107 0.035379 -0.056965001 4278190080
-0.10505 0.034674998 -0.057123002 4278190080
-0.10505 0.034974001 -0.056965001 4278190080
-0.1031 0.034674998 -0.057091001 4278190080
-0.1031 0.034929998 -0.056965001 4278190080
-0.10114 0.034674998 -0.057197999 4278190080
-0.10114 0.035131998 -0.056965001 4278190080
-0.099188 0.034674998 -0.057025999 4278190080
-0.099188 0.034786001 -0.056965001 4278190080
-0.098975003 0.034674998 -0.056965001 4278190080
0.22307999 0.035610002 -0.058917999 4278190080
0.22307999 0.036628 -0.057868 4278190080
-0.097235002 0.034674998 -0.056271002 4278190080
-0.095282003 0.034674998 -0.055413999 4278190080
-0.095282003 0.035319 -0.055011999 4278190080
-0.094893001 0.034674998 -0.055011999 4278190080
-0.093781002 0.034674998 -0.053059001 4278190080
-0.093530998 0.034674998 -0.051105 4278190080
-0.093328997 0.034674998 -0.050051998 4278190080
-0.093179002 0.034674998 -0.049152002 4278190080
0.16057999 0.035473 -0.049152002 4278190080
0.15993001 0.034674998 -0.049152002 4278190080
0.16057999 0.034674998 -0.049612001 4278190080
0.16253 0.034674998 -0.050082002 4278190080
0.16253 0.036291 -0.049152002 4278190080
0.16448 0.034674998 -0.050081 4278190080
0.16448 0.036329001 -0.049152002 4278190080
0.16644 0.034674998 -0.049874 4278190080
0.16644 0.036293 -0.049152002 4278190080
0.16839001 0.034674998 -0.049834002 4278190080
0.16839001 0.036010001 -0.049152002 4278190080
0.17034 0.034674998 -0.049936 4278190080
0.17034 0.036125001 -0.049152002 4278190080
0.1723 0.034674998 -0.049961999 4278190080
0.1723 0.036396001 -0.049152002 4278190080
0.17425001 0.034674998 -0.049989 4278190080
0.17425001 0.035985 -0.049152002 4278190080
0.1762 0.034674998 -0.049927 4278190080
0.1762 0.036148001 -0.049152002 4278190080
0.17816 0.034674998 -0.049830001 4278190080
0.17816 0.036077999 -0.049152002 4278190080
0.18010999 0.034674998 -0.049690999 4278190080
0.18010999 0.035656001 -0.049152002 4278190080
0.18206 0.034674998 -0.049570002 4278190080
0.18206 0.035377 -0.049152002 4278190080
0.18402 0.034674998 -0.049417999 4278190080
0.18402 0.035101 -0.049152002 4278190080
0.18596999 0.034674998 -0.049594 4278190080
0.18596999 0.035418998 -0.049152002 4278190080
0.18792 0.034674998 -0.049525 4278190080
0.18792 0.035239 -0.049152002 4278190080
0.18987 0.034674998 -0.049679998 4278190080
0.18987 0.035627 -0.049152002 4278190080
0.19182999 0.034674998 -0.049614001 4278190080
0.19182999 0.035523001 -0.049152002 4278190080
0.19378 0.034674998 -0.049770001 4278190080
0.19378 0.035765 -0.049152002 4278190080
0.19573 0.034674998 -0.049761001 4278190080
0.19573 0.035776999 -0.049152002 4278190080
0.19769 0.034674998 -0.049833 4278190080
0.19769 0.035781998 -0.049152002 4278190080
0.19964001 0.034674998 -0.049803 4278190080
0.19964001 0.035870001 -0.049152002 4278190080
0.20159 0.034674998 -0.049802002 4278190080
0.20159 0.035751998 -0.049152002 4278190080
0.20355 0.034674998 -0.049807999 4278190080
0.20355 0.035893999 -0.049152002 4278190080
0.20550001 0.034674998 -0.049773 4278190080
0.20550001 0.035797998 -0.049152002 4278190080
0.20745 0.034674998 -0.049601 4278190080
0.20745 0.035390001 -0.049152002 4278190080
0.20941 0.034674998 -0.049536999 4278190080
0.20941 0.035360999 -0.049152002 4278190080
0.21135999 0.034674998 -0.049529999 4278190080
0.21135999 0.03534 -0.049152002 4278190080
0.21331 0.034674998 -0.049663 4278190080
0.21331 0.035530999 -0.049152002 4278190080
0.21527 0.034674998 -0.049307998 4278190080
0.21527 0.035002999 -0.049152002 4278190080
0.21721999 0.034674998 -0.049171001 4278190080
0.21721999 0.034708001 -0.049152002 4278190080
0.21776 0.034674998 -0.049152002 4278190080
0.22112 0.034890998 -0.049152002 4278190080
0.21968 0.034674998 -0.049152002 4278190080
0.22112 0.034674998 -0.049263 4278190080
0.22307999 0.034674998 -0.049281999 4278190080
0.22307999 0.034965999 -0.049152002 4278190080
0.22417 0.034674998 -0.049152002 4278190080
-0.092828996 0.034674998 -0.047199 4278190080
0.15862 0.035803001 -0.047199 4278190080
0.15831 0.034674998 -0.047199 4278190080
0.15862 0.034674998 -0.047811002 4278190080
0.21917 0.034674998 -0.049116001 4278190080
0.22503 0.034674998 -0.049052998 4278190080
0.22698 0.034674998 -0.048845999 4278190080
0.22894 0.034674998 -0.049102999 4278190080
0.23089001 0.034674998 -0.048992999 4278190080
0.23284 0.034674998 -0.049095001 4278190080
-0.093064003 0.034674998 -0.045246001 4278190080
0.15772 0.034674998 -0.045246001 4278190080
-0.093203999 0.034674998 -0.043292999 4278190080
0.15730999 0.034674998 -0.043292999 4278190080
-0.093328997 0.035746999 -0.041340001 4278190080
-0.093328997 0.034674998 -0.042622 4278190080
-0.093516998 0.034674998 -0.041340001 4278190080
0.15723 0.034674998 -0.041340001 4278190080
-0.093328997 0.036028001 -0.039386999 4278190080
-0.093506999 0.034674998 -0.039386999 4278190080
0.1573 0.034674998 -0.039386999 4278190080
-0.093484998 0.034674998 -0.037434001 4278190080
0.15716 0.034674998 -0.037434001 4278190080
-0.093328997 0.034674998 -0.036308002 4278190080
-0.093328997 0.036437999 -0.03548 4278190080
-0.093161002 0.034674998 -0.03548 4278190080
-0.077703997 0.035165001 -0.03548 4278190080
-0.078129001 0.034674998 -0.03548 4278190080
-0.077703997 0.034674998 -0.035803001 4278190080
-0.075750999 0.034674998 -0.035877001 4278190080
-0.075750999 0.035234001 -0.03548 4278190080
-0.073798001 0.034674998 -0.035834 4278190080
-0.073798001 0.035289999 -0.03548 4278190080
-0.071845002 0.034674998 -0.035785001 4278190080
-0.071845002 0.035227999 -0.03548 4278190080
-0.069891997 0.034674998 -0.035622001 4278190080
-0.069891997 0.034951001 -0.03548 4278190080
-0.067938 0.034674998 -0.035657 4278190080
-0.067938 0.034991998 -0.03548 4278190080
-0.066188 0.034674998 -0.03548 4278190080
0.15711001 0.034674998 -0.03548 4278190080
-0.093103997 0.034674998 -0.033527002 4278190080
-0.078984998 0.034674998 -0.033527002 4278190080
-0.065985002 0.034674998 -0.035457 4278190080
-0.064032003 0.034674998 -0.034837 4278190080
-0.062079001 0.034674998 -0.033789001 4278190080
-0.062079001 0.035231002 -0.033527002 4278190080
-0.061707001 0.034674998 -0.033527002 4278190080
0.15699001 0.034674998 -0.033527002 4278190080
-0.093019001 0.034674998 -0.031574 4278190080
-0.079657003 0.035448998 -0.031574 4278190080
-0.079903997 0.034674998 -0.031574 4278190080
-0.079657003 0.034674998 -0.032267001 4278190080
-0.060125999 0.034674998 -0.032026 4278190080
-0.060125999 0.035572998 -0.031574 4278190080
-0.059719 0.034674998 -0.031574 4278190080
0.15671 0.034674998 -0.031574 4278190080
-0.092325002 0.034674998 -0.029620999 4278190080
-0.081247002 0.034674998 -0.029620999 4278190080
-0.058173001 0.034674998 -0.02964 4278190080
-0.058173001 0.034743998 -0.029620999 4278190080
-0.058159001 0.034674998 -0.029620999 4278190080
0.12542 0.035817001 -0.029620999 4278190080
0.12437 0.034674998 -0.029620999 4278190080
0.12542 0.034674998 -0.030305 4278190080
0.12737 0.034674998 -0.030955 4278190080
0.12932999 0.034674998 -0.030915 4278190080
0.13128 0.034674998 -0.030917 4278190080
0.13323 0.034674998 -0.03046 4278190080
0.13323 0.036199 -0.029620999 4278190080
0.13519 0.034674998 -0.030274 4278190080
0.13519 0.035801999 -0.029620999 4278190080
0.13714001 0.034674998 -0.029897001 4278190080
0.13714001 0.035213001 -0.029620999 4278190080
0.13909 0.034674998 -0.0297 4278190080
0.13909 0.034791 -0.029620999 4278190080
0.13933 0.034674998 -0.029620999 4278190080
0.15659 0.034674998 -0.029620999 4278190080
0.15667 0.034674998 -0.03091 4278190080
-0.091403 0.034674998 -0.027667999 4278190080
-0.081610002 0.036621999 -0.027667999 4278190080
-0.083068997 0.034674998 -0.027667999 4278190080
-0.081610002 0.034674998 -0.029166 4278190080
-0.056488 0.034674998 -0.027667999 4278190080
0.12151 0.035424002 -0.027667999 4278190080
0.12126 0.034674998 -0.027667999 4278190080
0.12151 0.034674998 -0.027974 4278190080
0.12347 0.034674998 -0.02912 4278190080
0.14105 0.034674998 -0.029029001 4278190080
0.14105 0.036481 -0.027667999 4278190080
0.14222001 0.034674998 -0.027667999 4278190080
0.15621001 0.034674998 -0.027667999 4278190080
-0.091375999 0.034674998 -0.027615 4278190080
-0.089423001 0.034674998 -0.026467999 4278190080
-0.089423001 0.036297999 -0.025715001 4278190080
-0.088012002 0.034674998 -0.025715001 4278190080
-0.083563 0.036359999 -0.025715001 4278190080
-0.085369997 0.034674998 -0.025715001 4278190080
-0.083563 0.034674998 -0.027073 4278190080
-0.056219999 0.034674998 -0.02736 4278190080
-0.055151001 0.034674998 -0.025715001 4278190080
0.11998 0.034674998 -0.025715001 4278190080
0.14300001 0.034674998 -0.026690001 4278190080
0.14300001 0.035650998 -0.025715001 4278190080
0.14362 0.034674998 -0.025715001 4278190080
0.15609001 0.034674998 -0.025715001 4278190080
-0.087470002 0.034674998 -0.025447 4278190080
-0.085516997 0.034674998 -0.025567001 4278190080
-0.054458998 0.034674998 -0.023762001 4278190080
0.11881 0.034674998 -0.023762001 4278190080
0.11956 0.034674998 -0.025059 4278190080
0.14495 0.034674998 -0.024203001 4278190080
0.14495 0.035362002 -0.023762001 4278190080
0.14537001 0.034674998 -0.023762001 4278190080
0.15546 0.034674998 -0.023762001 4278190080
-0.054267 0.034674998 -0.023404 4278190080
-0.053378001 0.034674998 -0.021808 4278190080
0.11772 0.034674998 -0.021808 4278190080
0.14691 0.034674998 -0.022086 4278190080
0.14691 0.035062999 -0.021808 4278190080
0.14724 0.034674998 -0.021808 4278190080
0.15471999 0.036474999 -0.021808 4278190080
0.15397 0.034674998 -0.021808 4278190080
0.15471999 0.034674998 -0.022460001 4278190080
-0.052313 0.034674998 -0.020405 4278190080
-0.051865 0.034674998 -0.019855 4278190080
0.1168 0.034674998 -0.019855 4278190080
0.11761 0.034674998 -0.021566 4278190080
0.14885999 0.034674998 -0.020028999 4278190080
0.14885999 0.034995001 -0.019855 4278190080
0.15081 0.034674998 -0.019862 4278190080
0.15081 0.034685001 -0.019855 4278190080
0.15277 0.034674998 -0.020865999 4278190080
-0.050360002 0.034674998 -0.018401001 4278190080
-0.049791001 0.034674998 -0.017902 4278190080
0.11565 0.036435001 -0.017902 4278190080
0.11529 0.034674998 -0.017902 4278190080
0.11565 0.034674998 -0.018339001 4278190080
-0.048645001 0.034674998 -0.015949 4278190080
0.1137 0.035195999 -0.015949 4278190080
0.11345 0.034674998 -0.015949 4278190080
0.1137 0.034674998 -0.0162 4278190080
-0.048407 0.034674998 -0.015641 4278190080
-0.046454001 0.034674998 -0.014721 4278190080
-0.045042999 0.034674998 -0.013996 4278190080
0.11175 0.034837 -0.013996 4278190080
0.11168 0.034674998 -0.013996 4278190080
0.11175 0.034674998 -0.014046 4278190080
-0.044500999 0.034674998 -0.013704 4278190080
-0.042548001 0.034674998 -0.013315 4278190080
-0.040594999 0.034674998 -0.0131 4278190080
-0.040594999 0.036465 -0.012043 4278190080
-0.038642 0.034674998 -0.013117 4278190080
-0.038642 0.036451999 -0.012043 4278190080
-0.036688 0.034674998 -0.013294 4278190080
-0.034735002 0.034674998 -0.013339 4278190080
-0.032782 0.034674998 -0.013197 4278190080
-0.032782 0.036398001 -0.012043 4278190080
-0.030828999 0.034674998 -0.012292 4278190080
-0.030828999 0.034926001 -0.012043 4278190080
-0.030610001 0.034674998 -0.012043 4278190080
0.1098 0.036060002 -0.012043 4278190080
0.10815 0.034674998 -0.012043 4278190080
0.1098 0.034674998 -0.012486 4278190080
-0.029174 0.034674998 -0.01009 4278190080
0.094171003 0.036334001 -0.01009 4278190080
0.093548998 0.034674998 -0.01009 4278190080
0.094171003 0.034674998 -0.010417 4278190080
0.096124001 0.034674998 -0.010982 4278190080
0.096124001 0.036527 -0.01009 4278190080
0.098076999 0.034674998 -0.011175 4278190080
0.098076999 0.036217999 -0.01009 4278190080
0.10003 0.034674998 -0.010921 4278190080
0.10003 0.036031999 -0.01009 4278190080
0.10198 0.034674998 -0.010948 4278190080
0.10198 0.036065001 -0.01009 4278190080
0.10394 0.034674998 -0.010976 4278190080
0.10394 0.036378998 -0.01009 4278190080
0.10589 0.034674998 -0.011413 4278190080
0.10784 0.034674998 -0.011967 4278190080
-0.028953001 0.034674998 -0.0081366003 4278190080
0.091050997 0.034674998 -0.0081366003 4278190080
0.092217997 0.034674998 -0.0093130004 4278190080
-0.028875999 0.034674998 -0.0077658002 4278190080
-0.028875999 0.035801001 -0.0061834999 4278190080
-0.028581999 0.034674998 -0.0061834999 4278190080
0.088312 0.036454 -0.0061834999 4278190080
0.089129001 0.034674998 -0.0061834999 4278190080
0.090264998 0.034674998 -0.0074207 4278190080
-0.028558999 0.034674998 -0.0042304001 4278190080
0.087707996 0.034674998 -0.0042304001 4278190080
0.088312 0.034674998 -0.0050828001 4278190080
-0.028576 0.034674998 -0.0022772001 4278190080
0.086358003 0.034965999 -0.0022772001 4278190080
0.08653 0.034674998 -0.0022772001 4278190080
-0.028655 0.034674998 -0.00032411001 4278190080
0.084404998 0.036029998 -0.00032411001 4278190080
0.085367002 0.034674998 -0.00032411001 4278190080
0.086358003 0.034674998 -0.0019807001 4278190080
-0.028045001 0.034674998 0.0016289999 4278190080
0.084225997 0.034674998 0.0016289999 4278190080
0.084404998 0.034674998 0.0013403 4278190080
-0.026923001 0.035087999 0.0035820999 4278190080
-0.027043 0.034674998 0.0035820999 4278190080
0.082451999 0.035192002 0.0035820999 4278190080
0.082780004 0.034674998 0.0035820999 4278190080
-0.026923001 0.034674998 0.0044248998 4278190080
-0.026786 0.034674998 0.0055352999 4278190080
0.080499001 0.036327999 0.0055352999 4278190080
0.0814 0.034674998 0.0055352999 4278190080
0.082451999 0.034674998 0.0040557999 4278190080
-0.024970001 0.035358999 0.0074884002 4278190080
-0.025457 0.034674998 0.0074884002 4278190080
0.080008 0.034674998 0.0074884002 4278190080
0.080499001 0.034674998 0.0068566999 4278190080
-0.024970001 0.034674998 0.0087040998 4278190080
-0.023017 0.035932001 0.0094414996 4278190080
-0.024467001 0.034674998 0.0094414996 4278190080
0.078353003 0.034674998 0.0094414996 4278190080
0.078546003 0.034674998 0.0091933003 4278190080
-0.023017 0.034873001 0.011395 4278190080
-0.023228999 0.034674998 0.011395 4278190080
-0.021063 0.035852 0.011395 4278190080
0.076592997 0.035473 0.011395 4278190080
0.076968998 0.034674998 0.011395 4278190080
-0.023017 0.034674998 0.011625 4278190080
-0.021118 0.034674998 0.013348 4278190080
-0.021063 0.034728002 0.013348 4278190080
-0.01911 0.036244001 0.013348 4278190080
0.074639998 0.03624 0.013348 4278190080
0.075704999 0.034674998 0.013348 4278190080
0.076592997 0.034674998 0.011942 4278190080
-0.021063 0.034674998 0.013457 4278190080
-0.019382 0.034674998 0.015301 4278190080
-0.01911 0.034887001 0.015301 4278190080
-0.017157 0.036474999 0.015301 4278190080
0.074478 0.034674998 0.015301 4278190080
0.074639998 0.034674998 0.015034 4278190080
-0.01911 0.034674998 0.015515 4278190080
-0.017157 0.034674998 0.017177001 4278190080
-0.017055999 0.034674998 0.017254001 4278190080
0.072687 0.035769999 0.017254001 4278190080
0.073395997 0.034674998 0.017254001 4278190080
-0.015204 0.035062 0.019207001 4278190080
-0.015604 0.034674998 0.019207001 4278190080
0.072095998 0.034674998 0.019207001 4278190080
0.072687 0.034674998 0.018301999 4278190080
-0.015204 0.034674998 0.019665999 4278190080
-0.013251 0.035664 0.021159999 4278190080
-0.014171 0.034674998 0.021159999 4278190080
0.070733003 0.034892 0.021159999 4278190080
0.070827 0.034674998 0.021159999 4278190080
-0.013251 0.034674998 0.022655999 4278190080
-0.011298 0.036024999 0.023112999 4278190080
-0.012737 0.034674998 0.023112999 4278190080
0.068779998 0.035491001 0.023112999 4278190080
0.069282003 0.034674998 0.023112999 4278190080
0.070733003 0.034674998 0.021317 4278190080
-0.011298 0.034674998 0.024073999 4278190080
-0.0093448004 0.036022 0.025067 4278190080
-0.010185 0.034674998 0.025067 4278190080
0.066826999 0.035176001 0.025067 4278190080
0.067112997 0.034674998 0.025067 4278190080
0.068779998 0.034674998 0.02369 4278190080
-0.0093448004 0.034674998 0.026822001 4278190080
-0.0073917001 0.035149999 0.02702 4278190080
-0.0088358 0.034674998 0.02702 4278190080
0.064874001 0.035603002 0.02702 4278190080
0.065306 0.034674998 0.02702 4278190080
0.066826999 0.034674998 0.02533 4278190080
-0.0073917001 0.034674998 0.027323 4278190080
-0.0054385001 0.034674998 0.028139999 4278190080
-0.0039561 0.034674998 0.028973 4278190080
0.062921003 0.035273001 0.028973 4278190080
0.063156001 0.034674998 0.028973 4278190080
0.064874001 0.034674998 0.027409 4278190080
-0.0034854 0.034674998 0.029351 4278190080
-0.0015323 0.034674998 0.030499 4278190080
-0.0010174999 0.034674998 0.030926 4278190080
0.060968 0.035760999 0.030926 4278190080
0.061404999 0.034674998 0.030926 4278190080
0.062921003 0.034674998 0.029239999 4278190080
0.00042085 0.034674998 0.032843001 4278190080
0.00045011999 0.034674998 0.032878999 4278190080
0.059014998 0.035452001 0.032878999 4278190080
0.059372 0.034674998 0.032878999 4278190080
0.060968 0.034674998 0.031309001 4278190080
0.057062 0.035356998 0.034832001 4278190080
0.057482999 0.034674998 0.034832001 4278190080
0.059014998 0.034674998 0.033250999 4278190080
0.055108 0.035443 0.036784999 4278190080
0.055440001 0.034674998 0.036784999 4278190080
0.057062 0.034674998 0.035225999 4278190080
0.053155001 0.035882 0.038738001 4278190080
0.053966001 0.034674998 0.038738001 4278190080
0.055108 0.034674998 0.037163001 4278190080
0.052924 0.034674998 0.040690999 4278190080
0.053155001 0.034674998 0.040311001 4278190080
-0.0054385001 0.03469 0.042645 4278190080
-0.0054385001 0.034674998 0.042628001 4278190080
-0.0056249001 0.034674998 0.042645 4278190080
0.051201999 0.035029002 0.042645 4278190080
0.051511001 0.034674998 0.042645 4278190080
-0.011298 0.036017999 0.044597998 4278190080
-0.011298 0.034674998 0.043793 4278190080
-0.012718 0.034674998 0.044597998 4278190080
-0.0093448004 0.034674998 0.043602999 4278190080
-0.0073917001 0.036022998 0.044597998 4278190080
-0.0073917001 0.034674998 0.042925 4278190080
-0.0054385001 0.035976999 0.044597998 4278190080
0.049249001 0.035964001 0.044597998 4278190080
0.050572 0.034674998 0.044597998 4278190080
0.051201999 0.034674998 0.043223999 4278190080
-0.013251 0.035239 0.046551 4278190080
-0.013251 0.034674998 0.045394 4278190080
-0.013868 0.034674998 0.046551 4278190080
-0.011298 0.036545999 0.046551 4278190080
0.049249001 0.034726001 0.046551 4278190080
0.049293 0.034674998 0.046551 4278190080
-0.013251 0.035739999 0.048503999 4278190080
-0.014743 0.034674998 0.048503999 4278190080
-0.011298 0.036451999 0.048503999 4278190080
0.047295999 0.036038 0.048503999 4278190080
0.048494998 0.034674998 0.048503999 4278190080
0.049249001 0.034674998 0.046652 4278190080
-0.015204 0.034689002 0.050457001 4278190080
-0.015204 0.034674998 0.050384 4278190080
-0.015221 0.034674998 0.050457001 4278190080
-0.013251 0.035342 0.050457001 4278190080
0.047295999 0.035099 0.050457001 4278190080
0.047584999 0.034674998 0.050457001 4278190080
-0.015204 0.034674998 0.050556999 4278190080
-0.013903 0.034674998 0.052409999 4278190080
-0.013251 0.035055999 0.052409999 4278190080
-0.011298 0.036517002 0.052409999 4278190080
0.045343 0.036534999 0.052409999 4278190080
0.046936002 0.034674998 0.052409999 4278190080
0.047295999 0.034674998 0.051229 4278190080
-0.013251 0.034674998 0.05277 4278190080
-0.011393 0.034674998 0.054363001 4278190080
-0.011298 0.034789 0.054363001 4278190080
-0.0093448004 0.036185 0.054363001 4278190080
0.045343 0.035843998 0.054363001 4278190080
0.046452001 0.034674998 0.054363001 4278190080
-0.011298 0.034674998 0.054536 4278190080
-0.010252 0.034674998 0.056315999 4278190080
-0.0093448004 0.035124 0.056315999 4278190080
-0.0073917001 0.036309998 0.056315999 4278190080
0.045343 0.034798998 0.056315999 4278190080
0.045476001 0.034674998 0.056315999 4278190080
-0.0093448004 0.034674998 0.056963999 4278190080
-0.0073917001 0.034674998 0.057519 4278190080
-0.0054385001 0.035597999 0.05827 4278190080
-0.0064106002 0.034674998 0.05827 4278190080
0.043389998 0.035551 0.05827 4278190080
0.044131 0.034674998 0.05827 4278190080
0.045343 0.034674998 0.056552 4278190080
-0.0054385001 0.034674998 0.059673 4278190080
-0.0034854 0.035983998 0.060222998 4278190080
-0.0050336998 0.034674998 0.060222998 4278190080
0.043299001 0.034674998 0.060222998 4278190080
0.043389998 0.034674998 0.059983999 4278190080
-0.0034854 0.034931 0.062176 4278190080
-0.0038455001 0.034674998 0.062176 4278190080
-0.0015323 0.036192 0.062176 4278190080
0.041437 0.035780001 0.062176 4278190080
0.04242 0.034674998 0.062176 4278190080
-0.0034854 0.034674998 0.062642999 4278190080
-0.0022452001 0.034674998 0.064129002 4278190080
-0.0015323 0.035241 0.064129002 4278190080
0.041437 0.034928001 0.064129002 4278190080
0.041653 0.034674998 0.064129002 4278190080
-0.0015323 0.034674998 0.065123998 4278190080
0.00042085 0.035709001 0.066082001 4278190080
-0.0009708 0.034674998 0.066082001 4278190080
0.039483 0.035967998 0.066082001 4278190080
0.040987 0.034674998 0.066082001 4278190080
0.041437 0.034674998 0.064865999 4278190080
0.00042085 0.034731999 0.068034999 4278190080
0.00032906001 0.034674998 0.068034999 4278190080
0.0023739999 0.036086999 0.068034999 4278190080
0.039483 0.035234001 0.068034999 4278190080
0.040100999 0.034674998 0.068034999 4278190080
0.00042085 0.034674998 0.068161003 4278190080
0.0016590999 0.034674998 0.069987997 4278190080
0.0023739999 0.035183001 0.069987997 4278190080
0.0043270998 0.036467999 0.069987997 4278190080
0.037530001 0.035873 0.069987997 4278190080
0.039104 0.034674998 0.069987997 4278190080
0.039483 0.034674998 0.069316 4278190080
0.0023739999 0.034674998 0.070791997 4278190080
0.0032736999 0.034674998 0.071942002 4278190080
0.0043270998 0.035519 0.071942002 4278190080
0.035576999 0.036533002 0.071942002 4278190080
0.037530001 0.034775998 0.071942002 4278190080
0.037641 0.034674998 0.071942002 4278190080
0.0043270998 0.034674998 0.073775001 4278190080
0.0062802001 0.036120001 0.073895 4278190080
0.0044046999 0.034674998 0.073895 4278190080
0.035576999 0.03537 0.073895 4278190080
0.036269002 0.034674998 0.073895 4278190080
0.037530001 0.034674998 0.072104 4278190080
0.0062802001 0.035022002 0.075847998 4278190080
0.0057947999 0.034674998 0.075847998 4278190080
0.0082333004 0.036214001 0.075847998 4278190080
0.033624001 0.036162 0.075847998 4278190080
0.03545 0.034674998 0.075847998 4278190080
0.035576999 0.034674998 0.075485997 4278190080
0.0062802001 0.034674998 0.076466002 4278190080
0.0071911998 0.034674998 0.077800997 4278190080
0.0082333004 0.035436001 0.077800997 4278190080
0.033624001 0.035502002 0.077800997 4278190080
0.034348 0.034674998 0.077800997 4278190080
0.0082333004 0.034674998 0.079674996 4278190080
0.010186 0.035836 0.079754002 4278190080
0.0082909996 0.034674998 0.079754002 4278190080
0.031670999 0.036144 0.079754002 4278190080
0.033422001 0.034674998 0.079754002 4278190080
0.033624001 0.034674998 0.079332002 4278190080
0.010186 0.035025001 0.081707001 4278190080
0.0097217998 0.034674998 0.081707001 4278190080
0.01214 0.036148001 0.081707001 4278190080
0.031670999 0.035195999 0.081707001 4278190080
0.032251999 0.034674998 0.081707001 4278190080
0.010186 0.034674998 0.082445003 4278190080
0.011053 0.034674998 0.083659999 4278190080
0.01214 0.035395 0.083659999 4278190080
0.014093 0.036171 0.083659999 4278190080
0.029718 0.035843998 0.083659999 4278190080
0.03104 0.034674998 0.083659999 4278190080
0.031670999 0.034674998 0.082644001 4278190080
0.01214 0.034674998 0.084982 4278190080
0.012561 0.034674998 0.085612997 4278190080
0.014093 0.035767999 0.085612997 4278190080
0.016046001 0.036513999 0.085612997 4278190080
0.029524 0.034674998 0.085612997 4278190080
0.029718 0.034674998 0.085265003 4278190080
0.014093 0.034674998 0.087200999 4278190080
0.014399 0.034674998 0.087567002 4278190080
0.016046001 0.035925999 0.087567002 4278190080
0.027765 0.035647999 0.087567002 4278190080
0.028774999 0.034674998 0.087567002 4278190080
0.016046001 0.034892 0.08952 4278190080
0.015804 0.034674998 0.08952 4278190080
0.017999001 0.036056999 0.08952 4278190080
0.025812 0.036343001 0.08952 4278190080
0.027752001 0.034674998 0.08952 4278190080
0.027765 0.034674998 0.089505002 4278190080
0.016046001 0.034674998 0.089796998 4278190080
0.01754 0.034674998 0.091472998 4278190080
0.017999001 0.035069998 0.091472998 4278190080
0.019951999 0.035849001 0.091472998 4278190080
0.021904999 0.036297999 0.091472998 4278190080
0.023858 0.036183 0.091472998 4278190080
0.025812 0.035129 0.091472998 4278190080
0.026388001 0.034674998 0.091472998 4278190080
0.017999001 0.034674998 0.092165001 4278190080
0.019888001 0.034674998 0.093425997 4278190080
0.019951999 0.034705002 0.093425997 4278190080
0.021904999 0.035512 0.093425997 4278190080
0.023858 0.034836002 0.093425997 4278190080
0.024139 0.034674998 0.093425997 4278190080
0.025812 0.034674998 0.092113003 4278190080
0.019951999 0.034674998 0.093493998 4278190080
0.021904999 0.034674998 0.094462998 4278190080
0.023858 0.034674998 0.093731999 4278190080
-0.22419 0.032864001 -0.074542999 4278190080
-0.22419 0.032722 -0.074616 4278190080
-0.22427 0.032722 -0.074542999 4278190080
-0.22404 0.032722 -0.074542999 4278190080
-0.22028001 0.032802999 -0.074542999 4278190080
-0.22028001 0.032722 -0.074624002 4278190080
-0.22044 0.032722 -0.074542999 4278190080
-0.2202 0.032722 -0.074542999 4278190080
-0.24567001 0.033397 -0.072590001 4278190080
-0.24567001 0.032722 -0.073062003 4278190080
-0.24722999 0.032722 -0.072590001 4278190080
-0.24372 0.033309001 -0.072590001 4278190080
-0.24372 0.032722 -0.073019996 4278190080
-0.24252 0.032722 -0.072590001 4278190080
-0.23395 0.032752998 -0.072590001 4278190080
-0.23395 0.032722 -0.072619997 4278190080
-0.23434 0.032722 -0.072590001 4278190080
-0.23382001 0.032722 -0.072590001 4278190080
-0.23005 0.033335 -0.072590001 4278190080
-0.23005 0.032722 -0.073028997 4278190080
-0.23094 0.032722 -0.072590001 4278190080
-0.22809 0.033721 -0.072590001 4278190080
-0.22809 0.032722 -0.073147997 4278190080
-0.22614001 0.032878999 -0.072590001 4278190080
-0.22614001 0.032722 -0.072650999 4278190080
-0.22419 0.033268999 -0.072590001 4278190080
-0.22223 0.032722 -0.073403001 4278190080
-0.22223 0.033592001 -0.072590001 4278190080
-0.21833 0.033829 -0.072590001 4278190080
-0.21833 0.032722 -0.073154002 4278190080
-0.21638 0.033282999 -0.072590001 4278190080
-0.21638 0.032722 -0.072829999 4278190080
-0.21613 0.032722 -0.072590001 4278190080
-0.21247 0.032946002 -0.072590001 4278190080
-0.21247 0.032722 -0.072809003 4278190080
-0.21269999 0.032722 -0.072590001 4278190080
-0.21196 0.032722 -0.072590001 4278190080
-0.16949999 0.033535 -0.072590001 4278190080
-0.16949999 0.032722 -0.073403001 4278190080
-0.17031001 0.032722 -0.072590001 4278190080
-0.16869 0.032722 -0.072590001 4278190080
-0.16559 0.033534002 -0.072590001 4278190080
-0.16559 0.032722 -0.073402002 4278190080
