# .PCD v0.7 - Point Cloud Data file format
VERSION 0.7
FIELDS x y z rgba
SIZE 4 4 4 4
TYPE F F F U
COUNT 1 1 1 1
WIDTH 1255
HEIGHT 1
VIEWPOINT 0 0 0 1 0 0 0
POINTS 1255
DATA ascii
0.010679483 0.13932343 -0.034737621 0
0.013630033 0.13934034 -0.03518077 0
0.016378079 0.13938691 -0.035266079 0
0.019359585 0.1393104 -0.035362083 0
0.022574963 0.1394116 -0.035253033 0
0.025625609 0.13927418 -0.035041675 0
0.028511008 0.13935977 -0.034998599 0
0.031446211 0.13906677 -0.034904674 0
0.034398455 0.13964029 -0.034956381 0
0.037249271 0.13964029 -0.034771286 0
0.040750001 0.13988607 -0.034358565 0
0.043729071 0.13978671 -0.033910289 0
0.046812072 0.13927659 -0.033225365 0
0.048126999 0.13812999 -0.033101998 0
0.0074276221 0.14226036 -0.0334065 0
0.010531268 0.14276937 -0.034109842 0
0.013142272 0.14246818 -0.034807418 0
0.016638029 0.14245231 -0.035125203 0
0.019344402 0.14268649 -0.035379246 0
0.022690941 0.14212187 -0.035321604 0
0.025779501 0.142603 -0.035551351 0
0.028593784 0.14235608 -0.035272524 0
0.031299207 0.14241736 -0.035202201 0
0.034554154 0.1423624 -0.034977227 0
0.037122529 0.14269064 -0.034348268 0
0.040767152 0.14261 -0.034103088 0
0.043259706 0.14226998 -0.033391107 0
0.045474 0.14136 -0.033188 0
0.0087519996 0.14408 -0.033087 0
0.010904609 0.14474608 -0.033280566 0
0.013425277 0.14541179 -0.033874262 0
0.016448783 0.14530724 -0.034399725 0
0.019214375 0.1456683 -0.034905028 0
0.022399573 0.14535306 -0.03513369 0
0.025654089 0.1452129 -0.035177454 0
0.02836604 0.14537533 -0.035255171 0
0.031502526 0.14560556 -0.034996603 0
0.034691919 0.14553916 -0.034593809 0
0.037543185 0.14555515 -0.034001373 0
0.040128395 0.14509498 -0.033501968 0
0.042177003 0.14435333 -0.033142667 0
0.013936601 0.14751802 -0.033262696 0
0.016705031 0.14808558 -0.033558264 0
0.019440142 0.14852573 -0.033815477 0
0.022256294 0.1484676 -0.034024272 0
0.025709266 0.14869055 -0.034237079 0
0.02862924 0.14859833 -0.034329478 0
0.031363335 0.14851199 -0.034161564 0
0.034465112 0.14878276 -0.033628862 0
0.037016477 0.14797619 -0.033475794 0
0.019777 0.15002 -0.033131 0
0.023098899 0.15029602 -0.033312101 0
0.025638951 0.15031633 -0.03333953 0
0.028977001 0.15013286 -0.033244144 0
0.031790439 0.15017501 -0.033415563 0
0.033424199 0.150052 -0.033170801 0
0.044464059 0.062816955 -0.031698402 0
0.046666164 0.062192116 -0.031508006 0
0.049350664 0.061673839 -0.031113779 0
0.052089367 0.061985187 -0.030466583 0
0.025867412 0.065337494 -0.030362897 0
0.028361093 0.065275632 -0.030338082 0
0.031191606 0.065320544 -0.030254131 0
0.034968033 0.065661006 -0.030981358 0
0.03741952 0.065414585 -0.031313401 0
0.040463477 0.064234763 -0.031705327 0
0.042857915 0.063376874 -0.031862412 0
0.050020814 0.064026475 -0.032413259 0
0.052002132 0.064309999 -0.030975362 0
-0.019189393 0.06752988 -0.031412989 0
0.020607499 0.068475001 -0.0300225 0
0.022792092 0.067521214 -0.030645007 0
0.025774203 0.067574382 -0.031613272 0
0.028445559 0.067282185 -0.031897858 0
0.03150386 0.066758983 -0.031704042 0
0.034342218 0.066304527 -0.031441264 0
0.049922392 0.067632802 -0.031781431 0
0.051663153 0.066602848 -0.030501369 0
-0.018251831 0.070066191 -0.031382691 0
-0.017825918 0.071508333 -0.030825164 0
0.020474 0.070208296 -0.030619236 0
0.022502271 0.070603937 -0.031871151 0
0.025035026 0.069730997 -0.032616083 0
0.046874739 0.071012162 -0.031379752 0
0.048589513 0.069477007 -0.031033034 0
-0.018049499 0.072788998 -0.032803003 0
-0.01733955 0.073737167 -0.031040255 0
0.017696001 0.074425198 -0.030049199 0
0.019613395 0.07361678 -0.031117495 0
0.021865848 0.073352568 -0.03252079 0
0.041416604 0.074066728 -0.03277047 0
0.04381606 0.073465057 -0.032028653 0
0.04603773 0.073313482 -0.03076799 0
-0.01802225 0.077842996 -0.032856502 0
-0.016623404 0.076656632 -0.030983601 0
0.017580615 0.076875381 -0.030310921 0
0.019485882 0.076624773 -0.03152312 0
0.021961737 0.076374248 -0.032752033 0
0.041734003 0.075127505 -0.032859001 0
0.044091035 0.076063521 -0.032558892 0
0.046696991 0.076122336 -0.031053435 0
-0.018128077 0.079676546 -0.032546621 0
-0.016753035 0.079468764 -0.031529974 0
-0.013758435 0.079894282 -0.030469434 0
-0.011373 0.080605999 -0.030037001 0
0.017406717 0.079306185 -0.03043695 0
0.019099658 0.079628691 -0.031646397 0
0.021170201 0.079312399 -0.032801401 0
0.044830799 0.079324998 -0.0327802 0
0.046632197 0.07983274 -0.031201554 0
-0.018420849 0.082277365 -0.032405578 0
-0.016642753 0.082465 -0.031786222 0
-0.013322223 0.082467549 -0.03095405 0
-0.01071168 0.082723804 -0.030416604 0
-0.0089229997 0.083875 -0.030231001 0
0.017575299 0.081733398 -0.030240202 0
0.019365001 0.08242137 -0.031522125 0
0.021349333 0.082985409 -0.032695867 0
0.044728771 0.082805224 -0.032366939 0
0.045972221 0.082337029 -0.031100463 0
-0.019007955 0.085620984 -0.032215875 0
-0.016257782 0.085378185 -0.031858217 0
-0.01323389 0.085350327 -0.031664297 0
-0.010240351 0.085349448 -0.0311276 0
-0.0079932921 0.085659616 -0.030456105 0
0.017814334 0.084458336 -0.030161334 0
0.019373594 0.085370146 -0.031246377 0
0.021539934 0.085595757 -0.03259756 0
0.04415806 0.085734747 -0.031766798 0
0.045336112 0.084657446 -0.030778889 0
-0.019225033 0.088207021 -0.03230213 0
-0.01616288 0.088744164 -0.032431915 0
-0.0135127 0.088488325 -0.032276548 0
-0.01037239 0.088325724 -0.031672541 0
-0.0073336777 0.088551924 -0.031138569 0
-0.0051258854 0.08888863 -0.030297074 0
0.019649435 0.088343866 -0.030843297 0
0.022083616 0.088840924 -0.032389209 0
0.040592544 0.088941298 -0.032411437 0
0.043067332 0.088191211 -0.031072041 0
-0.019652836 0.091752701 -0.032326151 0
-0.016519301 0.091697179 -0.032358952 0
-0.013243096 0.09167593 -0.032533687 0
-0.010802923 0.091635555 -0.032290448 0
-0.0072604199 0.091669612 -0.032108832 0
-0.0044271504 0.091491356 -0.03095861 0
-0.0027435001 0.092621908 -0.030347899 0
0.020292273 0.091022596 -0.03059509 0
0.022528064 0.091568738 -0.031844269 0
0.024443667 0.092427664 -0.032824665 0
0.041005291 0.091115296 -0.032151457 0
0.043398093 0.091617279 -0.030627489 0
-0.019591436 0.094240367 -0.031698748 0
-0.016749999 0.094303757 -0.032326002 0
-0.014025287 0.093731947 -0.032849502 0
-0.010831577 0.094424643 -0.032833882 0
-0.0074461871 0.094702572 -0.032623582 0
-0.0045136199 0.094501086 -0.031712197 0
-0.0022449053 0.0947873 -0.030865002 0
0.020833334 0.093311332 -0.030030668 0
0.022684503 0.094489992 -0.030882595 0
0.024985043 0.094612621 -0.032386206 0
0.041827004 0.094141662 -0.032698002 0
0.043492403 0.094461091 -0.031688966 0
0.045405861 0.095419012 -0.030682143 0
-0.019482804 0.09755715 -0.031465527 0
-0.016362004 0.09788651 -0.03222831 0
-0.014306202 0.09833727 -0.032829668 0
-0.0104105 0.096387506 -0.032968748 0
-0.0067270547 0.096320003 -0.032857276 0
-0.0045829182 0.097419105 -0.032630857 0
-0.0014473021 0.097467661 -0.031538554 0
0.00055557635 0.098161429 -0.030333661 0
0.02364159 0.096834354 -0.030462587 0
0.025543513 0.097639591 -0.031486727 0
0.027703738 0.098019898 -0.032644734 0
0.044282325 0.097176626 -0.032306604 0
0.046357494 0.097842224 -0.031194841 0
0.048229802 0.098703802 -0.030183399 0
-0.019319635 0.10038838 -0.030861139 0
-0.016473299 0.10023435 -0.031945851 0
-0.014610999 0.10041863 -0.032804549 0
-0.0011522028 0.10015993 -0.032378029 0
0.0012807113 0.10058971 -0.030936807 0
0.025990391 0.10009451 -0.030495904 0
0.028567828 0.10067721 -0.032016471 0
0.030292667 0.10143166 -0.032820337 0
0.044759251 0.10019437 -0.032801874 0
0.046567827 0.10034318 -0.031929564 0
0.04882931 0.10073227 -0.030536171 0
-0.018850164 0.1035642 -0.030452609 0
-0.016526559 0.10378908 -0.031737044 0
-0.014398046 0.10411772 -0.032734912 0
-0.00056091079 0.10280461 -0.032649387 0
0.0018821753 0.10341996 -0.03166246 0
0.0034261402 0.103822 -0.030601537 0
0.026905 0.10208 -0.030037001 0
0.028916804 0.10334557 -0.030876067 0
0.031283904 0.10381003 -0.032284476 0
0.047153428 0.10302386 -0.032573845 0
0.049577642 0.10365215 -0.031269833 0
0.051223602 0.10452401 -0.0301062 0
-0.018198166 0.10537167 -0.030247999 0
-0.01640139 0.10659752 -0.031095751 0
-0.013963459 0.10657167 -0.032605872 0
0.0024068828 0.1062974 -0.032511301 0
0.0041671037 0.10655813 -0.031134589 0
0.029762778 0.10558 -0.030254556 0
0.031421818 0.10639565 -0.031052385 0
0.03412433 0.1070896 -0.032415371 0
0.047777001 0.10733 -0.032991 0
0.049853496 0.10647806 -0.031980142 0
0.05197696 0.10658249 -0.030706732 0
-0.016115487 0.1091531 -0.030692028 0
-0.01385636 0.10951725 -0.032041498 0
-0.011361764 0.11000118 -0.032788411 0
0.0028398 0.1088075 -0.032826003 0
0.0047909482 0.10954276 -0.031684913 0
0.0065011098 0.10990617 -0.030504979 0
0.032189228 0.10862 -0.030367279 0
0.034350269 0.10942796 -0.031548634 0
0.036383465 0.11023533 -0.032657936 0
0.050005663 0.10906924 -0.032507341 0
0.052416921 0.10952821 -0.031223515 0
0.054163873 0.11041626 -0.030219125 0
-0.015419084 0.11213084 -0.030236585 0
-0.013420669 0.11259887 -0.031606127 0
-0.011234182 0.1122614 -0.032472681 0
0.0053230757 0.11186852 -0.032557752 0
0.0074429028 0.112734 -0.031308912 0
0.0092770001 0.11398 -0.030145001 0
0.034814022 0.11228145 -0.030772571 0
0.03703998 0.1124772 -0.032325082 0
0.050687619 0.1123575 -0.032822251 0
0.052477252 0.11242206 -0.031910881 0
0.054765444 0.1129836 -0.030516928 0
-0.015036 0.11433 -0.030037001 0
-0.013230592 0.11541446 -0.03085026 0
-0.010752348 0.1158541 -0.032230906 0
-0.0085730003 0.11677 -0.032961 0
0.008277284 0.11524402 -0.031909969 0
0.0097831106 0.11583676 -0.030761242 0
0.035277992 0.11543896 -0.030279523 0
0.037342422 0.11529515 -0.031776831 0
0.039027002 0.1159475 -0.032788001 0
0.050227001 0.11468 -0.032977 0
0.052593317 0.1153344 -0.032374442 0
0.054979861 0.1154886 -0.030939119 0
-0.012439888 0.11797113 -0.030279441 0
-0.010431295 0.11829854 -0.031779692 0
-0.0086349929 0.11844617 -0.032763619 0
0.0085626449 0.11788546 -0.032787729 0
0.010752637 0.11863993 -0.031545091 0
0.012491117 0.11942883 -0.030327825 0
0.035317332 0.11873468 -0.030183535 0
0.037540745 0.11827065 -0.031662151 0
0.039101716 0.11817285 -0.032756574 0
0.052994661 0.11838143 -0.032478113 0
0.055521499 0.11865439 -0.031037837 0
0.0571815 0.11975 -0.030025002 0
-0.01210375 0.12090001 -0.030041251 0
-0.01050152 0.12152517 -0.031098893 0
-0.0077889906 0.12175348 -0.032385804 0
0.011373547 0.12115137 -0.032453999 0
0.013637714 0.12167801 -0.030917844 0
0.015227 0.1225175 -0.03024275 0
0.035571314 0.12148273 -0.030475274 0
0.037631642 0.12176291 -0.031757317 0
0.039027005 0.12144001 -0.032754835 0
0.053009659 0.12161814 -0.032612372 0
0.055486459 0.12163065 -0.03109177 0
0.057266288 0.12104858 -0.030035574 0
-0.0098593002 0.1242492 -0.030452957 0
-0.007730254 0.12442739 -0.031752411 0
-0.0055573997 0.12477563 -0.03281806 0
0.014186124 0.12414848 -0.032284822 0
0.016313756 0.12457566 -0.031035237 0
0.018085167 0.12569501 -0.030499166 0
0.034894936 0.12464041 -0.03033888 0
0.037355851 0.12431619 -0.031859484 0
0.039202001 0.12342 -0.032847501 0
0.053336345 0.1242687 -0.032606393 0
0.055388518 0.12463509 -0.031278756 0
0.057275131 0.12494 -0.030134 0
-0.0092730001 0.12622 -0.030144 0
-0.0076032379 0.12742837 -0.030999716 0
-0.0047010342 0.12754308 -0.032451503 0
-0.0029730001 0.12797999 -0.032933 0
0.016541218 0.1267684 -0.032433726 0
0.019365042 0.12747294 -0.031304054 0
0.021524196 0.12805267 -0.030609999 0
0.032334998 0.12867001 -0.030037001 0
0.034552354 0.12737587 -0.030820007 0
0.037096493 0.12725036 -0.032511711 0
0.053121418 0.12759316 -0.032571841 0
0.055486344 0.12746564 -0.03115721 0
0.057197403 0.127408 -0.030082202 0
-0.0066990322 0.1304339 -0.030626496 0
-0.004696996 0.130575 -0.0318878 0
-0.0028337375 0.131025 -0.032827001 0
0.019877542 0.12954666 -0.032667749 0
0.022704549 0.13003333 -0.031816386 0
0.025483023 0.13041478 -0.031391509 0
0.028309202 0.13078028 -0.031353489 0
0.031729344 0.13038705 -0.031317305 0
0.034322798 0.13034527 -0.032292303 0
0.0362828 0.12936801 -0.032868002 0
0.052813813 0.130252 -0.032483004 0
0.055302117 0.1304182 -0.030969514 0
-0.0061993254 0.13244501 -0.030042751 0
-0.0043439586 0.13320558 -0.03102709 0
-0.0023122733 0.13390118 -0.032135379 0
0.025966 0.13234502 -0.032858171 0
0.028362067 0.13248132 -0.032613937 0
0.031344399 0.13236001 -0.032751203 0
0.033558834 0.13221502 -0.032873001 0
0.050379898 0.13378549 -0.032664951 0
0.052739762 0.13379309 -0.031822842 0
0.054838281 0.13336128 -0.030589402 0
-0.0035264941 0.13620056 -0.030342057 0
-0.0015649742 0.13670124 -0.031531982 0
0.00069808308 0.13676268 -0.032706421 0
0.049943309 0.13687953 -0.032499697 0
0.052725717 0.13680713 -0.03122602 0
0.054309472 0.13674538 -0.030173 0
-0.00097768777 0.13899258 -0.03056933 0
0.0015240061 0.13929914 -0.031935055 0
0.0036122717 0.1400457 -0.032757856 0
0.047615767 0.13998078 -0.032833155 0
0.049393963 0.13940141 -0.032021292 0
0.05231807 0.13930553 -0.030582942 0
0.002174716 0.14239404 -0.030940462 0
0.0045469585 0.1426639 -0.032100767 0
0.0065825805 0.14330551 -0.032704644 0
0.044557001 0.14347 -0.032707799 0
0.047111239 0.14264119 -0.032385793 0
0.049281284 0.14246085 -0.031012198 0
0.051542126 0.14179499 -0.030259 0
0.0029770001 0.14411999 -0.030387999 0
0.0048274407 0.14488712 -0.030652313 0
0.0072579482 0.14572713 -0.031301059 0
0.010325611 0.14602685 -0.032521226 0
0.01207275 0.14678749 -0.032876253 0
0.040674135 0.14619291 -0.032776371 0
0.044012964 0.1456871 -0.032211002 0
0.046505339 0.1455707 -0.031109443 0
0.048555665 0.14467666 -0.030431665 0
0.0084536169 0.14780584 -0.030545583 0
0.010738959 0.14826114 -0.031246873 0
0.013184152 0.14857516 -0.032189973 0
0.01617335 0.14943902 -0.032543495 0
0.018027 0.14978001 -0.032837 0
0.035526998 0.14967 -0.032949999 0
0.037633069 0.14896001 -0.032574259 0
0.040518016 0.14858566 -0.031754844 0
0.043567356 0.14826177 -0.030971192 0
0.045704335 0.14772335 -0.030138498 0
0.011736001 0.15001667 -0.030032001 0
0.013786116 0.15063265 -0.030757176 0
0.016619533 0.15142109 -0.031076385 0
0.019529374 0.15164752 -0.031704444 0
0.022301838 0.15155937 -0.032107823 0
0.02609944 0.15178147 -0.032231849 0
0.028419359 0.15162937 -0.032117002 0
0.031486947 0.15186545 -0.032154907 0
0.03463779 0.15159737 -0.031699672 0
0.03727759 0.15107985 -0.031162547 0
0.039845075 0.15081722 -0.030654559 0
0.020127 0.153135 -0.030171249 0
0.022654112 0.15341111 -0.030303445 0
0.025920715 0.15344621 -0.030719528 0
0.028690329 0.15345201 -0.030599067 0
0.031127002 0.15339428 -0.030518286 0
0.034318712 0.15328287 -0.030137287 0
-0.015573001 0.18573001 -0.03005 0
-0.013811502 0.18570216 -0.030067716 0
-0.015564214 0.18695143 -0.030099571 0
-0.013445439 0.18742687 -0.030504096 0
-0.010529395 0.1876983 -0.030856114 0
-0.0078423293 0.18841529 -0.030698594 0
-0.012628001 0.18959306 -0.030393578 0
-0.010518055 0.19050109 -0.030841272 0
-0.0073620998 0.19028158 -0.031606227 0
-0.0047744364 0.19078901 -0.031031359 0
-0.0092730001 0.192 -0.030387999 0
-0.0073962086 0.19261815 -0.03110644 0
-0.0043790322 0.19345798 -0.031323843 0
-0.0026229215 0.19352241 -0.030999459 0
0.049965125 0.059415337 -0.028131165 0
0.052721068 0.058998827 -0.028527914 0
0.055111662 0.058800545 -0.02784914 0
0.023100024 0.062176254 -0.027660703 0
0.025460511 0.06143368 -0.027876524 0
0.028307956 0.061642349 -0.027890788 0
0.031533234 0.061985943 -0.027738875 0
0.034387063 0.062257718 -0.027395999 0
0.037354004 0.062843226 -0.027248777 0
0.039377 0.062875003 -0.027054999 0
0.044040781 0.062381823 -0.028275287 0
0.046647135 0.061058152 -0.028472146 0
0.049362391 0.060271092 -0.029207433 0
0.05298337 0.061052453 -0.029694486 0
0.055369824 0.061484162 -0.02831809 0
0.0200215 0.064841919 -0.02763325 0
0.022358965 0.064370289 -0.028675746 0
0.025404887 0.063920565 -0.029194657 0
0.028475717 0.063832499 -0.029071728 0
0.031284478 0.063726373 -0.028894084 0
0.034796488 0.064304478 -0.029015355 0
0.037329588 0.064488657 -0.028811572 0
0.040366851 0.063962333 -0.028401682 0
0.042452384 0.063307308 -0.02859108 0
0.053408612 0.064746052 -0.029371824 0
0.054778725 0.064454809 -0.027914561 0
-0.019014264 0.067309402 -0.028256144 0
-0.017423002 0.068318292 -0.027587002 0
0.017291166 0.068322673 -0.027423833 0
0.019252464 0.067277253 -0.028491203 0
0.02172181 0.066353254 -0.029612498 0
0.050523564 0.068713143 -0.02875719 0
0.052417379 0.067182779 -0.028485058 0
0.054158002 0.066024996 -0.027412001 0
-0.018103363 0.069717094 -0.029386908 0
-0.016573334 0.070551746 -0.028326321 0
-0.014273763 0.071354099 -0.02735962 0
0.016990958 0.070985071 -0.028153315 0
0.018521816 0.07030081 -0.029355656 0
0.04756825 0.071375124 -0.02950931 0
0.049305569 0.070230566 -0.028517451 0
-0.016004544 0.073508851 -0.02926996 0
-0.013609801 0.07352753 -0.028114468 0
-0.011682 0.074432805 -0.0271862 0
0.01644793 0.073229685 -0.028393101 0
0.018027 0.072674997 -0.029857 0
0.047627196 0.073222667 -0.029524002 0
0.049547918 0.073778711 -0.028169705 0
-0.015394866 0.075752191 -0.0297148 0
-0.013297925 0.076197967 -0.028980231 0
-0.010852559 0.076806709 -0.028006006 0
-0.0089229997 0.077749997 -0.027231999 0
0.016131708 0.076456614 -0.028497165 0
0.0478395 0.075300001 -0.029809501 0
0.049212441 0.076498002 -0.028481087 0
-0.012710601 0.078833707 -0.029791599 0
-0.010185342 0.079445079 -0.028985638 0
-0.0082088988 0.079728588 -0.027855078 0
0.016192146 0.079601184 -0.028748998 0
0.047823168 0.080603004 -0.029652003 0
0.048707921 0.079353906 -0.028330116 0
-0.009742694 0.081474267 -0.029583201 0
-0.0071816165 0.082343794 -0.028511526 0
-0.0052621104 0.083025396 -0.027519548 0
0.016542319 0.082349762 -0.02862777 0
0.04716856 0.082578287 -0.028855514 0
0.048149504 0.081239253 -0.028112499 0
-0.0066709528 0.08490786 -0.029579811 0
-0.0047941329 0.085427657 -0.02841866 0
-0.0028219749 0.086500004 -0.027252249 0
0.01710513 0.085612327 -0.028605878 0
0.01803025 0.086403251 -0.029639501 0
0.044914752 0.086688496 -0.028790502 0
0.045794345 0.085409254 -0.028396305 0
-0.004037654 0.088106543 -0.0290989 0
-0.0023744141 0.088722929 -0.027944675 0
0.017445676 0.08840131 -0.028005617 0
0.018432224 0.088568121 -0.029537052 0
0.044345412 0.08846201 -0.028631385 0
0.045256402 0.089754999 -0.027307002 0
-0.0033229999 0.090525001 -0.029841 0
-0.0013770616 0.091147833 -0.028319217 0
0.00048057016 0.092301346 -0.027373111 0
0.017733749 0.090769753 -0.027356248 0
0.018976761 0.091415212 -0.028805442 0
0.044545557 0.09080302 -0.029213751 0
0.045867968 0.091698803 -0.028053921 0
-0.00054706709 0.094395071 -0.029223738 0
0.0010698723 0.09461727 -0.027869485 0
0.020248065 0.094244592 -0.0285565 0
0.021531334 0.095235817 -0.029444532 0
0.044977002 0.093324997 -0.029967001 0
0.046941504 0.094609827 -0.028704749 0
0.048408575 0.095120713 -0.027386431 0
0.0019700681 0.097270951 -0.02848343 0
0.0034805003 0.097996108 -0.027272556 0
0.020823499 0.096206255 -0.027505001 0
0.022362765 0.09743394 -0.028592728 0
0.047556601 0.096640609 -0.029429199 0
0.049100846 0.097646751 -0.028271511 0
0.0025307953 0.1000286 -0.02941115 0
0.0038543972 0.10051186 -0.028089562 0
0.023462998 0.099875838 -0.027801305 0
0.024911201 0.10080341 -0.028815947 0
0.050357845 0.10012649 -0.028894337 0
0.051799841 0.10102729 -0.028072931 0
0.0047858921 0.10331925 -0.028626969 0
0.0063895001 0.10435 -0.027318999 0
0.026083017 0.10309592 -0.028223032 0
0.027589256 0.10422216 -0.029015642 0
0.05083729 0.102669 -0.029747501 0
0.052473091 0.10358008 -0.028562827 0
0.054238573 0.10452286 -0.027423285 0
-0.019440457 0.10667648 -0.028641315 0
0.0054904916 0.10570272 -0.029185819 0
0.0067895367 0.10648065 -0.027977468 0
0.028668923 0.1064323 -0.028513934 0
0.030367669 0.10748 -0.029731333 0
0.053121012 0.10588918 -0.029299371 0
0.054717217 0.10654815 -0.028045943 0
-0.018709587 0.10903557 -0.028242819 0
-0.017278364 0.10974367 -0.029343696 0
0.0076753912 0.10938917 -0.0287145 0
0.0093817003 0.11024667 -0.027252667 0
0.029550593 0.10878045 -0.027671134 0
0.031005898 0.10945658 -0.028835721 0
0.055507943 0.10937163 -0.028563038 0
0.057181999 0.11075 -0.027231749 0
-0.0183142 0.11138201 -0.027199401 0
-0.01672373 0.1126541 -0.028540578 0
0.008651291 0.11170401 -0.029072851 0
0.010319204 0.11286768 -0.028094647 0
0.012077 0.11398 -0.027079999 0
0.032061912 0.11265574 -0.028203918 0
0.033414003 0.11299469 -0.029490802 0
0.056145277 0.11191926 -0.029191775 0
0.057565365 0.11271042 -0.027690755 0
-0.015972624 0.11543712 -0.028210273 0
-0.014503736 0.11631632 -0.029424103 0
0.011030599 0.11530174 -0.02891512 0
0.012600325 0.11590371 -0.027814604 0
0.032542001 0.1145925 -0.027666999 0
0.033810191 0.11550285 -0.028896742 0
0.056436282 0.11548612 -0.029497219 0
0.058046672 0.11549865 -0.028064301 0
-0.015335233 0.11811309 -0.027429692 0
-0.013961919 0.11868302 -0.028753188 0
0.011610333 0.11728168 -0.029609833 0
0.013570654 0.11852074 -0.028745875 0
0.015585735 0.11967002 -0.027685866 0
0.033927206 0.11842395 -0.028463025 0
0.056828201 0.117476 -0.029732002 0
0.058479358 0.11865467 -0.028282071 0
-0.012982821 0.12135886 -0.028561993 0
-0.011779999 0.12255 -0.029337499 0
0.014383125 0.12062251 -0.029389501 0
0.016459282 0.12159306 -0.028384808 0
0.018324304 0.12255299 -0.027486399 0
0.032757249 0.122455 -0.027412001 0
0.03412969 0.12152314 -0.028975027 0
0.058522105 0.12141483 -0.028559931 0
-0.012412966 0.12434465 -0.027602002 0
-0.011200974 0.12479527 -0.028957605 0
0.017321846 0.1232877 -0.029188152 0
0.01952211 0.1247413 -0.028640825 0
0.02182436 0.1253482 -0.027540002 0
0.032317668 0.12474369 -0.028069278 0
0.03377616 0.12405039 -0.029447719 0
0.05864656 0.12452476 -0.028399095 0
0.060027 0.12534501 -0.027042501 0
-0.010417361 0.12737417 -0.028344776 0
-0.0086155152 0.12822571 -0.029615004 0
0.020233002 0.12629429 -0.029717002 0
0.02280347 0.12698105 -0.028864026 0
0.025457313 0.12760614 -0.028246004 0
0.028664293 0.12767173 -0.028095571 0
0.031583648 0.12736937 -0.028920865 0
0.033074003 0.126426 -0.029772202 0
0.058581326 0.12760024 -0.028495124 0
-0.0096712997 0.12978607 -0.027666694 0
-0.008225848 0.13086635 -0.028759085 0
0.026430801 0.129034 -0.029703001 0
0.029015999 0.12927465 -0.0296278 0
0.030913556 0.12910444 -0.029712332 0
0.056824602 0.13105801 -0.029904598 0
0.058033962 0.13037345 -0.028643722 0
-0.0071176561 0.13351005 -0.028382411 0
-0.005501979 0.13439998 -0.029536858 0
0.056318454 0.13405642 -0.029204153 0
0.057768147 0.13330117 -0.028130747 0
-0.0064444412 0.13591439 -0.02762112 0
-0.0047278591 0.13675974 -0.028582187 0
-0.0029730001 0.13778 -0.029763 0
0.05593583 0.1368136 -0.028737305 0
0.057210702 0.13645099 -0.027417198 0
-0.0037748974 0.13900718 -0.027903499 0
-0.0020259216 0.14009959 -0.029056188 0
0.053283457 0.14018001 -0.02933291 0
0.055061549 0.13929245 -0.028203623 0
-0.001324572 0.14199314 -0.028116709 0
0.00077278918 0.14297517 -0.029222038 0
0.050453 0.14350717 -0.029798144 0
0.052651476 0.14276448 -0.028671913 0
0.054540418 0.14203209 -0.027576832 0
-0.00015034 0.14405 -0.027237 0
0.0016263734 0.14524041 -0.028106192 0
0.0042661172 0.14631501 -0.029312525 0
0.047593832 0.14666335 -0.02965017 0
0.050029304 0.14578193 -0.028852666 0
0.051634781 0.14488094 -0.027822098 0
0.0029179668 0.14742666 -0.027366167 0
0.0047112806 0.14786117 -0.027967999 0
0.0071901786 0.14871567 -0.028702717 0
0.0097041326 0.14961222 -0.029603668 0
0.044385403 0.149469 -0.0294965 0
0.046796024 0.14871901 -0.02867863 0
0.049236834 0.14779982 -0.027858093 0
0.0081407009 0.1505065 -0.027595147 0
0.010622375 0.15093435 -0.028642053 0
0.012999194 0.1520233 -0.028707562 0
0.016245145 0.15265714 -0.029533859 0
0.037456062 0.15273687 -0.029513748 0
0.040911779 0.15183894 -0.028953273 0
0.043286297 0.1511526 -0.028246563 0
0.045649152 0.15052859 -0.027717927 0
0.014384764 0.15351826 -0.027711116 0
0.016602073 0.15369432 -0.028315216 0
0.019233888 0.15426967 -0.028290911 0
0.022330144 0.15464671 -0.02858844 0
0.02546921 0.15480879 -0.028479291 0
0.028845187 0.15506409 -0.028576635 0
0.031311534 0.15482494 -0.028435597 0
0.03485335 0.15438916 -0.028296469 0
0.037214704 0.15388669 -0.02800543 0
0.040473834 0.15340585 -0.027362082 0
-0.019529827 0.18233916 -0.027766449 0
-0.017451666 0.18277936 -0.027543137 0
-0.019412784 0.18428822 -0.028935686 0
-0.016400117 0.18406919 -0.028835189 0
-0.013500731 0.18480156 -0.028602023 0
-0.011445427 0.18567644 -0.028188109 0
-0.019169984 0.18739676 -0.028399386 0
-0.016787237 0.18807904 -0.029025564 0
-0.0148395 0.188705 -0.029795 0
-0.010119071 0.18662742 -0.028495977 0
-0.0079204859 0.18813138 -0.028678043 0
-0.015850499 0.18934548 -0.028044092 0
-0.013564274 0.19004847 -0.028807124 0
-0.010644312 0.19137667 -0.028167536 0
-0.0073129898 0.19045404 -0.027935205 0
-0.0051087593 0.19068936 -0.029231634 0
-0.0094678374 0.19205375 -0.028978251 0
-0.0073437998 0.19263607 -0.028677946 0
-0.0044829426 0.19311561 -0.02934506 0
-0.0029730001 0.19359499 -0.029808 0
0.026145626 0.056839749 -0.024338625 0
0.028403865 0.056592986 -0.024511965 0
0.031359226 0.056520451 -0.024299281 0
0.0333395 0.056837499 -0.024171751 0
0.052689616 0.056787126 -0.024772001 0
0.055514 0.056358222 -0.025249003 0
0.058358617 0.056247197 -0.024873035 0
0.060188305 0.0566471 -0.0242204 0
0.023213591 0.058889497 -0.024941718 0
0.025444848 0.058195259 -0.025290979 0
0.028551871 0.058388755 -0.02563354 0
0.031577609 0.058383744 -0.025367172 0
0.034523886 0.058440182 -0.02474794 0
0.037019636 0.059205551 -0.024495039 0
0.039120752 0.059765 -0.0240895 0
0.047583997 0.059695501 -0.025400002 0
0.049678061 0.05852212 -0.025551805 0
0.052151803 0.057458725 -0.025835242 0
0.055874381 0.057569873 -0.026642004 0
0.058373027 0.058445133 -0.025807697 0
0.060355715 0.058276854 -0.02431093 0
-0.019715942 0.062039517 -0.024496946 0
0.020076357 0.062153552 -0.025460003 0
0.022290315 0.061044946 -0.02626154 0
0.0245778 0.060122203 -0.026816601 0
0.028029501 0.060075 -0.026942 0
0.03195636 0.060445856 -0.02678079 0
0.034844656 0.060824212 -0.026421197 0
0.03765019 0.06117709 -0.025900003 0
0.040389609 0.061602909 -0.025617016 0
0.043517791 0.061622955 -0.025384855 0
0.04630696 0.060481485 -0.025630405 0
0.056641251 0.062797002 -0.026804749 0
0.058321882 0.061490223 -0.025430905 0
0.060183998 0.060075 -0.024087001 0
-0.019367734 0.064331174 -0.025888612 0
-0.016974309 0.065071136 -0.024826065 0
0.017282614 0.064723045 -0.024889486 0
0.018848168 0.064250149 -0.026240217 0
0.056043833 0.064803094 -0.02580883 0
0.057603341 0.063815512 -0.024651445 0
-0.018288428 0.066269428 -0.026655858 0
-0.016201118 0.067153163 -0.025883717 0
-0.014319344 0.067427978 -0.024514657 0
0.014874999 0.068558 -0.024153749 0
0.016371056 0.067357019 -0.025616748 0
0.052874055 0.068098649 -0.025904814 0
0.054693997 0.066871688 -0.024821619 0
-0.015626 0.069174998 -0.026888 0
-0.013155756 0.070393711 -0.025815301 0
-0.01103221 0.071135737 -0.024420351 0
0.014750236 0.070854232 -0.024864761 0
0.015657999 0.070560142 -0.026214875 0
0.050931856 0.070119292 -0.026902284 0
0.05261419 0.070642844 -0.025478596 0
0.054095503 0.070302099 -0.0240996 0
-0.012313935 0.072621137 -0.026645204 0
-0.010426958 0.073436834 -0.025542123 0
-0.0084389215 0.074243769 -0.024577832 0
0.014409585 0.073062554 -0.024994103 0
0.015396715 0.072779864 -0.026788 0
0.050907999 0.074071005 -0.0269056 0
0.052223828 0.073665634 -0.02524404 0
-0.0096791005 0.076063246 -0.026661502 0
-0.0076545859 0.076672055 -0.025538344 0
-0.0057329126 0.07753475 -0.024336126 0
0.014423624 0.07638599 -0.025441252 0
0.015108 0.076875001 -0.026888 0
0.050532408 0.076818794 -0.025927456 0
0.051392362 0.075491063 -0.025130402 0
-0.006752132 0.079050198 -0.026370702 0
-0.0048934794 0.079764597 -0.025177607 0
0.014399501 0.079605326 -0.025134055 0
0.015159 0.080416009 -0.026654666 0
0.049247649 0.079571217 -0.025488909 0
-0.004244687 0.082239233 -0.026215805 0
-0.0023054515 0.082981035 -0.024784248 0
0.01466677 0.082472466 -0.024733847 0
0.015367923 0.082925543 -0.026242005 0
0.047381438 0.08270666 -0.025536556 0
0.048296444 0.081287675 -0.02576478 0
-0.0035425802 0.084289603 -0.026841199 0
-0.0015843214 0.085585162 -0.025838556 0
0.00018186501 0.086491331 -0.024270836 0
0.014841333 0.08449316 -0.024594501 0
0.015605039 0.085837811 -0.025743762 0
0.045691442 0.085493267 -0.025294177 0
-0.00080129871 0.088007636 -0.026262669 0
0.00056597113 0.08846195 -0.025035711 0
0.016333567 0.088620305 -0.025600631 0
0.044949204 0.088005006 -0.026793798 0
0.0454496 0.088405669 -0.025574084 0
-0.00018031667 0.090184003 -0.026882999 0
0.0014587436 0.091455929 -0.025943859 0
0.0032099667 0.092625007 -0.024204001 0
0.017067211 0.091379307 -0.025193263 0
0.018049669 0.092732005 -0.025859669 0
0.046841986 0.091295265 -0.025647826 0
0.048195999 0.092672199 -0.024577601 0
0.0026384383 0.094343588 -0.026083479 0
0.0037802842 0.095019758 -0.024814282 0
0.017756999 0.093500003 -0.024130002 0
0.018898103 0.094675712 -0.025490386 0
0.04775117 0.093332663 -0.026597999 0
0.049208686 0.094714932 -0.02544919 0
0.0029770001 0.096124999 -0.026829001 0
0.0042559309 0.097551078 -0.026046438 0
0.020149607 0.096862018 -0.025258452 0
0.021560375 0.098259136 -0.026291212 0
0.050315093 0.096800253 -0.025891557 0
0.051748201 0.098136976 -0.025211489 0
0.0053084437 0.10001139 -0.026018346 0
0.0064077727 0.10092601 -0.024771594 0
0.022760166 0.10041527 -0.025588073 0
0.024093 0.10172 -0.026538 0
0.052879259 0.10026319 -0.025415778 0
0.054147001 0.10160001 -0.02437 0
0.0058243666 0.10243001 -0.026788002 0
0.0070511149 0.10343542 -0.025625912 0
0.023903728 0.10244364 -0.025109455 0
0.024987042 0.10358617 -0.025870688 0
0.053573605 0.10248444 -0.026563112 0
0.054850202 0.10346196 -0.025306985 0
0.0081512593 0.10629281 -0.026020808 0
0.0095030423 0.10724573 -0.024505286 0
0.026330315 0.10573471 -0.025131505 0
0.027634939 0.10709202 -0.026078975 0
0.056052744 0.10611854 -0.025823388 0
0.057135001 0.10715 -0.024525 0
0.0088141793 0.108362 -0.026772199 0
0.010451498 0.10965331 -0.025249861 0
0.028790843 0.10946535 -0.025675638 0
0.030135 0.11083 -0.026888 0
0.056623422 0.10834833 -0.026374836 0
0.057920184 0.10943422 -0.025271593 0
-0.019076692 0.11240503 -0.025537344 0
-0.0178075 0.1138 -0.026712999 0
0.011315467 0.11201389 -0.026011221 0
0.012517072 0.11310358 -0.025111506 0
0.029573789 0.11196159 -0.024748314 0
0.030813096 0.11298275 -0.026197884 0
0.058775187 0.11281892 -0.025470147 0
-0.018368781 0.11510298 -0.024998266 0
-0.017175235 0.11587209 -0.025971333 0
0.013828127 0.11552077 -0.025618915 0
0.0152465 0.11677 -0.0241425 0
0.031788688 0.11536749 -0.025855189 0
0.059201352 0.11524099 -0.026250873 0
0.060279049 0.11580422 -0.024460999 0
-0.016592855 0.1183558 -0.025228227 0
0.014487001 0.11733428 -0.026782285 0
0.01632506 0.11877154 -0.025478542 0
0.032359976 0.11833379 -0.025430506 0
0.033094499 0.1192075 -0.026888 0
0.0598136 0.118204 -0.026603801 0
0.060614306 0.11857578 -0.025125673 0
-0.015382461 0.12153924 -0.024859155 0
-0.014542065 0.12192161 -0.02584229 0
0.01743624 0.12072401 -0.025964562 0
0.019127432 0.1219697 -0.025289271 0
0.032057326 0.12166517 -0.025348609 0
0.033082999 0.12031 -0.026888 0
0.060949001 0.12144268 -0.02551304 0
-0.01518125 0.12316251 -0.024085501 0
-0.013720732 0.12437054 -0.025436701 0
0.02021035 0.12342551 -0.026379099 0
0.022557367 0.12446391 -0.025453584 0
0.025402319 0.12548517 -0.025128262 0
0.028890235 0.12520409 -0.025140529 0
0.030951506 0.12439668 -0.025739668 0
0.059779339 0.12377 -0.026922334 0
0.06085572 0.12449425 -0.025766382 0
-0.012519388 0.12754612 -0.025100516 0
-0.011667063 0.12780061 -0.026393 0
0.025752107 0.12644926 -0.026586635 0
0.028215941 0.12628168 -0.026384503 0
0.059700668 0.12809333 -0.026817556 0
0.060643833 0.12756398 -0.025840629 0
-0.012234201 0.129492 -0.024241 0
-0.010812239 0.13047612 -0.025625894 0
0.059479754 0.13049665 -0.026642084 0
0.060813677 0.13044354 -0.025057387 0
-0.0098093376 0.13322769 -0.0248271 0
-0.0084973965 0.13364916 -0.026294213 0
0.05897703 0.13394663 -0.02620223 0
0.060544133 0.13322031 -0.02471138 0
-0.0092730001 0.13501 -0.024087001 0
-0.0072580515 0.13681848 -0.025610216 0
-0.0056563332 0.13767669 -0.026830001 0
0.058781315 0.13675916 -0.025470601 0
0.060059838 0.1357 -0.024167664 0
-0.0064986967 0.13919958 -0.024736239 0
-0.0046260012 0.13990097 -0.026211726 0
0.056337029 0.14012544 -0.026200404 0
0.057966936 0.13898398 -0.02511549 0
-0.0038762384 0.14220828 -0.024910605 0
-0.0020349957 0.14320548 -0.026159793 0
0.053727001 0.14372 -0.026962001 0
0.055954549 0.1423306 -0.025528144 0
0.057368003 0.14154249 -0.024196249 0
-0.0033229999 0.14411999 -0.024087001 0
-0.0011690926 0.14520815 -0.025331259 0
0.00095793314 0.14635824 -0.026408898 0
0.052966438 0.14575471 -0.025698235 0
0.054707069 0.14476553 -0.024837427 0
-0.00016267668 0.14722002 -0.024074337 0
0.0017022375 0.14807977 -0.02520654 0
0.0040196562 0.14899318 -0.026298642 0
0.047777001 0.14969501 -0.026712999 0
0.049657289 0.14886552 -0.025954267 0
0.051951766 0.14796607 -0.024792336 0
0.0029770001 0.15007 -0.024087001 0
0.0049768891 0.15066145 -0.024999361 0
0.0075511672 0.15179054 -0.025421211 0
0.010456661 0.15254715 -0.026441623 0
0.044078812 0.15241879 -0.026213 0
0.046633605 0.15149209 -0.02547683 0
0.048662957 0.1503529 -0.024949463 0
-0.019742316 0.1543137 -0.024932561 0
0.0086540878 0.15334126 -0.0241575 0
0.010782301 0.15397662 -0.024727141 0
0.013572088 0.15481186 -0.025262445 0
0.016406488 0.15551174 -0.025434088 0
0.019397032 0.1556263 -0.025956877 0
0.022125602 0.155698 -0.026766399 0
0.025800113 0.1559411 -0.026580667 0
0.027468 0.155964 -0.026909802 0
0.032025199 0.155644 -0.026865199 0
0.034342583 0.15548085 -0.026652252 0
0.037642479 0.15535873 -0.025975173 0
0.040570233 0.15476872 -0.025381548 0
0.042845085 0.15380697 -0.025219228 0
0.045327 0.153135 -0.024262499 0
0.016745498 0.15628 -0.024161499 0
0.019822624 0.15694539 -0.024487734 0
0.022349456 0.15693492 -0.024651224 0
0.025461646 0.15695225 -0.024945714 0
0.028559836 0.15722613 -0.025008146 0
0.031301279 0.15684274 -0.025216734 0
0.034490004 0.1569467 -0.024628503 0
0.037332434 0.15640642 -0.024428841 0
-0.019930854 0.18156116 -0.025322758 0
-0.017361183 0.18268499 -0.025099682 0
-0.015866427 0.18369205 -0.024858614 0
-0.013547443 0.18496884 -0.025738688 0
-0.011655428 0.18577573 -0.026644571 0
-0.019540127 0.18835646 -0.025237676 0
-0.016693441 0.18881856 -0.024655621 0
-0.013368689 0.18764678 -0.024637539 0
-0.010732679 0.18746492 -0.026226833 0
-0.0089229997 0.18888 -0.026954999 0
-0.016164403 0.18927063 -0.025680099 0
-0.013413143 0.18983009 -0.025741076 0
-0.010653249 0.19024076 -0.026321059 0
-0.0089230007 0.18997002 -0.026882399 0
0.029401999 0.053866997 -0.021288 0
0.031627893 0.053775005 -0.021399889 0
0.033252001 0.053775001 -0.021112502 0
0.060901999 0.0539895 -0.021288 0
0.023215733 0.056581471 -0.022016462 0
0.025488541 0.055973008 -0.022766666 0
0.028410237 0.055103559 -0.022770893 0
0.031633839 0.055050462 -0.022878161 0
0.034604251 0.055371366 -0.022438983 0
0.037543152 0.056329358 -0.022171477 0
0.039669871 0.056669939 -0.021395937 0
0.052446119 0.056246426 -0.022529779 0
0.055395927 0.055219766 -0.022474632 0
0.058446951 0.054710966 -0.022672527 0
0.061392494 0.055308245 -0.022616271 0
0.063337952 0.05552271 -0.021390337 0
0.019994149 0.058869675 -0.022013187 0
0.022104701 0.05779646 -0.022820383 0
0.024676999 0.057034001 -0.023737 0
0.035701998 0.05745 -0.023823 0
0.037614208 0.057760756 -0.023258097 0
0.040453158 0.058529858 -0.022593407 0
0.043336745 0.059155036 -0.021974374 0
0.046633281 0.059394091 -0.022312064 0
0.049609233 0.057915397 -0.022720065 0
0.051277 0.057076 -0.023387499 0
0.061748065 0.058627065 -0.022698347 0
0.063234799 0.057822198 -0.021246402 0
-0.018851804 0.060919009 -0.022978606 0
-0.016641703 0.062171269 -0.022076959 0
0.01730386 0.062283318 -0.022253538 0
0.018634582 0.06107378 -0.02282373 0
0.041227002 0.060119573 -0.023763429 0
0.043778345 0.060352009 -0.023318227 0
0.045636073 0.060174264 -0.023304468 0
0.059471998 0.062429313 -0.023460615 0
0.060925044 0.061335806 -0.02232871 0
-0.016110819 0.06401848 -0.023329539 0
-0.013845522 0.064952828 -0.022023797 0
0.014823888 0.065292001 -0.021455888 0
0.015974758 0.064348407 -0.02256424 0
0.056876998 0.065569997 -0.023444001 0
0.058555812 0.064491265 -0.022283785 0
0.060202003 0.063486993 -0.021288 0
-0.013088382 0.067300119 -0.023314923 0
-0.010982546 0.067995131 -0.021872122 0
0.014400342 0.067712784 -0.022484565 0
0.015352365 0.066580094 -0.023457363 0
0.055922017 0.067298979 -0.022868784 0
0.057316445 0.066817448 -0.02148 0
-0.010141581 0.070067666 -0.022851996 0
-0.0085343076 0.071223907 -0.021951878 0
0.013607639 0.070295252 -0.022405192 0
0.053957999 0.071975 -0.023737 0
0.055128843 0.0705401 -0.022535117 0
-0.0092639998 0.072314337 -0.023746334 0
-0.0073766494 0.073635228 -0.022764675 0
-0.0056952331 0.074610494 -0.021437835 0
0.013255819 0.073343173 -0.022390729 0
0.053063251 0.073692776 -0.02276483 0
0.054327004 0.072339542 -0.022226002 0
-0.0062305923 0.075496458 -0.023214234 0
-0.0046772142 0.076796897 -0.022298655 0
0.013246647 0.077072337 -0.02243159 0
0.050342083 0.077402383 -0.022163695 0
0.051712558 0.075463519 -0.022556162 0
-0.0040421053 0.07880605 -0.023287898 0
-0.0024727413 0.080258138 -0.022384821 0
0.013474187 0.079691306 -0.0224905 0
0.047822602 0.080687001 -0.021787401 0
0.048977066 0.079362139 -0.022683814 0
-0.001127323 0.082573339 -0.022533331 0
0.00017701001 0.083924003 -0.021288 0
0.013782749 0.082265697 -0.022405427 0
0.046668932 0.082637563 -0.022426426 0
0.048126999 0.081074998 -0.023902001 0
-0.00046449399 0.084587008 -0.023390431 0
0.00063643989 0.085562855 -0.022241183 0
0.014386452 0.085558511 -0.022693373 0
0.045407202 0.085161813 -0.022686433 0
0.0019866289 0.08812765 -0.022245446 0
0.0030805001 0.089842997 -0.021574 0
0.014713783 0.087814137 -0.021784108 0
0.0152949 0.088504344 -0.022843102 0
0.046085689 0.088249177 -0.022607809 0
0.0029308505 0.091176607 -0.023382602 0
0.0036757856 0.091997288 -0.022720942 0
0.016328575 0.09180817 -0.022536736 0
0.04740791 0.090720244 -0.022889959 0
0.048446272 0.092114471 -0.022401093 0
0.0047808001 0.094660111 -0.02277524 0
0.017453417 0.094180077 -0.02207917 0
0.01834639 0.095513843 -0.022728836 0
0.049443815 0.093927875 -0.022809234 0
0.051058501 0.095775001 -0.0214625 0
0.0053535285 0.096428148 -0.023040144 0
0.0064165918 0.097940326 -0.022323415 0
0.019429894 0.097287357 -0.02246106 0
0.050926998 0.096280001 -0.023737 0
0.052373029 0.097832218 -0.022701776 0
0.0073311231 0.10077648 -0.022754904 0
0.020856 0.099506751 -0.02216275 0
0.02172914 0.10065699 -0.022274429 0
0.053627245 0.099660747 -0.022643875 0
0.054478295 0.10083514 -0.021987479 0
0.0083630709 0.10309165 -0.022667624 0
0.0093785133 0.10450067 -0.02203027 0
0.023510972 0.10342774 -0.022308707 0
0.024351826 0.10448435 -0.022812784 0
0.056129377 0.10387036 -0.02265124 0
0.057046998 0.10487 -0.021288 0
0.010020475 0.10666263 -0.022520047 0
0.025699386 0.10642298 -0.022400809 0
0.056876101 0.10548901 -0.023112601 0
0.057615966 0.10675168 -0.022822 0
0.011178536 0.10893733 -0.022746818 0
0.012077 0.11048 -0.021762 0
0.0268094 0.10839601 -0.0220604 0
0.027799301 0.1097303 -0.022872379 0
0.058911581 0.10930156 -0.022828026 0
0.012961631 0.11256244 -0.02267945 0
0.028880101 0.11234906 -0.022394808 0
0.0300695 0.1138 -0.023561999 0
0.059621222 0.11191223 -0.02321011 0
0.060445111 0.11305944 -0.022275882 0
-0.019699182 0.11537621 -0.022207284 0
0.014621118 0.11531521 -0.02292496 0
0.015324526 0.11636054 -0.022597577 0
0.029773779 0.11460111 -0.021499002 0
0.030575858 0.11533336 -0.022849714 0
0.061017647 0.11549932 -0.022612749 0
-0.018524002 0.11837606 -0.022180483 0
-0.017432099 0.11922351 -0.023387354 0
0.016981967 0.11848901 -0.02308855 0
0.0182255 0.11988501 -0.021364499 0
0.031262249 0.11817578 -0.022543458 0
0.061779972 0.11844262 -0.02238841 0
-0.016774621 0.12143613 -0.022505764 0
0.017887002 0.12012666 -0.023700332 0
0.019256262 0.12114529 -0.022654064 0
0.021626461 0.12277769 -0.022399232 0
0.029927 0.12273 -0.021137999 0
0.030880542 0.12166567 -0.022367973 0
0.062261436 0.12102287 -0.022703333 0
0.063115001 0.12185 -0.021239001 0
-0.015921533 0.12430356 -0.022012115 0
-0.014612666 0.12521112 -0.023312001 0
0.022942096 0.12358898 -0.022610102 0
0.025515834 0.12445091 -0.022557719 0
0.028664012 0.12401649 -0.022560585 0
0.030403668 0.12327611 -0.023309944 0
0.062402695 0.12440692 -0.022628501 0
0.063189 0.12546167 -0.021504 0
-0.015391249 0.12673751 -0.021285251 0
-0.014060655 0.12763657 -0.022683719 0
0.062304102 0.12778142 -0.022893287 0
0.063192569 0.12735572 -0.021732429 0
-0.013078307 0.1305158 -0.022415351 0
-0.011689 0.13153999 -0.0233874 0
0.062231757 0.13055363 -0.022464253 0
0.06321238 0.13047124 -0.021252252 0
-0.013047683 0.13320941 -0.021541832 0
-0.011111252 0.13399026 -0.022759093 0
0.061727751 0.13383546 -0.022533493 0
0.063176997 0.13252001 -0.021095499 0
-0.012189667 0.13538668 -0.021159334 0
-0.010275156 0.13628143 -0.022501152 0
-0.008666141 0.13701044 -0.023499319 0
0.059838001 0.137605 -0.023737 0
0.06115691 0.13668171 -0.022405965 0
-0.010035432 0.13943368 -0.021926478 0
-0.0079846149 0.13951296 -0.022880247 0
0.059215933 0.13978586 -0.023106746 0
0.060732007 0.1391519 -0.021829274 0
-0.010090241 0.14249998 -0.021301398 0
-0.0074672052 0.14235061 -0.021921981 0
-0.0050755073 0.14252888 -0.023487264 0
0.056698442 0.14316668 -0.023455223 0
0.058506288 0.14242116 -0.022265535 0
0.060062625 0.14196375 -0.021313373 0
-0.0069865296 0.14497715 -0.021461906 0
-0.0044022421 0.14539514 -0.022900058 0
-0.0021692018 0.14627492 -0.023308069 0
0.053640999 0.14687 -0.023737 0
0.055946331 0.14552106 -0.022763453 0
0.057647932 0.14554536 -0.021583606 0
-0.006235329 0.14791715 -0.021240856 0
-0.004820813 0.14853279 -0.021998044 0
-0.0014269979 0.1481909 -0.022526756 0
0.00089802308 0.14911617 -0.023405982 0
0.050926998 0.14967 -0.023882 0
0.052784346 0.14890033 -0.022988046 0
0.054871269 0.14810298 -0.021700522 0
0.057524748 0.14720249 -0.021244749 0
-0.0041507389 0.15104635 -0.021602567 0
-0.0016901429 0.15166986 -0.021632453 0
0.0019520541 0.15115304 -0.022977421 0
0.0042216782 0.15183999 -0.022995729 0
0.0065590111 0.15263332 -0.023713667 0
0.047251269 0.15263532 -0.023496134 0
0.04957293 0.15165174 -0.022726558 0
0.052645266 0.15081732 -0.022017594 0
0.054402012 0.15047164 -0.021396279 0
-0.00044309371 0.15371254 -0.021464802 0
0.0015727368 0.15493365 -0.021883132 0
0.004596598 0.15455148 -0.021764638 0
0.0076616248 0.15459611 -0.023169052 0
0.010335647 0.1551328 -0.023189744 0
0.0126352 0.155627 -0.023731299 0
0.0414076 0.155818 -0.023700699 0
0.043695621 0.15519677 -0.023002937 0
0.046554975 0.15422499 -0.022676626 0
0.04941646 0.15450338 -0.021716781 0
0.001787 0.15613401 -0.021357801 0
0.0056792893 0.15648444 -0.021449 0
0.0076196054 0.15764742 -0.021979619 0
0.010537343 0.15789372 -0.021997001 0
0.013541917 0.15759282 -0.023198696 0
0.016225817 0.15762189 -0.023264037 0
0.01906267 0.15844052 -0.023567857 0
0.022837598 0.15813354 -0.023515025 0
0.025648212 0.15824348 -0.023584282 0
0.029034417 0.15853167 -0.02380625 0
0.031210188 0.15836488 -0.023405517 0
0.034961209 0.15827277 -0.023619488 0
0.037635624 0.15775636 -0.023131233 0
0.040543675 0.15758255 -0.022739027 0
0.043666821 0.15758409 -0.022335367 0
0.046089545 0.15729238 -0.021373946 0
0.048652001 0.156215 -0.021201501 0
0.008810333 0.15914667 -0.021324335 0
0.01057685 0.15911126 -0.0213865 0
0.013782538 0.16005109 -0.022185458 0
0.016423527 0.16067363 -0.022207094 0
0.019466436 0.16035205 -0.022511337 0
0.02259166 0.1607215 -0.022848956 0
0.025432562 0.16081795 -0.022088405 0
0.02858022 0.16079761 -0.022918949 0
0.031345464 0.16058381 -0.022186717 0
0.034629315 0.16026644 -0.022323951 0
0.037616525 0.16033007 -0.022285804 0
0.039904743 0.1598002 -0.021526346 0
0.043674786 0.15912001 -0.021443889 0
0.022835309 0.16224888 -0.021743262 0
0.029404249 0.1621875 -0.021896336 0
0.03066182 0.16227454 -0.021542728 0
-0.019761208 0.18200134 -0.023017658 0
-0.017790666 0.18287 -0.023660667 0
-0.019357026 0.18427435 -0.021862639 0
-0.016760791 0.18454154 -0.02324255 0
-0.014873 0.18573 -0.023936 0
-0.019457821 0.18738426 -0.022658026 0
-0.016417764 0.18751737 -0.023406858 0
-0.01481175 0.18729624 -0.02383275 0
0.028843332 0.053623956 -0.020612145 0
0.031581551 0.053323548 -0.020609271 0
0.034283388 0.05359434 -0.020504054 0
0.036226999 0.053775001 -0.020135 0
0.061932553 0.053921115 -0.020548666 0
0.063176997 0.053963002 -0.020237001 0
0.022753535 0.056051392 -0.020559609 0
0.025882708 0.054683473 -0.020584706 0
0.027429 0.054238498 -0.020938 0
0.035177 0.054153003 -0.020938 0
0.037612647 0.054701421 -0.020584041 0
0.040701449 0.056051925 -0.020494552 0
0.0423164 0.056708496 -0.0202615 0
0.050648 0.056896206 -0.0203018 0
0.051970914 0.056158584 -0.020506416 0
0.05541192 0.054816 -0.020694081 0
0.058567923 0.05416467 -0.020557499 0
0.062747329 0.054079004 -0.020938 0
0.064088941 0.055258993 -0.020600742 0
-0.019505164 0.058188844 -0.020627195 0
-0.017498001 0.059757002 -0.020440001 0
0.019456642 0.05851325 -0.02058484 0
0.021178251 0.0572345 -0.020848501 0
0.041827001 0.057183001 -0.020938 0
0.043653447 0.057977103 -0.020568324 0
0.046323396 0.058760319 -0.020560566 0
0.048922453 0.057953093 -0.020555817 0
0.063566186 0.058230817 -0.020606546 0
-0.016424714 0.061124574 -0.020579478 0
-0.0146785 0.062827334 -0.020385332 0
0.017050527 0.061432146 -0.020564381 0
0.018165 0.060075 -0.020938 0
0.062104553 0.061647404 -0.02058015 0
0.063113496 0.060249999 -0.020257499 0
-0.013228593 0.064413562 -0.020678593 0
0.014547165 0.065090925 -0.020472249 0
0.015709125 0.063424878 -0.020693749 0
0.059146531 0.065006226 -0.020699263 0
0.060350202 0.063821472 -0.020597799 0
-0.010681219 0.067383632 -0.020605585 0
0.013808059 0.067221239 -0.020660885 0
0.057839382 0.067604773 -0.020578185 0
-0.0092730001 0.069246002 -0.020938 0
-0.0083813202 0.070088878 -0.020504666 0
0.012967177 0.070327945 -0.020628942 0
0.056042638 0.070891246 -0.020585066 0
0.057194002 0.069367841 -0.020529335 0
-0.0064373603 0.07305073 -0.020612001 0
-0.0054021161 0.074303687 -0.020505846 0
0.012771636 0.073500268 -0.020910272 0
0.05300194 0.074068062 -0.020587666 0
0.054546207 0.072552264 -0.020581733 0
-0.0039572073 0.07624092 -0.020599077 0
-0.0028102999 0.077574998 -0.020180501 0
0.0127615 0.077471003 -0.020938 0
0.050309945 0.077018045 -0.020531582 0
0.051555447 0.075559661 -0.020630557 0
-0.002021115 0.079410493 -0.020534702 0
0.0127804 0.079132996 -0.020447601 0
0.047605224 0.080242671 -0.020507667 0
0.048640274 0.078899823 -0.020468453 0
-0.00060824066 0.081885695 -0.020598045 0
0.0001840928 0.083385006 -0.020587601 0
0.0132634 0.082675733 -0.020550601 0
0.046011988 0.08227887 -0.020597158 0
0.0012158835 0.085429281 -0.020586193 0
0.013746286 0.085611142 -0.020454286 0
0.045284204 0.084945902 -0.020727798 0
0.0022226667 0.087431163 -0.020810835 0
0.0033243999 0.089334004 -0.020073 0
0.01460125 0.088540375 -0.020517875 0
0.046389643 0.088391371 -0.02058493 0
0.0046408186 0.092134021 -0.020517975 0
0.015640428 0.09143351 -0.02068593 0
0.047440998 0.090175003 -0.020412501 0
0.048749711 0.092054002 -0.020537574 0
0.0054849498 0.093985498 -0.020238999 0
0.0060505504 0.095585003 -0.020509999 0
0.017273685 0.094694369 -0.020600632 0
0.050315559 0.094452694 -0.020783937 0
0.051197998 0.095775001 -0.020587999 0
0.0067415908 0.097133636 -0.02068791 0
0.018849554 0.097307503 -0.020613952 0
0.052760102 0.097938605 -0.020622799 0
0.008380332 0.10096862 -0.020392366 0
0.020542834 0.099742502 -0.020606 0
0.021682251 0.101395 -0.020415999 0
0.053932 0.09945 -0.0205875 0
0.05466925 0.10062312 -0.020678125 0
0.0088241929 0.1023323 -0.020656999 0
0.0096368082 0.10370594 -0.020475294 0
0.023197001 0.10371427 -0.020681906 0
0.056311484 0.10337953 -0.020669861 0
0.057277001 0.10487 -0.020237001 0
0.010574498 0.10653299 -0.020542754 0
0.023977 0.105 -0.020587999 0
0.025103459 0.10645 -0.020609094 0
0.057935119 0.10619292 -0.020527294 0
0.011583278 0.10885999 -0.020497447 0
0.012151779 0.11037112 -0.020466998 0
0.02654691 0.10880546 -0.020654818 0
0.027354334 0.11047667 -0.020470999 0
0.059373219 0.10901644 -0.020663714 0
