# .PCD v0.7 - Point Cloud Data file format
VERSION 0.7
FIELDS x y z rgba
SIZE 4 4 4 4
TYPE F F F U
COUNT 1 1 1 1
WIDTH 1094
HEIGHT 1
VIEWPOINT 0 0 0 1 0 0 0
POINTS 1094
DATA ascii
0.019285716 0.026428573 0.75000006 13686744
0.020714287 0.026428573 0.75000006 13422800
0.022083811 0.026358096 0.74800003 13225939
0.023508571 0.026358096 0.74800003 12963543
0.024933333 0.026358096 0.74800003 12700111
0.026358096 0.026358096 0.74800003 12436167
0.027782857 0.026358096 0.74800003 12174530
0.029207621 0.026358096 0.74800003 11712445
0.030714288 0.026428573 0.75000006 11318712
0.032142859 0.026428573 0.75000006 10987699
0.033571433 0.026428573 0.75000006 10725292
0.035000004 0.026428573 0.75000006 10527910
0.036428574 0.026428573 0.75000006 10330276
0.037857145 0.026428573 0.75000006 10199201
0.039285716 0.026428573 0.75000006 10132638
0.04082286 0.026499048 0.75200003 10001307
0.042255241 0.026499048 0.75200003 9870231
0.043861907 0.026604762 0.75500005 9804179
0.045300003 0.026604762 0.75500005 9804183
0.046800002 0.026640002 0.75600004 9738139
0.048240002 0.026640002 0.75600004 9672600
0.04981143 0.026710477 0.75800002 9607062
0.05139048 0.026780955 0.76000005 9541269
0.05290762 0.026816191 0.76100004 9409428
0.054500002 0.026886668 0.76300001 9343377
0.056100003 0.026957145 0.76500005 9212046
0.057557147 0.026957145 0.76500005 9080713
0.059168573 0.02702762 0.76700002 8883332
0.060629524 0.02702762 0.76700002 8751234
0.062090475 0.02702762 0.76700002 8553601
0.063965715 0.027203809 0.77200001 8422269
0.06569048 0.027309524 0.77500004 8291194
0.067340001 0.027380001 0.77700001 8160894
0.06882 0.027380001 0.77700001 7830402
0.070480958 0.027450478 0.77900004 7566701
0.072057143 0.027485715 0.78000003 5789528
0.073920004 0.027626667 0.78400004 4085595
0.075798102 0.027767621 0.78800005 5659997
0.077397145 0.027802859 0.78900003 7241071
0.079300009 0.02794381 0.79300004 8493441
0.08081048 0.02794381 0.79300004 9737603
-0.038185716 0.027077144 0.72900003 5597335
-0.03674667 0.027040001 0.72800004 10141372
-0.035262857 0.026965715 0.72600001 11917282
-0.033879999 0.026965715 0.72600001 13620444
-0.032497145 0.026965715 0.72600001 13488855
-0.031114288 0.026965715 0.72600001 13357525
-0.029731428 0.026965715 0.72600001 13291988
-0.028309524 0.026928572 0.72500002 13225938
-0.026854288 0.026854288 0.72300005 13160400
-0.025477143 0.026854288 0.72300005 13094093
-0.024066668 0.026817145 0.72200006 12962763
-0.022691431 0.026817145 0.72200006 12765385
-0.021316191 0.026817145 0.72200006 12568519
-0.019940954 0.026817145 0.72200006 12436672
-0.018565716 0.026817145 0.72200006 12174265
-0.017214287 0.026854288 0.72300005 11910577
-0.015837144 0.026854288 0.72300005 11516074
-0.01446 0.026854288 0.72300005 11119020
-0.013082858 0.026854288 0.72300005 10789806
-0.011705714 0.026854288 0.72300005 10396580
-0.010314287 0.026817145 0.72200006 9934235
-0.0089390483 0.026817145 0.72200006 9476800
-0.0075638103 0.026817145 0.72200006 11122149
-0.00654 0.028339999 0.76300001 12768737
-0.0050866669 0.028339999 0.76300001 13096158
-0.0036238097 0.028265715 0.76100004 13422298
-0.0021742857 0.028265715 0.76100004 13225686
-0.00072380959 0.028228572 0.76000005 13028308
0.0007219048 0.028154286 0.75800002 12962514
0.0021657145 0.028154286 0.75800002 12962001
0.0036095236 0.028154286 0.75800002 13028561
0.0050533335 0.028154286 0.75800002 13094099
0.0064800004 0.028080001 0.75600004 13357782
0.0079095243 0.028042858 0.75500005 13686997
0.0093476195 0.028042858 0.75500005 13489364
0.010785715 0.028042858 0.75500005 13357272
0.012175239 0.027931429 0.75200003 13291484
0.01360762 0.027931429 0.75200003 13225951
0.015040001 0.027931429 0.75200003 13883618
0.016472382 0.027931429 0.75200003 14607078
0.017857144 0.027857145 0.75000006 14606826
0.019285716 0.027857145 0.75000006 14541023
0.020659048 0.027782857 0.74800003 13816532
0.022083811 0.027782857 0.74800003 13029592
0.023477143 0.027745714 0.74700004 12831708
0.024933333 0.027782857 0.74800003 12568271
0.026358096 0.027782857 0.74800003 12305346
0.027782857 0.027782857 0.74800003 12043454
0.029207621 0.027782857 0.74800003 11646651
0.030632382 0.027782857 0.74800003 11253174
0.032142859 0.027857145 0.75000006 10922674
0.033571433 0.027857145 0.75000006 10659756
0.035000004 0.027857145 0.75000006 10462374
0.036428574 0.027857145 0.75000006 10264996
0.037857145 0.027857145 0.75000006 10133410
0.039285716 0.027857145 0.75000006 10001822
0.04082286 0.027931429 0.75200003 9935771
0.042255241 0.027931429 0.75200003 9804698
0.043745715 0.027968572 0.75300002 9804186
0.045180004 0.027968572 0.75300002 9738652
0.046738099 0.028042858 0.75500005 9673118
0.048240002 0.028080001 0.75600004 9607577
0.04981143 0.028154286 0.75800002 9541525
0.05139048 0.028228572 0.76000005 9541267
0.05290762 0.028265715 0.76100004 9409425
0.054500002 0.028339999 0.76300001 9343886
0.056100003 0.028414287 0.76500005 9212044
0.057557147 0.028414287 0.76500005 9146248
0.059014291 0.028414287 0.76500005 8948868
0.060629524 0.028488571 0.76700002 8816769
0.062333338 0.0286 0.77000004 8619135
0.063965715 0.028674286 0.77200001 8487804
0.06569048 0.028785717 0.77500004 8291194
0.067340001 0.028859999 0.77700001 8161150
0.06882 0.028859999 0.77700001 7830658
0.070480958 0.028934287 0.77900004 7500908
0.072057143 0.02897143 0.78000003 5788759
0.073920004 0.029120002 0.78400004 4149852
0.075605713 0.029194286 0.78600001 5726817
0.077397145 0.029305715 0.78900003 7306867
0.079300009 0.029454287 0.79300004 8558214
0.08081048 0.029454287 0.79300004 9802630
-0.03674667 0.028426668 0.72800004 9746105
-0.035262857 0.028348573 0.72600001 11719905
-0.033879999 0.028348573 0.72600001 13685725
-0.032497145 0.028348573 0.72600001 13489114
-0.031114288 0.028348573 0.72600001 13291991
-0.029731428 0.028348573 0.72600001 13291988
-0.028309524 0.028309524 0.72500002 13291730
-0.026854288 0.028231429 0.72300005 13226192
-0.025477143 0.028231429 0.72300005 13225678
-0.024066668 0.028192384 0.72200006 13028812
-0.022691431 0.028192384 0.72200006 12830665
-0.021316191 0.028192384 0.72200006 12634054
-0.019940954 0.028192384 0.72200006 12502465
-0.018565716 0.028192384 0.72200006 12240571
-0.017214287 0.028231429 0.72300005 12041909
-0.015837144 0.028231429 0.72300005 11647406
-0.01446 0.028231429 0.72300005 11316909
-0.013082858 0.028231429 0.72300005 10921389
-0.011705714 0.028231429 0.72300005 10594210
-0.010314287 0.028192384 0.72200006 9999768
-0.0089514283 0.028231429 0.72300005 9410480
-0.0075638103 0.028192384 0.72200006 10790601
-0.0061885719 0.028192384 0.72200006 12241880
-0.0050733336 0.02971524 0.76100004 12900072
-0.0036238097 0.02971524 0.76100004 13554404
-0.0021714286 0.029676192 0.76000005 13357025
-0.0007219048 0.029598096 0.75800002 13225184
0.0007219048 0.029598096 0.75800002 13093600
0.0021657145 0.029598096 0.75800002 12962785
0.0036000002 0.029520001 0.75600004 13225442
0.0050400002 0.029520001 0.75600004 13555173
0.006471429 0.029480955 0.75500005 14016232
0.0078885714 0.029402858 0.75300002 14540776
0.0093228575 0.029402858 0.75300002 14082281
0.010742858 0.029363809 0.75200003 13619938
0.012175239 0.029363809 0.75200003 13419996
0.01360762 0.029363809 0.75200003 13227492
0.015040001 0.029363809 0.75200003 14477292
0.016428573 0.029285716 0.75000006 15724015
0.017857144 0.029285716 0.75000006 15594739
0.019285716 0.029285716 0.75000006 15460324
0.020659048 0.029207621 0.74800003 14144981
0.022083811 0.029207621 0.74800003 12898261
0.023477143 0.029168572 0.74700004 12700117
0.024900001 0.029168572 0.74700004 12502990
0.026322858 0.029168572 0.74700004 12173511
0.027782857 0.029207621 0.74800003 11911613
0.029207621 0.029207621 0.74800003 11515571
0.030632382 0.029207621 0.74800003 11187633
0.032057144 0.029207621 0.74800003 10857647
0.033571433 0.029285716 0.75000006 10594217
0.034906667 0.029207621 0.74800003 10397091
0.036428574 0.029285716 0.75000006 10264994
0.037857145 0.029285716 0.75000006 10067872
0.039285716 0.029285716 0.75000006 9936286
0.04082286 0.029363809 0.75200003 9870236
0.042255241 0.029363809 0.75200003 9804698
0.043687619 0.029363809 0.75200003 9738904
0.045180004 0.029402858 0.75300002 9738648
0.046738099 0.029480955 0.75500005 9673112
0.048240002 0.029520001 0.75600004 9607574
0.049680002 0.029520001 0.75600004 9541780
0.051255237 0.029598096 0.75800002 9541266
0.05290762 0.02971524 0.76100004 9474961
0.054500002 0.029793333 0.76300001 9409421
0.056100003 0.02987143 0.76500005 9277834
0.057557147 0.02987143 0.76500005 9212037
0.059168573 0.029949524 0.76700002 9014657
0.060629524 0.029949524 0.76700002 8882561
0.062333338 0.030066667 0.77000004 8684930
0.063965715 0.030144762 0.77200001 8553598
0.06569048 0.030261906 0.77500004 8356986
0.067340001 0.030339999 0.77700001 8226169
0.06882 0.030339999 0.77700001 7831161
0.070480958 0.030418096 0.77900004 7435374
0.072057143 0.030457145 0.78000003 5788004
0.073920004 0.030613335 0.78400004 4214625
0.075605713 0.03069143 0.78600001 5793887
0.077299051 0.030769525 0.78800005 7438964
0.079300009 0.030964762 0.79300004 8622984
0.08081048 0.030964762 0.79300004 9867910
-0.036645714 0.029731428 0.72600001 9285302
-0.035262857 0.029731428 0.72600001 11522785
-0.033879999 0.029731428 0.72600001 13819103
-0.032497145 0.029731428 0.72600001 13554909
-0.031114288 0.029731428 0.72600001 13357784
-0.029731428 0.029731428 0.72600001 13291988
-0.028309524 0.029690476 0.72500002 13291986
-0.026928572 0.029690476 0.72500002 13226192
-0.025477143 0.029608574 0.72300005 13160654
-0.024100002 0.029608574 0.72300005 12962765
-0.022722857 0.029608574 0.72300005 12830665
-0.021316191 0.029567622 0.72200006 12633798
-0.019940954 0.029567622 0.72200006 12502466
-0.018565716 0.029567622 0.72200006 12305598
-0.017214287 0.029608574 0.72300005 12107960
-0.015837144 0.029608574 0.72300005 11778995
-0.01446 0.029608574 0.72300005 11449263
-0.013082858 0.029608574 0.72300005 11120556
-0.011705714 0.029608574 0.72300005 10726561
-0.010328572 0.029608574 0.72300005 10066838
-0.0089514283 0.029608574 0.72300005 9409953
-0.0075638103 0.029567622 0.72200006 10132653
-0.0061885719 0.029567622 0.72200006 10863055
-0.0050666668 0.03112381 0.76000005 12967666
-0.0036190478 0.03112381 0.76000005 15070191
-0.0021714286 0.03112381 0.76000005 15004140
-0.0007219048 0.031041905 0.75800002 14938349
0.0007219048 0.031041905 0.75800002 14872815
0.0021657145 0.031041905 0.75800002 14807281
0.0036000002 0.030960003 0.75600004 14939124
0.0050400002 0.030960003 0.75600004 15136503
0.006471429 0.030919051 0.75500005 15334139
0.0078885714 0.030837145 0.75300002 15597308
0.0093104765 0.030796193 0.75200003 15070974
0.010742858 0.030796193 0.75200003 14479341
0.012142858 0.030714288 0.75000006 14075613
0.013571429 0.030714288 0.75000006 13687785
0.015000001 0.030714288 0.75000006 14873334
0.016428573 0.030714288 0.75000006 16054777
0.017809525 0.030632382 0.74800003 15726588
0.019234287 0.030632382 0.74800003 15396841
0.020631431 0.03059143 0.74700004 14078935
0.022054287 0.03059143 0.74700004 12701650
0.023477143 0.03059143 0.74700004 12568526
0.024900001 0.03059143 0.74700004 12372173
0.026322858 0.03059143 0.74700004 12041932
0.027745714 0.03059143 0.74700004 11779771
0.029168572 0.03059143 0.74700004 11383723
0.030632382 0.030632382 0.74800003 11056555
0.032057144 0.030632382 0.74800003 10791596
0.033571433 0.030714288 0.75000006 10528678
0.035000004 0.030714288 0.75000006 10331297
0.036428574 0.030714288 0.75000006 10199456
0.037857145 0.030714288 0.75000006 10067871
0.039285716 0.030714288 0.75000006 9936286
0.04082286 0.030796193 0.75200003 9870493
0.042255241 0.030796193 0.75200003 9804953
0.043745715 0.030837145 0.75300002 9804950
0.045300003 0.030919051 0.75500005 9739412
0.046738099 0.030919051 0.75500005 9673362
0.048240002 0.030960003 0.75600004 9607826
0.049680002 0.030960003 0.75600004 9607315
0.051255237 0.031041905 0.75800002 9672338
0.052838098 0.03112381 0.76000005 9540754
0.054500002 0.031246668 0.76300001 9409677
0.056100003 0.03132857 0.76500005 9278344
0.057557147 0.03132857 0.76500005 9212803
0.059014291 0.03132857 0.76500005 9015166
0.060629524 0.031410474 0.76700002 8882817
0.062333338 0.031533334 0.77000004 8750725
0.063965715 0.031615239 0.77200001 8553599
0.06569048 0.031738095 0.77500004 8488058
0.067340001 0.031819999 0.77700001 8422261
0.068642862 0.031738095 0.77500004 7699825
0.070299998 0.031819999 0.77700001 6911345
0.071964763 0.031901907 0.77900004 5657201
0.073542856 0.031942859 0.78000003 4476007
0.075413339 0.032106668 0.78400004 5989982
0.076906674 0.032106668 0.78400004 7571060
0.078400008 0.032106668 0.78400004 8688779
0.08081048 0.032475241 0.79300004 9802117
-0.036645714 0.031114288 0.72600001 8825266
-0.035262857 0.031114288 0.72600001 11391200
-0.033879999 0.031114288 0.72600001 13947611
-0.032497145 0.031114288 0.72600001 13686231
-0.031114288 0.031114288 0.72600001 13423317
-0.029731428 0.031114288 0.72600001 13357779
-0.028309524 0.031071428 0.72500002 13291985
-0.026928572 0.031071428 0.72500002 13160656
-0.025477143 0.030985717 0.72300005 13095118
-0.024100002 0.030985717 0.72300005 12962508
-0.022722857 0.030985717 0.72300005 12830923
-0.021316191 0.030942859 0.72200006 12699338
-0.019940954 0.030942859 0.72200006 12568007
-0.018565716 0.030942859 0.72200006 12370884
-0.017214287 0.030985717 0.72300005 12239290
-0.015837144 0.030985717 0.72300005 11910576
-0.01446 0.030985717 0.72300005 11646895
-0.013082858 0.030985717 0.72300005 11251631
-0.011705714 0.030985717 0.72300005 10923430
-0.010328572 0.030985717 0.72300005 10199454
-0.0089514283 0.030985717 0.72300005 9477026
-0.0075952383 0.031071428 0.72500002 9474982
-0.0062142857 0.031071428 0.72500002 9547726
-0.0050533335 0.032485716 0.75800002 13100790
-0.0036095236 0.032485716 0.75800002 16644341
-0.0021657145 0.032485716 0.75800002 16645877
-0.0007219048 0.032485716 0.75800002 16711413
0.00072000001 0.032400001 0.75600004 16711414
0.0021600001 0.032400001 0.75600004 16711415
0.0036000002 0.032400001 0.75600004 16711417
0.0050333338 0.032357145 0.75500005 16711418
0.0064542862 0.03227143 0.75300002 16711419
0.0078780958 0.03222857 0.75200003 16711417
0.0093104765 0.03222857 0.75200003 16056055
0.010714287 0.032142859 0.75000006 15394795
0.012142858 0.032142859 0.75000006 14796768
0.013571429 0.032142859 0.75000006 14214636
0.01496 0.032057144 0.74800003 15269625
0.016384762 0.032057144 0.74800003 16383226
0.017785715 0.032014288 0.74700004 15858683
0.019208571 0.032014288 0.74700004 15395558
0.020631431 0.032014288 0.74700004 13947602
0.021995239 0.031928573 0.74500006 12569809
0.023414288 0.031928573 0.74500006 12437201
0.024833336 0.031928573 0.74500006 12306378
0.026252383 0.031928573 0.74500006 11975876
0.027745714 0.032014288 0.74700004 11647929
0.029168572 0.032014288 0.74700004 11317678
0.03059143 0.032014288 0.74700004 10990509
0.032057144 0.032057144 0.74800003 10725549
0.033481907 0.032057144 0.74800003 10528423
0.035000004 0.032142859 0.75000006 10331298
0.036428574 0.032142859 0.75000006 10133664
0.037857145 0.032142859 0.75000006 10067870
0.039285716 0.032142859 0.75000006 10001565
0.04082286 0.03222857 0.75200003 9936285
0.042255241 0.03222857 0.75200003 9870490
0.043687619 0.03222857 0.75200003 9804952
0.045180004 0.03227143 0.75300002 9804694
0.046738099 0.032357145 0.75500005 9739157
0.048240002 0.032400001 0.75600004 9673108
0.049680002 0.032400001 0.75600004 9738643
0.051255237 0.032485716 0.75800002 9803665
0.052838098 0.032571428 0.76000005 9606543
0.054500002 0.032699998 0.76300001 9409676
0.056100003 0.032785717 0.76500005 9279369
0.057406668 0.032699998 0.76300001 9212805
0.059014291 0.032785717 0.76500005 9081473
0.060629524 0.032871429 0.76700002 8948612
0.062333338 0.033 0.77000004 8750983
0.063965715 0.033085715 0.77200001 8619136
0.06569048 0.033214286 0.77500004 8619386
0.067166664 0.033214286 0.77500004 8684665
0.068642862 0.033214286 0.77500004 7568505
0.070119046 0.033214286 0.77500004 6452848
0.071964763 0.033385713 0.77900004 5592168
0.073542856 0.033428572 0.78000003 4738660
0.075413339 0.033600003 0.78400004 6186081
0.076906674 0.033600003 0.78400004 7702388
0.078400008 0.033600003 0.78400004 8689288
-0.03674667 0.032586671 0.72800004 8299694
-0.035262857 0.032497145 0.72600001 11128031
-0.033879999 0.032497145 0.72600001 13952216
-0.032586671 0.032586671 0.72800004 13686737
-0.031200001 0.032586671 0.72800004 13489105
-0.029731428 0.032497145 0.72600001 13423314
-0.028348573 0.032497145 0.72600001 13357777
-0.026928572 0.032452382 0.72500002 13226448
-0.02554762 0.032452382 0.72500002 13160654
-0.024166666 0.032452382 0.72500002 13029324
-0.022785716 0.032452382 0.72500002 12897997
-0.021345716 0.03236286 0.72300005 12764878
-0.019968573 0.03236286 0.72300005 12633804
-0.01859143 0.03236286 0.72300005 12436683
-0.017214287 0.03236286 0.72300005 12239548
-0.015837144 0.03236286 0.72300005 11976621
-0.01446 0.03236286 0.72300005 11778992
-0.013082858 0.03236286 0.72300005 11383731
-0.011705714 0.03236286 0.72300005 11054764
-0.010328572 0.03236286 0.72300005 10462374
-0.0089514283 0.03236286 0.72300005 9937827
-0.0075742863 0.03236286 0.72300005 9739168
-0.0062142857 0.032452382 0.72500002 9543373
-0.0048333337 0.032452382 0.72500002 11781626
-0.0036095236 0.033929523 0.75800002 14089980
-0.0021657145 0.033929523 0.75800002 15335166
-0.00072000001 0.033840001 0.75600004 16514814
0.00072000001 0.033840001 0.75600004 16580350
0.0021600001 0.033840001 0.75600004 16711422
0.0035952383 0.033795241 0.75500005 16645886
0.0050333338 0.033795241 0.75500005 16645885
0.0064542862 0.033705715 0.75300002 15987964
0.0078780958 0.033660952 0.75200003 15395574
0.0092857154 0.033571433 0.75000006 15131889
0.010714287 0.033571433 0.75000006 14868458
0.012142858 0.033571433 0.75000006 14739427
0.013535239 0.033481907 0.74800003 14675952
0.01496 0.033481907 0.74800003 15135229
0.016384762 0.033481907 0.74800003 15660027
0.017785715 0.033437144 0.74700004 15002874
0.019208571 0.033437144 0.74700004 14345955
0.020576192 0.033347622 0.74500006 13422285
0.021995239 0.033347622 0.74500006 12569296
0.023414288 0.033347622 0.74500006 12371412
0.024833336 0.033347622 0.74500006 12175048
0.026252383 0.033347622 0.74500006 11844541
0.02767143 0.033347622 0.74500006 11516343
0.029168572 0.033437144 0.74700004 11186866
0.03059143 0.033437144 0.74700004 10924464
0.032014288 0.033437144 0.74700004 10659758
0.033481907 0.033481907 0.74800003 10461608
0.034906667 0.033481907 0.74800003 10264739
0.03633143 0.033481907 0.74800003 10133664
0.037857145 0.033571433 0.75000006 10067613
0.039285716 0.033571433 0.75000006 9936029
0.04082286 0.033660952 0.75200003 9870494
0.042255241 0.033660952 0.75200003 9870748
0.043745715 0.033705715 0.75300002 9804954
0.045180004 0.033705715 0.75300002 9804697
0.046738099 0.033795241 0.75500005 9738904
0.048240002 0.033840001 0.75600004 9673110
0.049680002 0.033840001 0.75600004 9672852
0.051255237 0.033929523 0.75800002 9672848
0.052838098 0.034019049 0.76000005 9475725
0.054500002 0.034153335 0.76300001 9344140
0.056100003 0.034242857 0.76500005 9278603
0.057557147 0.034242857 0.76500005 9147528
0.059014291 0.034242857 0.76500005 9015429
0.060629524 0.03433238 0.76700002 8948871
0.062333338 0.034466669 0.77000004 8750729
0.063965715 0.034556191 0.77200001 8619137
0.065520957 0.034600955 0.77300006 8619386
0.067166664 0.034690477 0.77500004 8685181
0.068465717 0.034600955 0.77300006 7502465
0.070119046 0.034690477 0.77500004 6387568
0.071780004 0.034779999 0.77700001 5395807
0.073448576 0.034869526 0.77900004 4477025
0.075413339 0.035093337 0.78400004 6187364
0.076906674 0.035093337 0.78400004 7833973
0.078400008 0.035093337 0.78400004 8688774
-0.03674667 0.033973332 0.72800004 7772070
-0.035408571 0.034019999 0.72900003 10865113
-0.034019999 0.034019999 0.72900003 13950678
-0.032631427 0.034019999 0.72900003 13752788
-0.031242857 0.034019999 0.72900003 13620179
-0.029813336 0.033973332 0.72800004 13489362
-0.028348573 0.033879999 0.72600001 13423570
-0.026965715 0.033879999 0.72600001 13292497
-0.02554762 0.033833336 0.72500002 13226190
-0.024166666 0.033833336 0.72500002 13094860
-0.022785716 0.033833336 0.72500002 12963276
-0.021345716 0.033740003 0.72300005 12830668
-0.019968573 0.033740003 0.72300005 12699338
-0.01859143 0.033740003 0.72300005 12502728
-0.017214287 0.033740003 0.72300005 12305086
-0.015837144 0.033740003 0.72300005 12108468
-0.01446 0.033740003 0.72300005 11910580
-0.013064764 0.033693336 0.72200006 11516085
-0.011705714 0.033740003 0.72300005 11186608
-0.010328572 0.033740003 0.72300005 10791084
-0.0089514283 0.033740003 0.72300005 10396836
-0.0075952383 0.033833336 0.72500002 9935004
-0.0062228572 0.033879999 0.72600001 9543344
-0.0048533333 0.033973332 0.72800004 10528196
-0.0034666669 0.033973332 0.72800004 11586268
-0.00208 0.033973332 0.72800004 13955317
-0.00072000001 0.03528 0.75600004 16381944
0.00071904768 0.035233337 0.75500005 16514812
0.0021514287 0.03514 0.75300002 16711421
0.0035809525 0.035093337 0.75200003 16645885
0.0050000004 0.035000004 0.75000006 16577783
0.006411429 0.034906667 0.74800003 15330289
0.007836191 0.034906667 0.74800003 14149871
0.0092485715 0.03486 0.74700004 14212590
0.010671429 0.03486 0.74700004 14344426
0.012094286 0.03486 0.74700004 14739175
0.013517143 0.03486 0.74700004 15199213
0.014900001 0.03476667 0.74500006 15068916
0.01631905 0.03476667 0.74500006 14936301
0.017738096 0.03476667 0.74500006 14082791
0.019157145 0.03476667 0.74500006 13293274
0.020576192 0.03476667 0.74500006 12896974
0.021995239 0.03476667 0.74500006 12568782
0.023351429 0.034673333 0.74300003 12305871
0.024766667 0.034673333 0.74300003 12108488
0.026181906 0.034673333 0.74300003 11779009
0.02767143 0.03476667 0.74500006 11450296
0.029090477 0.03476667 0.74500006 11121583
0.030509528 0.03476667 0.74500006 10857646
0.031928573 0.03476667 0.74500006 10593965
0.033437144 0.03486 0.74700004 10396072
0.03486 0.03486 0.74700004 10264996
0.03633143 0.034906667 0.74800003 10198946
0.03775619 0.034906667 0.74800003 10067615
0.039285716 0.035000004 0.75000006 9936031
0.04071429 0.035000004 0.75000006 9870496
0.042255241 0.035093337 0.75200003 9870493
0.043687619 0.035093337 0.75200003 9804955
0.045180004 0.03514 0.75300002 9804441
0.046614286 0.03514 0.75300002 9738904
0.048176192 0.035233337 0.75500005 9673111
0.049680002 0.03528 0.75600004 9607318
0.051255237 0.035373334 0.75800002 9541779
0.052838098 0.035466667 0.76000005 9410704
0.054357145 0.035513334 0.76100004 9344143
0.05580667 0.035513334 0.76100004 9212815
0.057406668 0.035606667 0.76300001 9146763
0.059014291 0.035700001 0.76500005 9015174
0.060629524 0.035793334 0.76700002 8948615
0.062333338 0.035933334 0.77000004 8750727
0.063965715 0.036026664 0.77200001 8619393
0.065520957 0.036073335 0.77300006 8619387
0.066993333 0.036073335 0.77300006 8685440
0.068465717 0.036073335 0.77300006 7502213
0.070119046 0.036166668 0.77500004 6321263
0.071780004 0.036260001 0.77700001 5265240
0.073542856 0.036400001 0.78000003 4280157
0.075605713 0.036679998 0.78600001 6123105
0.077102855 0.036679998 0.78600001 8029297
0.078599997 0.036679998 0.78600001 8688257
-0.036898095 0.035505716 0.73100001 6982303
-0.035408571 0.035408571 0.72900003 10405075
-0.034019999 0.035408571 0.72900003 13818325
-0.03272095 0.035505716 0.73100001 13686744
-0.03132857 0.035505716 0.73100001 13489109
-0.029854286 0.035408571 0.72900003 13423827
-0.028426668 0.035360001 0.72800004 13423827
-0.026965715 0.035262857 0.72600001 13357523
-0.025582856 0.035262857 0.72600001 13291727
-0.0242 0.035262857 0.72600001 13160140
-0.022785716 0.035214286 0.72500002 12963019
-0.021404762 0.035214286 0.72500002 12831435
-0.019968573 0.035117142 0.72300005 12765640
-0.01859143 0.035117142 0.72300005 12568261
-0.017214287 0.035117142 0.72300005 12370880
-0.015880954 0.035214286 0.72500002 12173499
-0.01446 0.035117142 0.72300005 11976633
-0.013082858 0.035117142 0.72300005 11647672
-0.011705714 0.035117142 0.72300005 11383989
-0.010328572 0.035117142 0.72300005 10988722
-0.0089761904 0.035214286 0.72500002 10593957
-0.0075952383 0.035214286 0.72500002 10265240
-0.0062228572 0.035262857 0.72600001 10002323
-0.0048533333 0.035360001 0.72800004 10264207
-0.0034666669 0.035360001 0.72800004 10591933
-0.0020828571 0.035408571 0.72900003 12041452
-0.00069619046 0.035505716 0.73100001 13490931
0.00071714289 0.036574285 0.75300002 14150907
0.0021428573 0.036428574 0.75000006 14810876
0.0035714288 0.036428574 0.75000006 14939133
0.0049866666 0.03633143 0.74800003 15002098
0.006411429 0.03633143 0.74800003 14542823
0.0078257145 0.036282856 0.74700004 14149353
0.0092238095 0.036185715 0.74500006 14083307
0.010642858 0.036185715 0.74500006 14082795
0.012061905 0.036185715 0.74500006 14149100
0.013480954 0.036185715 0.74500006 14280939
0.014900001 0.036185715 0.74500006 14082027
0.01631905 0.036185715 0.74500006 13883360
0.017690476 0.036088571 0.74300003 13422037
0.019105716 0.036088571 0.74300003 12960978
0.020520953 0.036088571 0.74300003 12699087
0.021936191 0.036088571 0.74300003 12437196
0.023351429 0.036088571 0.74300003 12174026
0.024766667 0.036088571 0.74300003 11910855
0.026252383 0.036185715 0.74500006 11581893
0.02767143 0.036185715 0.74500006 11253432
0.029090477 0.036185715 0.74500006 10988972
0.030509528 0.036185715 0.74500006 10725548
0.031928573 0.036185715 0.74500006 10528172
0.033437144 0.036282856 0.74700004 10396073
0.03486 0.036282856 0.74700004 10264742
0.03633143 0.03633143 0.74800003 10133412
0.03775619 0.03633143 0.74800003 10067618
0.039285716 0.036428574 0.75000006 10001826
0.04082286 0.036525715 0.75200003 9936290
0.042255241 0.036525715 0.75200003 9936287
0.043687619 0.036525715 0.75200003 9870492
0.045180004 0.036574285 0.75300002 9869978
0.046738099 0.03667143 0.75500005 9738905
0.048176192 0.03667143 0.75500005 9673112
0.049680002 0.036720004 0.75600004 9607320
0.051255237 0.036817145 0.75800002 9541781
0.052838098 0.036914289 0.76000005 9475987
0.054357145 0.036962859 0.76100004 9344403
0.055953331 0.03706 0.76300001 9278356
0.057406668 0.03706 0.76300001 9146510
0.059014291 0.037157144 0.76500005 9014920
0.060629524 0.037254285 0.76700002 8882823
0.062333338 0.0374 0.77000004 8750982
0.063965715 0.037497144 0.77200001 8619649
0.065520957 0.037545718 0.77300006 8684925
0.066993333 0.037545718 0.77300006 8685699
0.068465717 0.037545718 0.77300006 7436170
0.069938101 0.037545718 0.77300006 6189678
0.071595237 0.037642859 0.77500004 5329746
0.073260002 0.03774 0.77700001 4542296
0.07474 0.03774 0.77700001 6253663
0.076219998 0.03774 0.77700001 8028269
0.078599997 0.038177144 0.78600001 8425084
-0.036898095 0.036898095 0.73100001 6259349
-0.035505716 0.036898095 0.73100001 10010834
-0.034113333 0.036898095 0.73100001 13754069
-0.03272095 0.036898095 0.73100001 13555417
-0.03132857 0.036898095 0.73100001 13423830
-0.029854286 0.036797144 0.72900003 13423828
-0.028426668 0.03674667 0.72800004 13423827
-0.027040001 0.03674667 0.72800004 13422802
-0.025582856 0.036645714 0.72600001 13422543
-0.0242 0.036645714 0.72600001 13225677
-0.022817142 0.036645714 0.72600001 13028555
-0.021404762 0.03659524 0.72500002 12897225
-0.020023812 0.03659524 0.72500002 12831175
-0.018642858 0.03659524 0.72500002 12634054
-0.017261904 0.03659524 0.72500002 12436674
-0.015880954 0.03659524 0.72500002 12238782
-0.01446 0.036494289 0.72300005 12041914
-0.013082858 0.036494289 0.72300005 11779511
-0.011705714 0.036494289 0.72300005 11581876
-0.010328572 0.036494289 0.72300005 11186353
-0.0089761904 0.03659524 0.72500002 10856616
-0.0075952383 0.03659524 0.72500002 10659488
-0.0062228572 0.036645714 0.72600001 10461855
-0.0048533333 0.03674667 0.72800004 10067359
-0.0034666669 0.03674667 0.72800004 9674162
-0.0020828571 0.036797144 0.72900003 10134469
-0.00069428573 0.036797144 0.72900003 10597076
0.00069428573 0.036797144 0.72900003 11780836
0.0021428573 0.037857145 0.75000006 12962794
0.0035714288 0.037857145 0.75000006 13227505
0.0050000004 0.037857145 0.75000006 13490410
0.006411429 0.03775619 0.74800003 13819107
0.0078257145 0.037705716 0.74700004 14147558
0.0092238095 0.037604764 0.74500006 13951720
0.010614286 0.037503812 0.74300003 13819111
0.012061905 0.037604764 0.74500006 13620965
0.013480954 0.037604764 0.74500006 13423332
0.01486 0.037503812 0.74300003 13160163
0.016275238 0.037503812 0.74300003 12897754
0.017690476 0.037503812 0.74300003 12766418
0.019105716 0.037503812 0.74300003 12634574
0.020520953 0.037503812 0.74300003 12502986
0.021936191 0.037503812 0.74300003 12370888
0.023351429 0.037503812 0.74300003 12042181
0.024766667 0.037503812 0.74300003 11713217
0.026181906 0.037503812 0.74300003 11384764
0.02767143 0.037604764 0.74500006 11056053
0.029090477 0.037604764 0.74500006 10791086
0.030509528 0.037604764 0.74500006 10593964
0.031928573 0.037604764 0.74500006 10462377
0.033347622 0.037604764 0.74500006 10396071
0.03486 0.037705716 0.74700004 10264742
0.036282856 0.037705716 0.74700004 10133412
0.03775619 0.03775619 0.74800003 10067618
0.039285716 0.037857145 0.75000006 10067617
0.04071429 0.037857145 0.75000006 10002337
0.042255241 0.037958097 0.75200003 10001822
0.043745715 0.038008571 0.75300002 9936028
0.045300003 0.038109526 0.75500005 9935770
0.046738099 0.038109526 0.75500005 9804697
0.048240002 0.03816 0.75600004 9738904
0.049680002 0.03816 0.75600004 9673111
0.051255237 0.038260952 0.75800002 9607317
0.052838098 0.038361907 0.76000005 9475987
0.054357145 0.038412381 0.76100004 9410194
0.055953331 0.038513333 0.76300001 9278353
0.057406668 0.038513333 0.76300001 9211789
0.059014291 0.038614288 0.76500005 9014665
0.060629524 0.03871524 0.76700002 8882823
0.062171426 0.038765714 0.76800001 8751237
0.063965715 0.038967621 0.77200001 8685440
0.065520957 0.039018098 0.77300006 8685179
0.066993333 0.039018098 0.77300006 8751487
0.068465717 0.039018098 0.77300006 7370115
0.070119046 0.039119046 0.77500004 6058610
0.071780004 0.039219998 0.77700001 5460064
0.073260002 0.039219998 0.77700001 4870497
0.07474 0.039219998 0.77700001 6449762
0.076219998 0.039219998 0.77700001 8026473
-0.03555429 0.03834286 0.73200005 9616081
-0.034113333 0.038290478 0.73100001 13558742
-0.032765716 0.03834286 0.73200005 13490651
-0.03132857 0.038290478 0.73100001 13489624
-0.029936191 0.038290478 0.73100001 13423829
-0.028465716 0.038185716 0.72900003 13423827
-0.027077144 0.038185716 0.72900003 13422801
-0.025582856 0.038028572 0.72600001 13356495
-0.0242 0.038028572 0.72600001 13225422
-0.022817142 0.038028572 0.72600001 13094347
-0.021404762 0.03797619 0.72500002 12962760
-0.020023812 0.03797619 0.72500002 12831175
-0.018642858 0.03797619 0.72500002 12634055
-0.017261904 0.03797619 0.72500002 12436932
-0.015880954 0.03797619 0.72500002 12239297
-0.01446 0.037871432 0.72300005 12041915
-0.013082858 0.037871432 0.72300005 11910838
-0.011705714 0.037871432 0.72300005 11714227
-0.010357142 0.03797619 0.72500002 11383473
-0.0089761904 0.03797619 0.72500002 11119532
-0.0076057143 0.038028572 0.72600001 10856360
-0.0062228572 0.038028572 0.72600001 10593707
-0.0048533333 0.038133334 0.72800004 10264495
-0.0034666669 0.038133334 0.72800004 10001575
-0.00208 0.038133334 0.72800004 10264735
-0.00069428573 0.038185716 0.72900003 10594998
0.00069428573 0.038185716 0.72900003 11252941
0.0020885714 0.038290478 0.73100001 11911129
0.0034809522 0.038290478 0.73100001 12306405
0.0049866666 0.039180957 0.74800003 12767458
0.0063857147 0.039023813 0.74500006 13030624
0.0077733337 0.038866669 0.74200004 13359587
0.0091990475 0.03891905 0.74300003 13424614
0.010600001 0.038866669 0.74200004 13489890
0.012029524 0.03891905 0.74300003 13358559
0.013444763 0.03891905 0.74300003 13227229
0.01484 0.038866669 0.74200004 13029083
0.016275238 0.03891905 0.74300003 12832725
0.017690476 0.03891905 0.74300003 12570063
0.019105716 0.03891905 0.74300003 12372938
0.020520953 0.03891905 0.74300003 12239814
0.021936191 0.03891905 0.74300003 12042691
0.023351429 0.03891905 0.74300003 11778753
0.024766667 0.03891905 0.74300003 11450042
0.026181906 0.03891905 0.74300003 11187124
0.027597144 0.03891905 0.74300003 10924466
0.029012382 0.03891905 0.74300003 10725297
0.03042762 0.03891905 0.74300003 10527660
0.031928573 0.039023813 0.74500006 10396327
0.033347622 0.039023813 0.74500006 10330534
0.03486 0.039128575 0.74700004 10199206
0.036282856 0.039128575 0.74700004 10067876
0.03775619 0.039180957 0.74800003 10067874
0.039285716 0.039285716 0.75000006 10067873
0.04071429 0.039285716 0.75000006 10002080
0.042255241 0.039390475 0.75200003 9936286
0.043745715 0.039442856 0.75300002 9935772
0.045300003 0.039547618 0.75500005 9870234
0.046738099 0.039547618 0.75500005 9804697
0.048240002 0.0396 0.75600004 9739416
0.04981143 0.039704762 0.75800002 9673111
0.051255237 0.039704762 0.75800002 9607573
0.052838098 0.039809525 0.76000005 9475987
0.054357145 0.039861906 0.76100004 9410448
0.055953331 0.039966665 0.76300001 9278350
0.057406668 0.039966665 0.76300001 9211788
0.059014291 0.040071428 0.76500005 9080203
0.060629524 0.04017619 0.76700002 8948360
0.062171426 0.040228572 0.76800001 8817029
0.063800007 0.040333334 0.77000004 8685695
0.065436192 0.040438093 0.77200001 8685945
0.066993333 0.040490478 0.77300006 8751995
0.068465717 0.040490478 0.77300006 7435901
0.069938101 0.040490478 0.77300006 6058614
0.071595237 0.040595241 0.77500004 5329519
0.073071435 0.040595241 0.77500004 4543338
0.074547619 0.040595241 0.77500004 6318182
-0.037049524 0.039845716 0.73400003 5206149
-0.03555429 0.039737146 0.73200005 9287116
-0.034113333 0.039682858 0.73100001 13426644
-0.032765716 0.039737146 0.73200005 13491676
-0.03137143 0.039737146 0.73200005 13555162
-0.029936191 0.039682858 0.73100001 13489880
-0.028543809 0.039682858 0.73100001 13489621
-0.027077144 0.039574288 0.72900003 13423058
-0.025653334 0.039520003 0.72800004 13357265
-0.024266668 0.039520003 0.72800004 13225935
-0.022817142 0.039411429 0.72600001 13159885
-0.021434287 0.039411429 0.72600001 12963018
-0.020023812 0.039357144 0.72500002 12831176
-0.018642858 0.039357144 0.72500002 12634053
-0.017261904 0.039357144 0.72500002 12502467
-0.015880954 0.039357144 0.72500002 12305602
-0.01446 0.039248575 0.72300005 12107709
-0.013119048 0.039357144 0.72500002 11976376
-0.011738095 0.039357144 0.72500002 11910582
-0.010357142 0.039357144 0.72500002 11646388
-0.0089761904 0.039357144 0.72500002 11382704
-0.0076057143 0.039411429 0.72600001 11053484
-0.0062228572 0.039411429 0.72600001 10725291
-0.0048533333 0.039520003 0.72800004 10527147
-0.0034666669 0.039520003 0.72800004 10395554
-0.0020828571 0.039574288 0.72900003 10460826
-0.00069428573 0.039574288 0.72900003 10593707
0.00069428573 0.039574288 0.72900003 10726588
0.0020885714 0.039682858 0.73100001 10859718
0.0034809522 0.039682858 0.73100001 11451601
0.0048800004 0.039737146 0.73200005 12043474
0.0063342857 0.040117145 0.73900002 12307667
0.0077523813 0.04017143 0.74000001 12635349
0.0091619045 0.04017143 0.74000001 12897752
0.010571429 0.04017143 0.74000001 13225174
0.012013334 0.040280003 0.74200004 13094100
0.013426667 0.040280003 0.74200004 13028048
0.01484 0.040280003 0.74200004 12896717
0.016253335 0.040280003 0.74200004 12765132
0.017666668 0.040280003 0.74200004 12436940
0.01908 0.040280003 0.74200004 12174023
0.020520953 0.040334288 0.74300003 11976642
0.021936191 0.040334288 0.74300003 11780032
0.023320002 0.040280003 0.74200004 11515582
0.024766667 0.040334288 0.74300003 11252664
0.026181906 0.040334288 0.74300003 11055026
0.027597144 0.040334288 0.74300003 10858160
0.029012382 0.040334288 0.74300003 10659503
0.03042762 0.040334288 0.74300003 10461866
0.031928573 0.040442862 0.74500006 10330277
0.033347622 0.040442862 0.74500006 10264995
0.03486 0.040551431 0.74700004 10133921
0.036282856 0.040551431 0.74700004 10002593
0.03775619 0.040605716 0.74800003 10002593
0.039285716 0.04071429 0.75000006 10067872
0.04071429 0.04071429 0.75000006 10001822
0.042255241 0.04082286 0.75200003 9936285
0.043687619 0.04082286 0.75200003 9870235
0.045180004 0.040877145 0.75300002 9870234
0.046738099 0.040985718 0.75500005 9804697
0.048176192 0.040985718 0.75500005 9804952
0.049680002 0.041040003 0.75600004 9673367
0.051255237 0.041148573 0.75800002 9607318
0.052838098 0.041257147 0.76000005 9541781
0.054357145 0.041311432 0.76100004 9475984
0.055953331 0.041420002 0.76300001 9344140
0.057406668 0.041420002 0.76300001 9211787
0.059014291 0.041528575 0.76500005 9080202
0.060629524 0.041637145 0.76700002 9013894
0.062171426 0.04169143 0.76800001 8817283
0.063800007 0.041800003 0.77000004 8685950
0.065436192 0.041908573 0.77200001 8751737
0.066993333 0.041962862 0.77300006 8817277
0.068465717 0.041962862 0.77300006 7436161
0.070119046 0.042071432 0.77500004 6124406
0.071780004 0.042180002 0.77700001 5199211
0.073260002 0.042180002 0.77700001 4280678
0.07474 0.042180002 0.77700001 6186850
-0.037049524 0.04124381 0.73400003 4548224
-0.03555429 0.041131433 0.73200005 8892360
-0.034113333 0.041075241 0.73100001 13229267
-0.032765716 0.041131433 0.73200005 13425886
-0.03137143 0.041131433 0.73200005 13620957
-0.029936191 0.041075241 0.73100001 13555420
-0.028543809 0.041075241 0.73100001 13555672
-0.027077144 0.04096286 0.72900003 13423572
-0.025653334 0.040906668 0.72800004 13357522
-0.024266668 0.040906668 0.72800004 13225937
-0.022817142 0.040794283 0.72600001 13159887
-0.021434287 0.040794283 0.72600001 13028557
-0.020051429 0.040794283 0.72600001 12896712
-0.018642858 0.040738095 0.72500002 12699844
-0.017261904 0.040738095 0.72500002 12502467
-0.015880954 0.040738095 0.72500002 12305347
-0.014500001 0.040738095 0.72500002 12173502
-0.013119048 0.040738095 0.72500002 12042170
-0.011738095 0.040738095 0.72500002 11910584
-0.010357142 0.040738095 0.72500002 11712183
-0.0089761904 0.040738095 0.72500002 11449523
-0.0076057143 0.040794283 0.72600001 11120816
-0.0062228572 0.040794283 0.72600001 10857899
-0.0048533333 0.040906668 0.72800004 10660263
-0.0034666669 0.040906668 0.72800004 10528158
-0.00208 0.040906668 0.72800004 10462102
-0.00069428573 0.04096286 0.72900003 10330528
0.00069428573 0.04096286 0.72900003 10528939
0.0020885714 0.041075241 0.73100001 10727092
0.0034809522 0.041075241 0.73100001 11056061
0.0048800004 0.041131433 0.73200005 11385025
0.006291429 0.04124381 0.73400003 11647942
0.0077209529 0.041412383 0.73700005 11976648
0.0091495244 0.041524764 0.73900002 12174795
0.010557143 0.041524764 0.73900002 12438474
0.011964763 0.041524764 0.73900002 12372425
0.013390477 0.041580953 0.74000001 12306372
0.0148 0.041580953 0.74000001 12240831
0.016209524 0.041580953 0.74000001 12175300
0.017619047 0.041580953 0.74000001 11977673
0.019028571 0.041580953 0.74000001 11780036
0.020493334 0.041693337 0.74200004 11648703
0.021906666 0.041693337 0.74200004 11452093
0.023320002 0.041693337 0.74200004 11252411
0.024766667 0.041749526 0.74300003 11055285
0.026181906 0.041749526 0.74300003 10857904
0.027597144 0.041749526 0.74300003 10661038
0.029012382 0.041749526 0.74300003 10528429
0.030509528 0.04186191 0.74500006 10396328
0.031928573 0.04186191 0.74500006 10330788
0.033347622 0.04186191 0.74500006 10199712
0.03486 0.041974287 0.74700004 10068125
0.036282856 0.041974287 0.74700004 9937055
0.03775619 0.042030476 0.74800003 10002337
0.039285716 0.042142861 0.75000006 10067871
0.04071429 0.042142861 0.75000006 10002077
0.042255241 0.042255241 0.75200003 9936284
0.043687619 0.042255241 0.75200003 9936283
0.045180004 0.04231143 0.75300002 9870746
0.046738099 0.042423811 0.75500005 9804953
0.048176192 0.042423811 0.75500005 9739416
0.049680002 0.042480003 0.75600004 9673367
0.051255237 0.04259238 0.75800002 9607319
0.052838098 0.042704765 0.76000005 9541527
0.054357145 0.042760953 0.76100004 9475984
0.055953331 0.042873334 0.76300001 9344394
0.057406668 0.042873334 0.76300001 9212041
0.059014291 0.042985715 0.76500005 9080201
0.060629524 0.043098096 0.76700002 8948613
0.062171426 0.043154284 0.76800001 8817026
0.063800007 0.043266669 0.77000004 8685694
0.065436192 0.043379046 0.77200001 8751482
0.066993333 0.043435238 0.77300006 8817279
0.068465717 0.043435238 0.77300006 7370885
0.070299998 0.04366 0.77700001 5928054
0.071780004 0.04366 0.77700001 5264743
0.073260002 0.04366 0.77700001 4542563
0.07474 0.04366 0.77700001 6318687
-0.036948573 0.042525716 0.73200005 3954552
-0.03555429 0.042525716 0.73200005 8497859
-0.034113333 0.042467616 0.73100001 13097681
-0.032765716 0.042525716 0.73200005 13425632
-0.03137143 0.042525716 0.73200005 13752029
-0.029936191 0.042467616 0.73100001 13687002
-0.028543809 0.042467616 0.73100001 13620950
-0.027151428 0.042467616 0.73100001 13489619
-0.025653334 0.042293333 0.72800004 13423057
-0.024266668 0.042293333 0.72800004 13291728
-0.022880001 0.042293333 0.72800004 13160142
-0.021434287 0.042177141 0.72600001 13094348
-0.020051429 0.042177141 0.72600001 13028041
-0.018642858 0.042119049 0.72500002 12765638
-0.017261904 0.042119049 0.72500002 12567749
-0.015880954 0.042119049 0.72500002 12370628
-0.014500001 0.042119049 0.72500002 12239297
-0.013119048 0.042119049 0.72500002 12107965
-0.011738095 0.042119049 0.72500002 11976891
-0.010357142 0.042119049 0.72500002 11778233
-0.0089761904 0.042119049 0.72500002 11580854
-0.0076057143 0.042177141 0.72600001 11252148
-0.0062228572 0.042177141 0.72600001 10989488
-0.0048400001 0.042177141 0.72600001 10858155
-0.003457143 0.042177141 0.72600001 10725285
-0.00208 0.042293333 0.72800004 10397599
-0.00069428573 0.042351428 0.72900003 10135204
0.00069428573 0.042351428 0.72900003 10331562
0.0020828571 0.042351428 0.72900003 10595503
0.0034809522 0.042467616 0.73100001 10660788
0.0048800004 0.042525716 0.73200005 10727611
0.006291429 0.042641908 0.73400003 10991042
0.007689524 0.042641908 0.73400003 11320002
0.0091123814 0.0427581 0.73600006 11517889
0.010528572 0.042816196 0.73700005 11713987
0.011932382 0.042816196 0.73700005 11647940
0.013372381 0.042932384 0.73900002 11647937
0.01478 0.042932384 0.73900002 11582398
0.016187619 0.042932384 0.73900002 11582142
0.017595239 0.042932384 0.73900002 11516606
0.019028571 0.042990476 0.74000001 11450299
0.020438096 0.042990476 0.74000001 11318457
0.021906666 0.043106668 0.74200004 11186615
0.023320002 0.043106668 0.74200004 10989237
0.024766667 0.043164764 0.74300003 10857905
0.026181906 0.043164764 0.74300003 10661037
0.027597144 0.043164764 0.74300003 10529196
0.029012382 0.043164764 0.74300003 10462890
0.030509528 0.043280955 0.74500006 10396327
0.031928573 0.043280955 0.74500006 10265252
0.033347622 0.043280955 0.74500006 10199457
0.03476667 0.043280955 0.74500006 10068127
0.036185715 0.043280955 0.74500006 9936799
0.03775619 0.043455239 0.74800003 10002336
0.039285716 0.043571431 0.75000006 10067870
0.04071429 0.043571431 0.75000006 10002333
0.042142861 0.043571431 0.75000006 10001820
0.043687619 0.043687619 0.75200003 9936284
0.045180004 0.043745715 0.75300002 9936283
0.046738099 0.043861907 0.75500005 9805211
0.048176192 0.043861907 0.75500005 9739162
0.049680002 0.043919999 0.75600004 9673625
0.051255237 0.044036191 0.75800002 9672856
0.05290762 0.044210479 0.76100004 9541527
0.054357145 0.044210479 0.76100004 9475729
0.055953331 0.044326667 0.76300001 9344651
0.057406668 0.044326667 0.76300001 9277578
0.059014291 0.044442859 0.76500005 9080457
0.060629524 0.04455905 0.76700002 8948359
0.062090475 0.04455905 0.76700002 8816773
0.063800007 0.044733334 0.77000004 8750975
0.065436192 0.044849522 0.77200001 8816506
0.066993333 0.044907622 0.77300006 8882816
0.068465717 0.044907622 0.77300006 7305606
0.070299998 0.045139998 0.77700001 5795698
0.071964763 0.04525619 0.77900004 5330527
0.073448576 0.04525619 0.77900004 4870752
0.074932382 0.04525619 0.77900004 6450529
0.076416194 0.04525619 0.77900004 8093293
-0.03715048 0.044160005 0.73600006 2967920
-0.03565143 0.044040002 0.73400003 7907262
-0.034160003 0.043920003 0.73200005 12835280
-0.032765716 0.043920003 0.73200005 13294306
-0.03137143 0.043920003 0.73200005 13686493
-0.029977145 0.043920003 0.73200005 13620952
-0.028543809 0.04386 0.73100001 13554901
-0.027151428 0.04386 0.73100001 13489106
-0.025653334 0.043680001 0.72800004 13423313
-0.024266668 0.043680001 0.72800004 13291728
-0.022817142 0.043559998 0.72600001 13225934
-0.021434287 0.043559998 0.72600001 13159884
-0.020051429 0.043559998 0.72600001 13159626
-0.018642858 0.043500002 0.72500002 12896713
-0.017261904 0.043500002 0.72500002 12633287
-0.015880954 0.043500002 0.72500002 12436166
-0.014500001 0.043500002 0.72500002 12305347
-0.013119048 0.043500002 0.72500002 12174273
-0.011738095 0.043500002 0.72500002 12043198
-0.010357142 0.043500002 0.72500002 11844027
-0.0089885714 0.043559998 0.72600001 11646906
-0.0076057143 0.043559998 0.72600001 11383737
-0.0062228572 0.043559998 0.72600001 11121332
-0.0048400001 0.043559998 0.72600001 10989232
-0.003457143 0.043559998 0.72600001 10791596
-0.0020742856 0.043559998 0.72600001 10594728
-0.00069333339 0.043680001 0.72800004 10398120
0.00069333339 0.043680001 0.72800004 10529193
0.0020828571 0.043740001 0.72900003 10660522
0.0034809522 0.04386 0.73100001 10660779
0.0048800004 0.043920003 0.73200005 10726581
0.0062742857 0.043920003 0.73200005 10858687
0.007689524 0.044040002 0.73400003 11056571
0.0091123814 0.044160005 0.73600006 11253688
0.010528572 0.044220004 0.73700005 11451068
0.011932382 0.044220004 0.73700005 11451072
0.013372381 0.044340003 0.73900002 11451071
0.01478 0.044340003 0.73900002 11385278
0.016187619 0.044340003 0.73900002 11385272
0.017595239 0.044340003 0.73900002 11253683
0.019002859 0.044340003 0.73900002 11187635
0.020438096 0.044399999 0.74000001 11055539
0.021847619 0.044399999 0.74000001 10989233
0.023257142 0.044399999 0.74000001 10791855
0.024733335 0.044520002 0.74200004 10660013
0.026181906 0.044580001 0.74300003 10528683
0.027597144 0.044580001 0.74300003 10462889
0.029012382 0.044580001 0.74300003 10396840
0.030509528 0.044700004 0.74500006 10330790
0.031928573 0.044700004 0.74500006 10199461
0.033347622 0.044700004 0.74500006 10133155
0.03476667 0.044700004 0.74500006 10067873
0.036185715 0.044700004 0.74500006 10002336
0.037705716 0.044819999 0.74700004 10002336
0.039180957 0.044879999 0.74800003 10067870
0.04071429 0.045000002 0.75000006 10002333
0.042255241 0.045120001 0.75200003 10002077
0.043687619 0.045120001 0.75200003 9936285
0.045300003 0.045300003 0.75500005 9936029
0.046738099 0.045300003 0.75500005 9870494
0.048176192 0.045300003 0.75500005 9804700
0.049680002 0.045360003 0.75600004 9739163
0.051255237 0.045480002 0.75800002 9673113
0.052838098 0.045600004 0.76000005 9541528
0.054357145 0.04566 0.76100004 9475474
0.055953331 0.045779999 0.76300001 9344397
0.057557147 0.045900002 0.76500005 9277835
0.059014291 0.045900002 0.76500005 9080458
0.060629524 0.046020001 0.76700002 8948361
0.062171426 0.046079997 0.76800001 8816776
0.063800007 0.0462 0.77000004 8750977
0.065436192 0.046320003 0.77200001 8817019
0.066906668 0.046320003 0.77200001 8883073
0.06882 0.04662 0.77700001 7238791
0.070299998 0.04662 0.77700001 5663599
0.071964763 0.046740003 0.77900004 5264983
0.073448576 0.046740003 0.77900004 4871517
0.074932382 0.046740003 0.77900004 6516068
0.076416194 0.046740003 0.77900004 8225649
-0.037049524 0.045438096 0.73400003 1981288
-0.03555429 0.045314286 0.73200005 7316922
-0.034160003 0.045314286 0.73200005 12637902
-0.032765716 0.045314286 0.73200005 13162978
-0.03137143 0.045314286 0.73200005 13686749
-0.029977145 0.045314286 0.73200005 13620952
-0.028543809 0.045252379 0.73100001 13555157
-0.027151428 0.045252379 0.73100001 13488851
-0.025688572 0.045128573 0.72900003 13423314
-0.024266668 0.04506667 0.72800004 13357521
-0.022880001 0.04506667 0.72800004 13291727
-0.021434287 0.04494286 0.72600001 13291214
-0.020051429 0.04494286 0.72600001 13356492
-0.018668571 0.04494286 0.72600001 13027786
-0.017261904 0.044880953 0.72500002 12699080
-0.015880954 0.044880953 0.72500002 12567239
-0.014500001 0.044880953 0.72500002 12436164
-0.013119048 0.044880953 0.72500002 12305345
-0.011738095 0.044880953 0.72500002 12173503
