# .PCD v0.7 - Point Cloud Data file format
VERSION 0.7
FIELDS x y z rgba
SIZE 4 4 4 4
TYPE F F F U
COUNT 1 1 1 1
WIDTH 1077
HEIGHT 1
VIEWPOINT 0 0 0 1 0 0 0
POINTS 1077
DATA ascii
0.011640953 -0.034922861 0.71900004 13751774
0.013010478 -0.034922861 0.71900004 13554906
0.01434 -0.034825716 0.71700001 13291734
0.015705716 -0.034825716 0.71700001 13029332
0.017071428 -0.034825716 0.71700001 12699857
0.018437143 -0.034825716 0.71700001 12437193
0.019802855 -0.034825716 0.71700001 12040385
0.021168573 -0.034825716 0.71700001 11712702
0.022534285 -0.034825716 0.71700001 11316924
0.023966668 -0.034922861 0.71900004 10923187
0.025336191 -0.034922861 0.71900004 10660266
0.026705716 -0.034922861 0.71900004 10395288
0.028114285 -0.034971431 0.72000003 9275271
0.029485716 -0.034971431 0.72000003 8226434
0.030857144 -0.034971431 0.72000003 8553342
0.03222857 -0.034971431 0.72000003 8883331
0.037545718 -0.037545718 0.77300006 9212301
0.039018098 -0.037545718 0.77300006 9277841
0.040490478 -0.037545718 0.77300006 9343379
0.041962862 -0.037545718 0.77300006 9343382
0.043435238 -0.037545718 0.77300006 9343378
0.044907622 -0.037545718 0.77300006 9277582
0.046380006 -0.037545718 0.77300006 9212043
0.047852382 -0.037545718 0.77300006 9146248
0.049452383 -0.037642859 0.77500004 9146248
0.050928574 -0.037642859 0.77500004 9080200
0.052540001 -0.03774 0.77700001 9013893
0.054019999 -0.03774 0.77700001 8882819
0.055642858 -0.037837148 0.77900004 8750977
0.0572 -0.037885718 0.78000003 8488319
0.058836192 -0.037982859 0.78200006 8290939
0.060325719 -0.037982859 0.78200006 8025975
0.061973337 -0.038079999 0.78400004 7763571
0.063628569 -0.038177144 0.78600001 7499120
0.065125719 -0.038177144 0.78600001 7236972
0.066792384 -0.038274288 0.78800005 7564904
0.068553336 -0.038419999 0.79100001 7895152
0.07006 -0.038419999 0.79100001 8226680
0.071114287 -0.038177144 0.78600001 8619898
-0.037240002 -0.037240002 0.79800004 2636656
-0.035720002 -0.037240002 0.79800004 7841466
-0.034157146 -0.037193336 0.79700005 13033938
-0.032475241 -0.037006669 0.79300004 13360618
-0.030808574 -0.036820002 0.78900003 13752549
-0.029305715 -0.036820002 0.78900003 13752544
-0.027697144 -0.036679998 0.78600001 13752801
-0.0262 -0.036679998 0.78600001 13818594
-0.024640001 -0.036586668 0.78400004 13950176
-0.023087621 -0.036493339 0.78200006 13818591
-0.021515239 -0.036353335 0.77900004 13752798
-0.02003143 -0.036353335 0.77900004 13621214
-0.0185 -0.036260001 0.77700001 13555419
-0.01702 -0.036260001 0.77700001 13423576
-0.015539999 -0.036260001 0.77700001 13291990
-0.01406 -0.036260001 0.77700001 13225940
-0.012547619 -0.036166668 0.77500004 13159635
-0.01107143 -0.036166668 0.77500004 12962514
-0.0095704766 -0.036073335 0.77300006 12830927
-0.0080980957 -0.036073335 0.77300006 12699596
-0.0066257147 -0.036073335 0.77300006 12568010
-0.0051533333 -0.036073335 0.77300006 12436680
-0.0036809526 -0.036073335 0.77300006 12370116
-0.0022085716 -0.036073335 0.77300006 12172737
-0.00073619053 -0.036073335 0.77300006 11975613
0.00073619053 -0.036073335 0.77300006 11581369
0.002057143 -0.033600003 0.72000003 11187654
0.0034285716 -0.033600003 0.72000003 12238548
0.0047999998 -0.033600003 0.72000003 13359840
0.0061714291 -0.033600003 0.72000003 13953004
0.007542857 -0.033600003 0.72000003 14543080
0.0089019043 -0.033553336 0.71900004 14212324
0.010271429 -0.033553336 0.71900004 13884897
0.011608572 -0.033459999 0.71700001 13686495
0.012974286 -0.033459999 0.71700001 13489882
0.01434 -0.033459999 0.71700001 13225941
0.015705716 -0.033459999 0.71700001 12963540
0.017000001 -0.033320002 0.71400005 12633812
0.018360002 -0.033320002 0.71400005 12371655
0.019720001 -0.033320002 0.71400005 12040123
0.021139048 -0.033413332 0.71600002 11712445
0.022502856 -0.033413332 0.71600002 11251903
0.0239 -0.033459999 0.71700001 10857391
0.025265714 -0.033459999 0.71700001 10593440
0.026705716 -0.033553336 0.71900004 10329490
0.028075241 -0.033553336 0.71900004 9209988
0.029485716 -0.033600003 0.72000003 8161159
0.030857144 -0.033600003 0.72000003 8489098
0.03222857 -0.033600003 0.72000003 8883591
0.037642859 -0.036166668 0.77500004 9212298
0.039018098 -0.036073335 0.77300006 9277840
0.040490478 -0.036073335 0.77300006 9343637
0.041962862 -0.036073335 0.77300006 9343386
0.043435238 -0.036073335 0.77300006 9277844
0.044907622 -0.036073335 0.77300006 9212303
0.046380006 -0.036073335 0.77300006 9212556
0.047976192 -0.036166668 0.77500004 9146505
0.049452383 -0.036166668 0.77500004 9146249
0.050928574 -0.036166668 0.77500004 9080458
0.052540001 -0.036260001 0.77700001 8948616
0.054159053 -0.036353335 0.77900004 8817030
0.055642858 -0.036353335 0.77900004 8685185
0.057126667 -0.036353335 0.77900004 8488317
0.058685716 -0.036400001 0.78000003 8291193
0.060325719 -0.036493339 0.78200006 8025974
0.061973337 -0.036586668 0.78400004 7764338
0.063628569 -0.036679998 0.78600001 7367279
0.065291435 -0.036773335 0.78800005 6973032
0.066877142 -0.036820002 0.78900003 7236450
0.068553336 -0.036913332 0.79100001 7434860
0.070237145 -0.037006669 0.79300004 6118006
0.071747623 -0.037006669 0.79300004 4866932
-0.034157146 -0.035675243 0.79700005 13033425
-0.032393333 -0.035406668 0.79100001 13426153
-0.030808574 -0.035317142 0.78900003 13818085
-0.029268574 -0.035272382 0.78800005 13818337
-0.027697144 -0.03518286 0.78600001 13818595
-0.026133334 -0.035093337 0.78400004 13884645
-0.024640001 -0.035093337 0.78400004 13950178
-0.023087621 -0.035003811 0.78200006 13818848
-0.021515239 -0.034869526 0.77900004 13752799
-0.01998 -0.034779999 0.77700001 13621213
-0.0185 -0.034779999 0.77700001 13489370
-0.01702 -0.034779999 0.77700001 13358040
-0.015539999 -0.034779999 0.77700001 13291989
-0.01402381 -0.034690477 0.77500004 13225939
-0.012547619 -0.034690477 0.77500004 13225426
-0.01107143 -0.034690477 0.77500004 13028049
-0.0095704766 -0.034600955 0.77300006 12896463
-0.0080980957 -0.034600955 0.77300006 12765388
-0.0066257147 -0.034600955 0.77300006 12633546
-0.0051466669 -0.034556191 0.77200001 12502472
-0.0036761905 -0.034556191 0.77200001 12436165
-0.0022057144 -0.034556191 0.77200001 12238787
-0.00073619053 -0.034600955 0.77300006 12040896
0.00073619053 -0.034600955 0.77300006 11647421
0.002057143 -0.03222857 0.72000003 11318468
0.0034285716 -0.03222857 0.72000003 12238284
0.0047999998 -0.03222857 0.72000003 13161947
0.0061714291 -0.03222857 0.72000003 13822187
0.007542857 -0.03222857 0.72000003 14542311
0.0089019043 -0.032183811 0.71900004 14212067
0.010271429 -0.032183811 0.71900004 13884385
0.011608572 -0.032094285 0.71700001 13621215
0.012956191 -0.032049526 0.71600002 13423833
0.01432 -0.032049526 0.71600002 13160404
0.01564 -0.031960003 0.71400005 12897490
0.017000001 -0.031960003 0.71400005 12567761
0.018360002 -0.031960003 0.71400005 12305608
0.019720001 -0.031960003 0.71400005 11974591
0.021139048 -0.032049526 0.71600002 11712191
0.022502856 -0.032049526 0.71600002 11252416
0.023866668 -0.032049526 0.71600002 10792368
0.025265714 -0.032094285 0.71700001 10526624
0.02663143 -0.032094285 0.71700001 10264210
0.027997142 -0.032094285 0.71700001 9210243
0.029444763 -0.032183811 0.71900004 8161669
0.030814288 -0.032183811 0.71900004 8489351
0.032183811 -0.032183811 0.71900004 8883589
0.033553336 -0.032183811 0.71900004 9015172
0.037545718 -0.034600955 0.77300006 9212296
0.039018098 -0.034600955 0.77300006 9277837
0.040490478 -0.034600955 0.77300006 9409168
0.041962862 -0.034600955 0.77300006 9343123
0.043435238 -0.034600955 0.77300006 9277840
0.044907622 -0.034600955 0.77300006 9212301
0.046380006 -0.034600955 0.77300006 9212299
0.047852382 -0.034600955 0.77300006 9212296
0.049452383 -0.034690477 0.77500004 9211787
0.050928574 -0.034690477 0.77500004 9080718
0.052540001 -0.034779999 0.77700001 8948616
0.054019999 -0.034779999 0.77700001 8816771
0.055500001 -0.034779999 0.77700001 8685184
0.057126667 -0.034869526 0.77900004 8488316
0.058685716 -0.034914285 0.78000003 8290680
0.060325719 -0.035003811 0.78200006 8026228
0.061973337 -0.035093337 0.78400004 7763825
0.063628569 -0.03518286 0.78600001 7235437
0.065291435 -0.035272382 0.78800005 6776680
0.066877142 -0.035317142 0.78900003 6908002
0.068553336 -0.035406668 0.79100001 7040870
0.07006 -0.035406668 0.79100001 4074602
0.071747623 -0.035496194 0.79300004 1124709
0.073258102 -0.035496194 0.79300004 1255009
-0.034157146 -0.034157146 0.79700005 12967633
-0.032393333 -0.0339 0.79100001 13360873
-0.030808574 -0.033814285 0.78900003 13818085
-0.029268574 -0.033771429 0.78800005 13818082
-0.027697144 -0.033685714 0.78600001 13884389
-0.0262 -0.033685714 0.78600001 13884648
-0.024640001 -0.033600003 0.78400004 13950437
-0.023087621 -0.033514287 0.78200006 13884386
-0.021515239 -0.033385713 0.77900004 13752799
-0.01998 -0.033300001 0.77700001 13620957
-0.0185 -0.033300001 0.77700001 13489114
-0.01702 -0.033300001 0.77700001 13357784
-0.015500002 -0.033214286 0.77500004 13291989
-0.01402381 -0.033214286 0.77500004 13225938
-0.012547619 -0.033214286 0.77500004 13160401
-0.01107143 -0.033214286 0.77500004 13028305
-0.0095704766 -0.033128574 0.77300006 12896719
-0.0080980957 -0.033128574 0.77300006 12765389
-0.0066257147 -0.033128574 0.77300006 12633802
-0.0051466669 -0.033085715 0.77200001 12502728
-0.0036761905 -0.033085715 0.77200001 12437190
-0.0022057144 -0.033085715 0.77200001 12238021
-0.00073619053 -0.033128574 0.77300006 12040899
0.00073619053 -0.033128574 0.77300006 11712706
0.002057143 -0.030857144 0.72000003 11384003
0.0034285716 -0.030857144 0.72000003 12172228
0.0047999998 -0.030857144 0.72000003 13029847
0.0061714291 -0.030857144 0.72000003 13755882
0.0075323815 -0.030814288 0.71900004 14541542
0.0089019043 -0.030814288 0.71900004 14212323
0.010271429 -0.030814288 0.71900004 13884129
0.011608572 -0.030728571 0.71700001 13620447
0.012956191 -0.030685715 0.71600002 13357785
0.01432 -0.030685715 0.71600002 13094611
0.015683809 -0.030685715 0.71600002 12831441
0.017047618 -0.030685715 0.71600002 12568015
0.018360002 -0.0306 0.71400005 12239561
0.019720001 -0.0306 0.71400005 11974595
0.021139048 -0.030685715 0.71600002 11646658
0.022534285 -0.030728571 0.71700001 11252161
0.023866668 -0.030685715 0.71600002 10792881
0.025265714 -0.030728571 0.71700001 10526881
0.02663143 -0.030728571 0.71700001 10198930
0.028075241 -0.030814288 0.71900004 9209731
0.029444763 -0.030814288 0.71900004 8160387
0.030814288 -0.030814288 0.71900004 8554884
0.032183811 -0.030814288 0.71900004 8949380
0.036073335 -0.033128574 0.77300006 9080964
0.037545718 -0.033128574 0.77300006 9212295
0.039018098 -0.033128574 0.77300006 9277834
0.040490478 -0.033128574 0.77300006 9343627
0.041962862 -0.033128574 0.77300006 9277837
0.043435238 -0.033128574 0.77300006 9277836
0.044907622 -0.033128574 0.77300006 9212300
0.046500001 -0.033214286 0.77500004 9146506
0.047976192 -0.033214286 0.77500004 9146504
0.049452383 -0.033214286 0.77500004 9146509
0.050928574 -0.033214286 0.77500004 9014930
0.052540001 -0.033300001 0.77700001 8948873
0.054019999 -0.033300001 0.77700001 8817281
0.055642858 -0.033385713 0.77900004 8685182
0.057126667 -0.033385713 0.77900004 8488316
0.058685716 -0.033428572 0.78000003 8290423
0.060325719 -0.033514287 0.78200006 8026483
0.061973337 -0.033600003 0.78400004 7763567
0.063628569 -0.033685714 0.78600001 7432300
0.065291435 -0.033771429 0.78800005 7039079
0.066877142 -0.033814285 0.78900003 7236195
0.068553336 -0.0339 0.79100001 7433312
0.070237145 -0.033985715 0.79300004 6185310
0.071747623 -0.033985715 0.79300004 4937559
0.073258102 -0.033985715 0.79300004 5003088
-0.032311428 -0.032311428 0.78900003 13361127
-0.030769525 -0.03227048 0.78800005 13818084
-0.029268574 -0.03227048 0.78800005 13883616
-0.027697144 -0.032188572 0.78600001 13949923
-0.0262 -0.032188572 0.78600001 13950182
-0.024640001 -0.032106668 0.78400004 14015971
-0.023028571 -0.031942859 0.78000003 13884384
-0.021515239 -0.031901907 0.77900004 13818334
-0.01998 -0.031819999 0.77700001 13620699
-0.0185 -0.031819999 0.77700001 13489113
-0.016976191 -0.031738095 0.77500004 13423064
-0.015500002 -0.031738095 0.77500004 13357525
-0.01402381 -0.031738095 0.77500004 13226194
-0.012547619 -0.031738095 0.77500004 13094610
-0.011042858 -0.031656191 0.77300006 12963025
-0.0095704766 -0.031656191 0.77300006 12896975
-0.0080876192 -0.031615239 0.77200001 12765645
-0.0066171428 -0.031615239 0.77200001 12699594
-0.0051466669 -0.031615239 0.77200001 12568520
-0.0036761905 -0.031615239 0.77200001 12436934
-0.0022057144 -0.031615239 0.77200001 12237508
-0.00073523808 -0.031615239 0.77200001 12040641
0.00073523808 -0.031615239 0.77200001 11778238
0.0022057144 -0.031615239 0.77200001 11515841
0.0034285716 -0.029485716 0.72000003 12171972
0.0047999998 -0.029485716 0.72000003 12899288
0.0061714291 -0.029485716 0.72000003 13755115
0.0075323815 -0.029444763 0.71900004 14606822
0.0089019043 -0.029444763 0.71900004 14212833
0.010271429 -0.029444763 0.71900004 13884383
0.011640953 -0.029444763 0.71900004 13619934
0.012974286 -0.029362857 0.71700001 13357528
0.01432 -0.029321905 0.71600002 13094355
0.01564 -0.029240001 0.71400005 12830929
0.017047618 -0.029321905 0.71600002 12502992
0.018360002 -0.029240001 0.71400005 12239815
0.019775238 -0.029321905 0.71600002 11909054
0.021139048 -0.029321905 0.71600002 11646911
0.022502856 -0.029321905 0.71600002 11251904
0.023866668 -0.029321905 0.71600002 10858160
0.025265714 -0.029362857 0.71700001 10527136
0.02663143 -0.029362857 0.71700001 10198673
0.028075241 -0.029444763 0.71900004 9209218
0.029444763 -0.029444763 0.71900004 8225662
0.030814288 -0.029444763 0.71900004 8620411
0.032183811 -0.029444763 0.71900004 9014400
0.036026664 -0.031615239 0.77200001 9081222
0.037545718 -0.031656191 0.77300006 9212298
0.038967621 -0.031615239 0.77200001 9212815
0.040438093 -0.031615239 0.77200001 9278093
0.041908573 -0.031615239 0.77200001 9278092
0.043435238 -0.031656191 0.77300006 9278093
0.044907622 -0.031656191 0.77300006 9212559
0.046500001 -0.031738095 0.77500004 9146251
0.047976192 -0.031738095 0.77500004 9146248
0.049452383 -0.031738095 0.77500004 9145994
0.050928574 -0.031738095 0.77500004 9014925
0.052540001 -0.031819999 0.77700001 8948871
0.054019999 -0.031819999 0.77700001 8817793
0.055500001 -0.031819999 0.77700001 8685438
0.057126667 -0.031901907 0.77900004 8488316
0.05861048 -0.031901907 0.77900004 8356215
0.060171433 -0.031942859 0.78000003 8092531
0.061973337 -0.032106668 0.78400004 7828592
0.063628569 -0.032188572 0.78600001 7563885
0.065291435 -0.03227048 0.78800005 7367531
0.066877142 -0.032311428 0.78900003 7630184
0.068553336 -0.032393333 0.79100001 7893613
0.070237145 -0.032475241 0.79300004 8290930
0.071747623 -0.032475241 0.79300004 8749933
0.073258102 -0.032475241 0.79300004 8815720
-0.0339 -0.030886667 0.79100001 12836049
-0.032311428 -0.030808574 0.78900003 13295590
-0.030808574 -0.030808574 0.78900003 13818082
-0.029268574 -0.030769525 0.78800005 13883615
-0.027697144 -0.03069143 0.78600001 14015713
-0.0262 -0.03069143 0.78600001 14015716
-0.024640001 -0.030613335 0.78400004 14081505
-0.023087621 -0.030535242 0.78200006 13950175
-0.021515239 -0.030418096 0.77900004 13883868
-0.01998 -0.030339999 0.77700001 13686490
-0.0185 -0.030339999 0.77700001 13554905
-0.016976191 -0.030261906 0.77500004 13423064
-0.015500002 -0.030261906 0.77500004 13357525
-0.01402381 -0.030261906 0.77500004 13226195
-0.012547619 -0.030261906 0.77500004 13094610
-0.01107143 -0.030261906 0.77500004 12963026
-0.0095704766 -0.030183813 0.77300006 12897232
-0.0080876192 -0.030144762 0.77200001 12765646
-0.0066171428 -0.030144762 0.77200001 12699851
-0.0051466669 -0.030144762 0.77200001 12568264
-0.0036761905 -0.030144762 0.77200001 12502213
-0.0022057144 -0.030144762 0.77200001 12304579
-0.00073523808 -0.030144762 0.77200001 12107198
0.00073523808 -0.030144762 0.77200001 11778490
0.0022057144 -0.030144762 0.77200001 11515583
0.0034238098 -0.028075241 0.71900004 12171717
0.0047933338 -0.028075241 0.71900004 12834265
0.0061628572 -0.028075241 0.71900004 13690093
0.0075323815 -0.028075241 0.71900004 14541286
0.0089019043 -0.028075241 0.71900004 14212576
0.010271429 -0.028075241 0.71900004 13884894
0.011608572 -0.027997142 0.71700001 13554653
0.012956191 -0.027958095 0.71600002 13291736
0.014280002 -0.027880002 0.71400005 13028563
0.01564 -0.027880002 0.71400005 12765138
0.017000001 -0.027880002 0.71400005 12502737
0.018360002 -0.027880002 0.71400005 12240069
0.019720001 -0.027880002 0.71400005 11909049
0.021139048 -0.027958095 0.71600002 11647164
0.022502856 -0.027958095 0.71600002 11317695
0.023866668 -0.027958095 0.71600002 10988975
0.025230477 -0.027958095 0.71600002 10395807
0.02663143 -0.027997142 0.71700001 9805456
0.028075241 -0.028075241 0.71900004 9078145
0.029444763 -0.028075241 0.71900004 8422009
0.030814288 -0.028075241 0.71900004 8685682
0.032183811 -0.028075241 0.71900004 9014141
0.035933334 -0.030066667 0.77000004 9080969
0.037497144 -0.030144762 0.77200001 9212558
0.038967621 -0.030144762 0.77200001 9212308
0.040438093 -0.030144762 0.77200001 9212304
0.041908573 -0.030144762 0.77200001 9212556
0.043435238 -0.030183813 0.77300006 9212047
0.044907622 -0.030183813 0.77300006 9080978
0.046380006 -0.030183813 0.77300006 9014925
0.047976192 -0.030261906 0.77500004 9015177
0.049452383 -0.030261906 0.77500004 9080200
0.050928574 -0.030261906 0.77500004 9014408
0.052540001 -0.030339999 0.77700001 8948868
0.054019999 -0.030339999 0.77700001 8817537
0.055500001 -0.030339999 0.77700001 8751231
0.057126667 -0.030418096 0.77900004 8553853
0.05861048 -0.030418096 0.77900004 8356472
0.060171433 -0.030457145 0.78000003 8092275
0.061973337 -0.030613335 0.78400004 7762801
0.063628569 -0.03069143 0.78600001 7564143
0.065291435 -0.030769525 0.78800005 7299950
0.066877142 -0.030808574 0.78900003 7695982
0.068553336 -0.030886667 0.79100001 8026234
0.07006 -0.030886667 0.79100001 8554375
0.071747623 -0.030964762 0.79300004 9013891
0.073258102 -0.030964762 0.79300004 9079168
0.074768573 -0.030964762 0.79300004 9209986
-0.0339 -0.029380001 0.79100001 12770514
-0.032311428 -0.029305715 0.78900003 13295590
-0.030808574 -0.029305715 0.78900003 13818083
-0.029268574 -0.029268574 0.78800005 13949408
-0.027697144 -0.029194286 0.78600001 14081252
-0.0262 -0.029194286 0.78600001 14147304
-0.024640001 -0.029120002 0.78400004 14212580
-0.023087621 -0.029045716 0.78200006 14081504
-0.021515239 -0.028934287 0.77900004 13949661
-0.01998 -0.028859999 0.77700001 13752538
-0.0185 -0.028859999 0.77700001 13620440
-0.016976191 -0.028785717 0.77500004 13488855
-0.015500002 -0.028785717 0.77500004 13423062
-0.01402381 -0.028785717 0.77500004 13226453
-0.012547619 -0.028785717 0.77500004 13094611
-0.01107143 -0.028785717 0.77500004 13028818
-0.0095952386 -0.028785717 0.77500004 12963024
-0.0080980957 -0.028711431 0.77300006 12831183
-0.0066257147 -0.028711431 0.77300006 12699596
-0.0051466669 -0.028674286 0.77200001 12633801
-0.0036761905 -0.028674286 0.77200001 12567750
-0.0022057144 -0.028674286 0.77200001 12370627
-0.00073523808 -0.028674286 0.77200001 12172992
0.00073523808 -0.028674286 0.77200001 11844542
0.0022057144 -0.028674286 0.77200001 11516609
0.0034238098 -0.026705716 0.71900004 12171717
0.0047933338 -0.026705716 0.71900004 12833240
0.0061628572 -0.026705716 0.71900004 13690603
0.0075323815 -0.026705716 0.71900004 14541541
0.0089019043 -0.026705716 0.71900004 14212576
0.010271429 -0.026705716 0.71900004 13884126
0.011608572 -0.02663143 0.71700001 13554908
0.012956191 -0.026594287 0.71600002 13291223
0.014280002 -0.026520003 0.71400005 13028562
0.01564 -0.026520003 0.71400005 12765392
0.017000001 -0.026520003 0.71400005 12502477
0.018360002 -0.026520003 0.71400005 12239812
0.019720001 -0.026520003 0.71400005 11974844
0.02108 -0.026520003 0.71400005 11711933
0.022502856 -0.026594287 0.71600002 11383486
0.023866668 -0.026594287 0.71600002 11120046
0.025230477 -0.026594287 0.71600002 10264733
0.02663143 -0.02663143 0.71700001 9477519
0.028075241 -0.026705716 0.71900004 9012866
0.029444763 -0.026705716 0.71900004 8618623
0.030814288 -0.026705716 0.71900004 8816765
0.032183811 -0.026705716 0.71900004 9014147
0.035840001 -0.028525714 0.76800001 9080970
0.0374 -0.0286 0.77000004 9212046
0.038967621 -0.028674286 0.77200001 9212050
0.040438093 -0.028674286 0.77200001 9212303
0.041908573 -0.028674286 0.77200001 9147020
0.043379046 -0.028674286 0.77200001 9146256
0.044907622 -0.028711431 0.77300006 9015444
0.046500001 -0.028785717 0.77500004 8949645
0.047976192 -0.028785717 0.77500004 8949638
0.049452383 -0.028785717 0.77500004 9014664
0.050928574 -0.028785717 0.77500004 8948874
0.052540001 -0.028859999 0.77700001 8948615
0.054019999 -0.028859999 0.77700001 8882820
0.055500001 -0.028859999 0.77700001 8882048
0.056980003 -0.028859999 0.77700001 8619389
0.05861048 -0.028934287 0.77900004 8421495
0.060171433 -0.02897143 0.78000003 8092274
0.061973337 -0.029120002 0.78400004 7762799
0.063628569 -0.029194286 0.78600001 7498861
0.065291435 -0.029268574 0.78800005 7302507
0.066792384 -0.029268574 0.78800005 7761770
0.068380006 -0.029305715 0.78900003 8223861
0.07006 -0.029380001 0.79100001 8752257
0.071747623 -0.029454287 0.79300004 9342593
0.073258102 -0.029454287 0.79300004 9408641
0.074768573 -0.029454287 0.79300004 9540227
-0.0339 -0.027873334 0.79100001 12770771
-0.032311428 -0.027802859 0.78900003 13295847
-0.030808574 -0.027802859 0.78900003 13818084
-0.029268574 -0.027767621 0.78800005 13949409
-0.027697144 -0.027697144 0.78600001 14081510
-0.0262 -0.027697144 0.78600001 14147052
-0.024640001 -0.027626667 0.78400004 14212838
-0.023087621 -0.027556192 0.78200006 14081505
-0.021515239 -0.027450478 0.77900004 14015453
-0.01998 -0.027380001 0.77700001 13818586
-0.0185 -0.027380001 0.77700001 13685976
-0.01702 -0.027380001 0.77700001 13554391
-0.015500002 -0.027309524 0.77500004 13423319
-0.01402381 -0.027309524 0.77500004 13291735
-0.012547619 -0.027309524 0.77500004 13160148
-0.01107143 -0.027309524 0.77500004 13028818
-0.0095952386 -0.027309524 0.77500004 12963281
-0.0080876192 -0.027203809 0.77200001 12830929
-0.0066171428 -0.027203809 0.77200001 12699341
-0.0051466669 -0.027203809 0.77200001 12633802
-0.0036761905 -0.027203809 0.77200001 12568007
-0.0022057144 -0.027203809 0.77200001 12370372
-0.00073523808 -0.027203809 0.77200001 12173251
0.00073523808 -0.027203809 0.77200001 11910338
0.0022057144 -0.027203809 0.77200001 11713475
0.0034285716 -0.02537143 0.72000003 12172229
0.0047933338 -0.025336191 0.71900004 12635863
0.0061628572 -0.025336191 0.71900004 13625321
0.0075323815 -0.025336191 0.71900004 14607332
0.0089019043 -0.025336191 0.71900004 14146784
0.010271429 -0.025336191 0.71900004 13752542
0.011608572 -0.025265714 0.71700001 13488604
0.012956191 -0.025230477 0.71600002 13225431
0.01432 -0.025230477 0.71600002 12963026
0.01564 -0.025160002 0.71400005 12700110
0.017000001 -0.025160002 0.71400005 12436426
0.018360002 -0.025160002 0.71400005 12174020
0.019720001 -0.025160002 0.71400005 11909055
0.02108 -0.025160002 0.71400005 11645886
0.022502856 -0.025230477 0.71600002 11317438
0.023866668 -0.025230477 0.71600002 11054765
0.025230477 -0.025230477 0.71600002 10264476
0.02663143 -0.025265714 0.71700001 9543055
0.027997142 -0.025265714 0.71700001 8947331
0.029444763 -0.025336191 0.71900004 8356486
0.030814288 -0.025336191 0.71900004 8685449
0.032183811 -0.025336191 0.71900004 9014410
0.035933334 -0.027133334 0.77000004 9146507
0.0374 -0.027133334 0.77000004 9277837
0.038866669 -0.027133334 0.77000004 9212048
0.040438093 -0.027203809 0.77200001 9146766
0.041908573 -0.027203809 0.77200001 9081229
0.043379046 -0.027203809 0.77200001 9015186
0.044907622 -0.027239049 0.77300006 8949655
0.046500001 -0.027309524 0.77500004 8817805
0.047976192 -0.027309524 0.77500004 8948868
0.049452383 -0.027309524 0.77500004 9145736
0.050928574 -0.027309524 0.77500004 9014413
0.052540001 -0.027380001 0.77700001 8948362
0.054019999 -0.027380001 0.77700001 8882568
0.055500001 -0.027380001 0.77700001 8882050
0.056980003 -0.027380001 0.77700001 8619389
0.05861048 -0.027450478 0.77900004 8420983
0.060094289 -0.027450478 0.77900004 8092273
0.061815243 -0.027556192 0.78200006 7763054
0.063628569 -0.027697144 0.78600001 7433579
0.065125719 -0.027697144 0.78600001 7104616
0.066792384 -0.027767621 0.78800005 7236710
0.068380006 -0.027802859 0.78900003 7372913
0.07006 -0.027873334 0.79100001 6061436
0.071747623 -0.02794381 0.79300004 4684671
0.073258102 -0.02794381 0.79300004 4750466
0.074768573 -0.02794381 0.79300004 4816260
0.076279052 -0.02794381 0.79300004 4880775
-0.0339 -0.026366666 0.79100001 12770770
-0.032311428 -0.026300002 0.78900003 13296103
-0.030808574 -0.026300002 0.78900003 13883621
-0.029268574 -0.026266668 0.78800005 13949410
-0.027697144 -0.0262 0.78600001 14081510
-0.026133334 -0.026133334 0.78400004 14148330
-0.024577145 -0.026066668 0.78200006 14278630
-0.023028571 -0.026000001 0.78000003 14147299
-0.021515239 -0.025966669 0.77900004 14081504
-0.01998 -0.025899999 0.77700001 13950428
-0.0185 -0.025899999 0.77700001 13817562
-0.01702 -0.025899999 0.77700001 13620184
-0.015500002 -0.025833335 0.77500004 13488855
-0.01402381 -0.025833335 0.77500004 13357270
-0.012547619 -0.025833335 0.77500004 13225940
-0.01107143 -0.025833335 0.77500004 13094610
-0.0095704766 -0.025766669 0.77300006 12963537
-0.0080876192 -0.025733333 0.77200001 12830672
-0.0066171428 -0.025733333 0.77200001 12699340
-0.0051466669 -0.025733333 0.77200001 12633801
-0.0036761905 -0.025733333 0.77200001 12568262
-0.0022057144 -0.025733333 0.77200001 12370372
-0.00073523808 -0.025733333 0.77200001 12239041
0.00073523808 -0.025733333 0.77200001 12041663
0.0022000002 -0.025666667 0.77000004 11910593
0.0034285716 -0.024 0.72000003 12172738
0.0047933338 -0.023966668 0.71900004 12504790
0.0061628572 -0.023966668 0.71900004 13560041
0.0075323815 -0.023966668 0.71900004 14672868
0.0089019043 -0.023966668 0.71900004 14146528
0.010242857 -0.0239 0.71700001 13687005
0.011608572 -0.0239 0.71700001 13422555
0.012956191 -0.023866668 0.71600002 13159897
0.014280002 -0.023800001 0.71400005 12897494
0.01564 -0.023800001 0.71400005 12700367
0.017000001 -0.023800001 0.71400005 12436168
0.018360002 -0.023800001 0.71400005 12174019
0.019720001 -0.023800001 0.71400005 11843263
0.02108 -0.023800001 0.71400005 11580606
0.022440001 -0.023800001 0.71400005 11316926
0.023866668 -0.023866668 0.71600002 11054254
0.025230477 -0.023866668 0.71600002 10330014
0.02663143 -0.0239 0.71700001 9608336
0.027997142 -0.0239 0.71700001 8816514
0.029444763 -0.023966668 0.71900004 8095618
0.030814288 -0.023966668 0.71900004 8554370
0.034377143 -0.025600001 0.76800001 9014405
0.035933334 -0.025666667 0.77000004 9212040
0.0374 -0.025666667 0.77000004 9408650
0.038866669 -0.025666667 0.77000004 9212044
0.040438093 -0.025733333 0.77200001 9080971
0.041908573 -0.025733333 0.77200001 9015690
0.043379046 -0.025733333 0.77200001 8949646
0.044907622 -0.025766669 0.77300006 8818321
0.046380006 -0.025766669 0.77300006 8752268
0.047852382 -0.025766669 0.77300006 9014406
0.049452383 -0.025833335 0.77500004 9276556
0.050928574 -0.025833335 0.77500004 9145491
0.052404761 -0.025833335 0.77500004 9014157
0.054019999 -0.025899999 0.77700001 8948103
0.055500001 -0.025899999 0.77700001 8882050
0.056980003 -0.025899999 0.77700001 8619390
0.058459997 -0.025899999 0.77700001 8421753
0.060094289 -0.025966669 0.77900004 8092277
0.061657146 -0.026000001 0.78000003 7828337
0.063466676 -0.026133334 0.78400004 7368300
0.065291435 -0.026266668 0.78800005 6908266
0.066792384 -0.026266668 0.78800005 6711656
0.068380006 -0.026300002 0.78900003 6579795
0.07006 -0.026366666 0.79100001 3280702
0.071566671 -0.026366666 0.79100001 68160
0.073258102 -0.026433334 0.79300004 66881
0.074768573 -0.026433334 0.79300004 66882
0.076279052 -0.026433334 0.79300004 66884
-0.033814285 -0.024797143 0.78900003 12705233
-0.032311428 -0.024797143 0.78900003 13294312
-0.030808574 -0.024797143 0.78900003 13883622
-0.029268574 -0.024765715 0.78800005 13949668
-0.027697144 -0.024702856 0.78600001 14081766
-0.026133334 -0.024640001 0.78400004 14147560
-0.024577145 -0.024577145 0.78200006 14213351
-0.023028571 -0.024514288 0.78000003 14147302
-0.02146 -0.024420001 0.77700001 14016226
-0.01998 -0.024420001 0.77700001 13884639
-0.0185 -0.024420001 0.77700001 13818076
-0.01702 -0.024420001 0.77700001 13620441
-0.015500002 -0.024357144 0.77500004 13489111
-0.01402381 -0.024357144 0.77500004 13357526
-0.012515238 -0.024294289 0.77300006 13291988
-0.011042858 -0.024294289 0.77300006 13160658
-0.0095704766 -0.024294289 0.77300006 13029328
-0.0080876192 -0.024262857 0.77200001 12963279
-0.0066171428 -0.024262857 0.77200001 12831948
-0.0051466669 -0.024262857 0.77200001 12765897
-0.0036761905 -0.024262857 0.77200001 12699846
-0.0022057144 -0.024262857 0.77200001 12436420
-0.00073523808 -0.024262857 0.77200001 12239552
0.00073333335 -0.024200002 0.77000004 12041917
0.0022000002 -0.024200002 0.77000004 11845310
0.0036666668 -0.024200002 0.77000004 12172992
0.0047933338 -0.022597143 0.71900004 12505045
0.0061628572 -0.022597143 0.71900004 13493482
0.0075323815 -0.022597143 0.71900004 14476517
0.0089019043 -0.022597143 0.71900004 14080992
0.010242857 -0.022534285 0.71700001 13752541
0.011608572 -0.022534285 0.71700001 13423323
0.012956191 -0.022502856 0.71600002 13159899
0.014280002 -0.022440001 0.71400005 12897499
0.01564 -0.022440001 0.71400005 12700625
0.017000001 -0.022440001 0.71400005 12370631
0.018360002 -0.022440001 0.71400005 12108483
0.019720001 -0.022440001 0.71400005 11843775
0.02108 -0.022440001 0.71400005 11582398
0.022440001 -0.022440001 0.71400005 11251390
0.023866668 -0.022502856 0.71600002 10988463
0.025230477 -0.022502856 0.71600002 10329505
0.02663143 -0.022534285 0.71700001 9673873
0.028075241 -0.022597143 0.71900004 8881794
0.029444763 -0.022597143 0.71900004 8160382
0.030814288 -0.022597143 0.71900004 8554363
0.034377143 -0.024137143 0.76800001 8949120
0.035933334 -0.024200002 0.77000004 9080710
0.0374 -0.024200002 0.77000004 9212039
0.038866669 -0.024200002 0.77000004 9146504
0.040438093 -0.024262857 0.77200001 9080968
0.041908573 -0.024262857 0.77200001 9015176
0.043379046 -0.024262857 0.77200001 8949642
0.044849522 -0.024262857 0.77200001 8949388
0.046380006 -0.024294289 0.77300006 8883594
0.047852382 -0.024294289 0.77300006 9014665
0.049324766 -0.024294289 0.77300006 9145745
0.050928574 -0.024357144 0.77500004 9079961
0.052404761 -0.024357144 0.77500004 9014415
0.054019999 -0.024420001 0.77700001 8948358
0.055500001 -0.024420001 0.77700001 8882306
0.056980003 -0.024420001 0.77700001 8619647
0.05861048 -0.024482857 0.77900004 8422780
0.060094289 -0.024482857 0.77900004 8091770
0.061657146 -0.024514288 0.78000003 7762804
0.063466676 -0.024640001 0.78400004 7368046
0.065125719 -0.024702856 0.78600001 6974316
0.066792384 -0.024765715 0.78800005 6974315
0.068380006 -0.024797143 0.78900003 6966582
0.069882862 -0.024797143 0.78900003 5253377
0.071566671 -0.02486 0.79100001 3606017
0.073073328 -0.02486 0.79100001 3474689
0.074579999 -0.02486 0.79100001 3408897
0.076279052 -0.024922857 0.79300004 3408897
-0.033814285 -0.023294287 0.78900003 12704464
-0.032311428 -0.023294287 0.78900003 13294312
-0.030808574 -0.023294287 0.78900003 13884134
-0.029268574 -0.023264764 0.78800005 13949924
-0.027697144 -0.023205714 0.78600001 14081510
-0.026133334 -0.023146667 0.78400004 14147560
-0.024577145 -0.023087621 0.78200006 14212839
-0.023028571 -0.023028571 0.78000003 14081766
-0.02146 -0.022940001 0.77700001 14015971
-0.01998 -0.022940001 0.77700001 13884383
-0.0185 -0.022940001 0.77700001 13818076
-0.01702 -0.022940001 0.77700001 13620954
-0.015500002 -0.022880953 0.77500004 13489111
-0.01402381 -0.022880953 0.77500004 13423317
-0.012515238 -0.022821905 0.77300006 13357524
-0.011042858 -0.022821905 0.77300006 13226451
-0.0095704766 -0.022821905 0.77300006 13160146
-0.0080876192 -0.022792382 0.77200001 13094865
-0.0066171428 -0.022792382 0.77200001 13028814
-0.0051466669 -0.022792382 0.77200001 12897996
-0.0036761905 -0.022792382 0.77200001 12831433
-0.0022057144 -0.022792382 0.77200001 12502727
-0.00073523808 -0.022792382 0.77200001 12239811
0.00073333335 -0.022733334 0.77000004 11976896
0.0022000002 -0.022733334 0.77000004 11780032
0.0034238098 -0.021227621 0.71900004 12107712
0.0047933338 -0.021227621 0.71900004 12504790
0.0061628572 -0.021227621 0.71900004 13361388
0.0075114286 -0.021168573 0.71700001 14278118
0.0088771433 -0.021168573 0.71700001 14015456
0.010242857 -0.021168573 0.71700001 13818589
0.011592381 -0.021139048 0.71600002 13489625
0.012920001 -0.02108 0.71400005 13159896
0.014280002 -0.02108 0.71400005 12961751
0.01564 -0.02108 0.71400005 12765646
0.017000001 -0.02108 0.71400005 12370629
0.018334286 -0.021050479 0.71300006 12043203
0.019692382 -0.021050479 0.71300006 11779009
0.02108 -0.02108 0.71400005 11582138
0.022440001 -0.02108 0.71400005 11251635
0.023866668 -0.021139048 0.71600002 10988461
0.025230477 -0.021139048 0.71600002 10329254
0.02663143 -0.021168573 0.71700001 9739155
0.028075241 -0.021227621 0.71900004 8947328
0.029444763 -0.021227621 0.71900004 8225663
0.030814288 -0.021227621 0.71900004 8554623
0.034377143 -0.022674287 0.76800001 8948869
0.035933334 -0.022733334 0.77000004 9014923
0.0374 -0.022733334 0.77000004 9080967
0.038967621 -0.022792382 0.77200001 9080707
0.040438093 -0.022792382 0.77200001 9080710
0.041908573 -0.022792382 0.77200001 9015176
0.043379046 -0.022792382 0.77200001 9015177
0.044907622 -0.022821905 0.77300006 9015179
0.046380006 -0.022821905 0.77300006 9080715
0.047852382 -0.022821905 0.77300006 9015179
0.049452383 -0.022880953 0.77500004 9014670
0.050928574 -0.022880953 0.77500004 9014674
0.052404761 -0.022880953 0.77500004 9014411
0.054019999 -0.022940001 0.77700001 8948612
0.055500001 -0.022940001 0.77700001 8882816
0.056980003 -0.022940001 0.77700001 8685949
0.05861048 -0.02299905 0.77900004 8488059
0.060094289 -0.02299905 0.77900004 8091514
0.061815243 -0.023087621 0.78200006 7697524
0.063466676 -0.023146667 0.78400004 7368046
0.065125719 -0.023205714 0.78600001 7105900
0.066792384 -0.023264764 0.78800005 7236970
0.068380006 -0.023294287 0.78900003 7432534
0.069882862 -0.023294287 0.78900003 7300418
0.071566671 -0.023353333 0.79100001 7168060
0.073258102 -0.023412382 0.79300004 6970422
0.074768573 -0.023412382 0.79300004 6838837
-0.035406668 -0.021846667 0.79100001 7447988
-0.0339 -0.021846667 0.79100001 12703950
-0.032311428 -0.021791428 0.78900003 13294057
-0.030808574 -0.021791428 0.78900003 13884390
-0.029305715 -0.021791428 0.78900003 13949924
-0.027767621 -0.021763811 0.78800005 14015718
-0.026133334 -0.021653336 0.78400004 14082024
-0.024577145 -0.021598097 0.78200006 14212839
-0.023028571 -0.021542858 0.78000003 14147047
-0.021515239 -0.021515239 0.77900004 14015715
-0.01998 -0.02146 0.77700001 13949920
-0.0185 -0.02146 0.77700001 13818333
-0.01702 -0.02146 0.77700001 13686491
-0.015500002 -0.021404762 0.77500004 13489368
-0.01402381 -0.021404762 0.77500004 13423573
-0.012515238 -0.021349525 0.77300006 13423572
-0.011042858 -0.021349525 0.77300006 13291988
-0.0095704766 -0.021349525 0.77300006 13160148
-0.0080876192 -0.021321906 0.77200001 13094100
-0.0066171428 -0.021321906 0.77200001 13028305
-0.0051466669 -0.021321906 0.77200001 12963023
-0.0036761905 -0.021321906 0.77200001 12963020
-0.0022057144 -0.021321906 0.77200001 12568010
-0.00073333335 -0.021266669 0.77000004 12174535
0.00073333335 -0.021266669 0.77000004 12042436
0.0021942856 -0.021211429 0.76800001 11977154
0.003409524 -0.019775238 0.71600002 12238784
0.0047599999 -0.019720001 0.71400005 12570071
0.0061371429 -0.019775238 0.71600002 13426670
0.0075009526 -0.019775238 0.71600002 14278119
0.0088647623 -0.019775238 0.71600002 14015969
0.010228572 -0.019775238 0.71600002 13753820
0.011592381 -0.019775238 0.71600002 13423576
0.012920001 -0.019720001 0.71400005 13094357
0.014280002 -0.019720001 0.71400005 12896467
0.01564 -0.019720001 0.71400005 12699851
0.016976191 -0.019692382 0.71300006 12371396
0.018334286 -0.019692382 0.71300006 12108995
0.019692382 -0.019692382 0.71300006 11779011
0.021050479 -0.019692382 0.71300006 11516598
0.022440001 -0.019720001 0.71400005 11185833
0.023800001 -0.019720001 0.71400005 10857642
0.025230477 -0.019775238 0.71600002 10395052
0.02663143 -0.019802855 0.71700001 9869973
0.028075241 -0.019858096 0.71900004 9012606
0.029444763 -0.019858096 0.71900004 8160129
0.030857144 -0.019885715 0.72000003 8489092
0.03222857 -0.019885715 0.72000003 8883082
0.035933334 -0.021266669 0.77000004 8949393
0.0374 -0.021266669 0.77000004 9080968
0.038967621 -0.021321906 0.77200001 9080703
0.040438093 -0.021321906 0.77200001 9080452
0.041908573 -0.021321906 0.77200001 9080457
0.043379046 -0.021321906 0.77200001 9080457
0.044849522 -0.021321906 0.77200001 9080714
0.046320003 -0.021321906 0.77200001 9080715
0.047852382 -0.021349525 0.77300006 9015181
0.049324766 -0.021349525 0.77300006 9014924
0.050797146 -0.021349525 0.77300006 9014668
0.052404761 -0.021404762 0.77500004 9014407
0.053880952 -0.021404762 0.77500004 8948610
0.055357147 -0.021404762 0.77500004 8883070
0.056980003 -0.02146 0.77700001 8685435
0.05861048 -0.021515239 0.77900004 8487802
0.060171433 -0.021542858 0.78000003 8092026
0.061815243 -0.021598097 0.78200006 7763572
0.063466676 -0.021653336 0.78400004 7237487
0.065125719 -0.021708572 0.78600001 6778732
0.066792384 -0.021763811 0.78800005 7434857
0.068380006 -0.021791428 0.78900003 8094070
0.069882862 -0.021791428 0.78900003 8360323
0.071566671 -0.021846667 0.79100001 8626551
0.073258102 -0.021901906 0.79300004 8560235
0.074768573 -0.021901906 0.79300004 8559721
-0.035406668 -0.020339999 0.79100001 7447733
-0.0339 -0.020339999 0.79100001 12703694
-0.032311428 -0.020288572 0.78900003 13295336
-0.030808574 -0.020288572 0.78900003 13884134
-0.029305715 -0.020288572 0.78900003 13883875
-0.027767621 -0.020262858 0.78800005 13949926
-0.026133334 -0.020160001 0.78400004 14082025
-0.024577145 -0.020108573 0.78200006 14278375
-0.023028571 -0.020057144 0.78000003 14147046
-0.021515239 -0.02003143 0.77900004 14081251
-0.01998 -0.01998 0.77700001 13950176
-0.0185 -0.01998 0.77700001 13883614
-0.01702 -0.01998 0.77700001 13686491
-0.015500002 -0.019928573 0.77500004 13554648
-0.01402381 -0.019928573 0.77500004 13489366
-0.012515238 -0.019877145 0.77300006 13488853
-0.011042858 -0.019877145 0.77300006 13357524
-0.0095580956 -0.019851428 0.77200001 13225940
-0.0080876192 -0.019851428 0.77200001 13093844
-0.0066171428 -0.019851428 0.77200001 13028562
-0.0051466669 -0.019851428 0.77200001 13094353
-0.0036761905 -0.019851428 0.77200001 13159886
-0.0022057144 -0.019851428 0.77200001 12633292
-0.00073523808 -0.019851428 0.77200001 12174277
0.00073523808 -0.019851428 0.77200001 12173759
0.0022000002 -0.0198 0.77000004 12173759
0.003409524 -0.01841143 0.71600002 12369855
0.0047599999 -0.018360002 0.71400005 12635349
0.0061371429 -0.01841143 0.71600002 13426668
0.0075009526 -0.01841143 0.71600002 14278373
0.0088647623 -0.01841143 0.71600002 14015199
0.010228572 -0.01841143 0.71600002 13753307
0.01156 -0.018360002 0.71400005 13423320
0.012920001 -0.018360002 0.71400005 13094612
0.014280002 -0.018360002 0.71400005 12831184
0.01564 -0.018360002 0.71400005 12634057
0.017000001 -0.018360002 0.71400005 12371650
0.018334286 -0.018334286 0.71300006 12174273
0.019692382 -0.018334286 0.71300006 11844544
0.02108 -0.018360002 0.71400005 11516088
0.022440001 -0.018360002 0.71400005 11120049
0.023800001 -0.018360002 0.71400005 10791852
0.025230477 -0.01841143 0.71600002 10395303
0.02663143 -0.018437143 0.71700001 10066835
0.027997142 -0.018437143 0.71700001 9078143
0.029444763 -0.018488573 0.71900004 8094592
0.030814288 -0.018488573 0.71900004 8423810
0.03222857 -0.018514287 0.72000003 8817798
0.036026664 -0.019851428 0.77200001 8949643
0.037497144 -0.019851428 0.77200001 9080711
0.038967621 -0.019851428 0.77200001 9080708
0.040438093 -0.019851428 0.77200001 9145991
0.041908573 -0.019851428 0.77200001 9145995
0.043379046 -0.019851428 0.77200001 9145995
0.044849522 -0.019851428 0.77200001 9080715
0.046320003 -0.019851428 0.77200001 9080716
0.047852382 -0.019877145 0.77300006 9080718
0.049324766 -0.019877145 0.77300006 9080716
0.050928574 -0.019928573 0.77500004 9080715
0.052404761 -0.019928573 0.77500004 9079944
0.054019999 -0.01998 0.77700001 8949381
0.055500001 -0.01998 0.77700001 8882816
0.056980003 -0.01998 0.77700001 8685179
0.058459997 -0.01998 0.77700001 8487800
0.060094289 -0.02003143 0.77900004 8158326
0.061657146 -0.020057144 0.78000003 7828851
0.063304767 -0.020108573 0.78200006 7172465
0.065125719 -0.020211428 0.78600001 6516843
0.066792384 -0.020262858 0.78800005 7632742
0.068293341 -0.020262858 0.78800005 8747117
0.069882862 -0.020288572 0.78900003 9409397
0.071385719 -0.020288572 0.78900003 10065008
0.073073328 -0.020339999 0.79100001 10196332
0.074579999 -0.020339999 0.79100001 10326888
-0.0339 -0.018833334 0.79100001 12638159
-0.032393333 -0.018833334 0.79100001 13228776
-0.030886667 -0.018833334 0.79100001 13883877
-0.029305715 -0.018785715 0.78900003 13883875
-0.027767621 -0.018761905 0.78800005 13949670
-0.026133334 -0.018666666 0.78400004 14082026
-0.024514288 -0.018571429 0.78000003 14278888
-0.02299905 -0.018547619 0.77900004 14147302
-0.021515239 -0.018547619 0.77900004 14081507
-0.01998 -0.0185 0.77700001 13950177
-0.0185 -0.0185 0.77700001 13818078
-0.016976191 -0.01845238 0.77500004 13686236
-0.015500002 -0.01845238 0.77500004 13489113
-0.01398762 -0.018404763 0.77300006 13488855
-0.012515238 -0.018404763 0.77300006 13423318
-0.011028571 -0.018380953 0.77200001 13291989
-0.0095580956 -0.018380953 0.77200001 13226452
-0.0080876192 -0.018380953 0.77200001 13095124
-0.0066171428 -0.018380953 0.77200001 12963796
-0.0051466669 -0.018380953 0.77200001 13094612
-0.0036761905 -0.018380953 0.77200001 13225681
-0.0022057144 -0.018380953 0.77200001 12764366
-0.00073523808 -0.018380953 0.77200001 12239556
0.00073523808 -0.018380953 0.77200001 12174011
0.0022000002 -0.018333334 0.77000004 12108477
0.0034 -0.017000001 0.71400005 12370111
0.0047599999 -0.017000001 0.71400005 12700628
0.0061200005 -0.017000001 0.71400005 13493226
0.0074800006 -0.017000001 0.71400005 14344163
0.0088400003 -0.017000001 0.71400005 14015197
0.010200001 -0.017000001 0.71400005 13753051
0.01156 -0.017000001 0.71400005 13423321
0.012920001 -0.017000001 0.71400005 13160403
0.014280002 -0.017000001 0.71400005 12897229
0.015618097 -0.016976191 0.71300006 12633799
0.017000001 -0.017000001 0.71400005 12371393
0.018334286 -0.016976191 0.71300006 12108735
0.019692382 -0.016976191 0.71300006 11778749
0.02108 -0.017000001 0.71400005 11515835
0.022440001 -0.017000001 0.71400005 11054266
0.023800001 -0.017000001 0.71400005 10660526
0.025230477 -0.017047618 0.71600002 10330275
0.026594287 -0.017047618 0.71600002 10067345
0.027997142 -0.017071428 0.71700001 9077888
0.029444763 -0.017119048 0.71900004 8160128
0.030814288 -0.017119048 0.71900004 8489088
0.034556191 -0.018380953 0.77200001 8818050
0.036026664 -0.018380953 0.77200001 8949637
0.037497144 -0.018380953 0.77200001 9015175
0.038967621 -0.018380953 0.77200001 9080457
0.040438093 -0.018380953 0.77200001 9145739
0.041908573 -0.018380953 0.77200001 9080461
0.043379046 -0.018380953 0.77200001 9080717
0.044849522 -0.018380953 0.77200001 9080717
0.046380006 -0.018404763 0.77300006 9080718
0.047852382 -0.018404763 0.77300006 9080719
0.049324766 -0.018404763 0.77300006 9080717
0.050928574 -0.01845238 0.77500004 9080715
0.052540001 -0.0185 0.77700001 9079945
0.054019999 -0.0185 0.77700001 8949128
0.055500001 -0.0185 0.77700001 8817026
0.057126667 -0.018547619 0.77900004 8620156
0.05861048 -0.018547619 0.77900004 8487799
0.060094289 -0.018547619 0.77900004 8093042
0.061657146 -0.018571429 0.78000003 7763314
0.063304767 -0.018619049 0.78200006 7237491
0.065125719 -0.018714285 0.78600001 6777195
0.066792384 -0.018761905 0.78800005 7433315
0.068380006 -0.018785715 0.78900003 8155237
0.069882862 -0.018785715 0.78900003 8220008
0.071566671 -0.018833334 0.79100001 8350570
0.073073328 -0.018833334 0.79100001 8548205
0.074579999 -0.018833334 0.79100001 8745831
-0.0339 -0.017326668 0.79100001 12573134
-0.032393333 -0.017326668 0.79100001 13229287
-0.030886667 -0.017326668 0.79100001 13883877
-0.029305715 -0.017282858 0.78900003 13883618
-0.027767621 -0.017260952 0.78800005 13949669
-0.026133334 -0.017173335 0.78400004 14082280
-0.024514288 -0.017085714 0.78000003 14278886
-0.02299905 -0.017063811 0.77900004 14213093
-0.02146 -0.01702 0.77700001 14147043
-0.01998 -0.01702 0.77700001 13950178
-0.01845238 -0.016976191 0.77500004 13818080
-0.016976191 -0.016976191 0.77500004 13620702
-0.015500002 -0.016976191 0.77500004 13489371
-0.01398762 -0.016932381 0.77300006 13423321
-0.012515238 -0.016932381 0.77300006 13423063
-0.011028571 -0.016910477 0.77200001 13291990
-0.0095580956 -0.016910477 0.77200001 13226198
-0.0080876192 -0.016910477 0.77200001 13095125
-0.0066171428 -0.016910477 0.77200001 12963798
-0.0051466669 -0.016910477 0.77200001 13161943
-0.0036761905 -0.016910477 0.77200001 13357265
-0.0022057144 -0.016910477 0.77200001 12830155
-0.00073523808 -0.016910477 0.77200001 12371142
0.00073523808 -0.016910477 0.77200001 12174530
0.0022057144 -0.016910477 0.77200001 12043203
0.0034 -0.01564 0.71400005 12370627
0.0047599999 -0.01564 0.71400005 12766680
0.0061200005 -0.01564 0.71400005 13559788
0.0074800006 -0.01564 0.71400005 14410213
0.0088400003 -0.01564 0.71400005 14080990
0.010200001 -0.01564 0.71400005 13753051
0.01156 -0.01564 0.71400005 13488857
0.012901906 -0.015618097 0.71300006 13225939
0.014260001 -0.015618097 0.71300006 12897741
0.015618097 -0.015618097 0.71300006 12634312
0.016976191 -0.015618097 0.71300006 12305603
0.018334286 -0.015618097 0.71300006 12042944
0.019692382 -0.015618097 0.71300006 11778494
0.021050479 -0.015618097 0.71300006 11516346
0.022440001 -0.01564 0.71400005 11054006
0.023800001 -0.01564 0.71400005 10594222
0.025230477 -0.015683809 0.71600002 10330790
0.026594287 -0.015683809 0.71600002 10067347
0.027997142 -0.015705716 0.71700001 9143168
0.029485716 -0.01577143 0.72000003 8291456
0.030857144 -0.01577143 0.72000003 8554624
0.034600955 -0.016932381 0.77300006 8883331
0.036073335 -0.016932381 0.77300006 8949638
0.037545718 -0.016932381 0.77300006 9014919
0.039018098 -0.016932381 0.77300006 9080201
0.040438093 -0.016910477 0.77200001 9145740
0.041908573 -0.016910477 0.77200001 9080719
0.043379046 -0.016910477 0.77200001 9080718
0.044849522 -0.016910477 0.77200001 9080462
0.046320003 -0.016910477 0.77200001 9080463
0.047852382 -0.016932381 0.77300006 9080465
0.049324766 -0.016932381 0.77300006 9146255
0.050797146 -0.016932381 0.77300006 9080972
0.052404761 -0.016976191 0.77500004 9080458
0.054019999 -0.01702 0.77700001 8949128
0.055500001 -0.01702 0.77700001 8817539
0.057126667 -0.017063811 0.77900004 8620671
0.05861048 -0.017063811 0.77900004 8487546
0.060094289 -0.017063811 0.77900004 8093301
0.061657146 -0.017085714 0.78000003 7763316
0.063304767 -0.017129526 0.78200006 7368050
0.065125719 -0.017217144 0.78600001 7039595
0.066792384 -0.017260952 0.78800005 7301732
0.068380006 -0.017282858 0.78900003 7564636
0.069882862 -0.017282858 0.78900003 7100756
0.071566671 -0.017326668 0.79100001 6707545
0.073073328 -0.017326668 0.79100001 6969695
0.074579999 -0.017326668 0.79100001 7231838
-0.032393333 -0.01582 0.79100001 13228775
-0.030808574 -0.01578 0.78900003 13884132
-0.029305715 -0.01578 0.78900003 13884130
-0.027697144 -0.01572 0.78600001 13949924
-0.026066668 -0.01564 0.78200006 14082022
-0.024514288 -0.015600001 0.78000003 14213605
-0.02299905 -0.015580001 0.77900004 14213093
-0.02146 -0.015539999 0.77700001 14147300
-0.01998 -0.015539999 0.77700001 14015715
-0.01845238 -0.015500002 0.77500004 13818082
-0.016976191 -0.015500002 0.77500004 13686241
-0.015500002 -0.015500002 0.77500004 13489630
-0.01398762 -0.015460001 0.77300006 13488859
-0.012515238 -0.015460001 0.77300006 13423065
-0.011042858 -0.015460001 0.77300006 13357272
-0.0095580956 -0.015439999 0.77200001 13226199
