# .PCD v0.7 - Point Cloud Data file format
VERSION 0.7
FIELDS x y z rgba
SIZE 4 4 4 4
TYPE F F F U
COUNT 1 1 1 1
WIDTH 1090
HEIGHT 1
VIEWPOINT 0 0 0 1 0 0 0
POINTS 1090
DATA ascii
0.00070761907 0.031842858 0.74300003 12897234
0.0021228571 0.031842858 0.74300003 12830671
0.0035380954 0.031842858 0.74300003 12699596
0.0049533336 0.031842858 0.74300003 12634062
0.0063685714 0.031842858 0.74300003 12568529
0.0077838097 0.031842858 0.74300003 12568270
0.0092238095 0.031928573 0.74500006 12568267
0.010642858 0.031928573 0.74500006 12568009
0.012061905 0.031928573 0.74500006 12501192
0.013444763 0.031842858 0.74300003 12435910
0.01486 0.031842858 0.74300003 12305092
0.016275238 0.031842858 0.74300003 12239554
0.017690476 0.031842858 0.74300003 12174017
0.019105716 0.031842858 0.74300003 12107968
0.020520953 0.031842858 0.74300003 12042175
0.021936191 0.031842858 0.74300003 12041917
0.023320002 0.031800002 0.74200004 11976379
0.024766667 0.031842858 0.74300003 11910333
0.026181906 0.031842858 0.74300003 11844800
0.027597144 0.031842858 0.74300003 11778750
0.029012382 0.031842858 0.74300003 11712956
0.03042762 0.031842858 0.74300003 11647416
0.031842858 0.031842858 0.74300003 11450549
0.033347622 0.031928573 0.74500006 11253169
0.03476667 0.031928573 0.74500006 11053997
0.036185715 0.031928573 0.74500006 10923444
0.037604764 0.031928573 0.74500006 10923962
0.039023813 0.031928573 0.74500006 10923702
0.040442862 0.031928573 0.74500006 10923697
0.04186191 0.031928573 0.74500006 10923438
0.043397143 0.032014288 0.74700004 10726571
0.044819999 0.032014288 0.74700004 10595500
0.046304762 0.032057144 0.74800003 10464685
0.047729526 0.032057144 0.74800003 10395535
0.049154289 0.032057144 0.74800003 8224114
0.050714288 0.032142859 0.75000006 6056307
0.052142859 0.032142859 0.75000006 6254195
0.053571433 0.032142859 0.75000006 6516336
0.055000003 0.032142859 0.75000006 6450285
0.063576192 0.036214288 0.84500003 6385009
0.065185711 0.036214288 0.84500003 6385270
0.066637143 0.036128573 0.84300005 6451056
0.068242863 0.036128573 0.84300005 6451307
0.069682859 0.036042858 0.84100002 6451310
0.071284764 0.036042858 0.84100002 6713713
0.066126667 0.032699998 0.76300001 7040879
0.06758 0.032699998 0.76300001 6581869
0.069033332 0.032699998 0.76300001 6188138
0.070486665 0.032699998 0.76300001 6056039
0.072128579 0.032785717 0.76500005 5924971
0.0737781 0.032871429 0.76700002 7044463
0.075729519 0.033085715 0.77200001 8158577
0.077500001 0.033214286 0.77500004 7961972
0.079383813 0.033385713 0.77900004 7830127
0.080971435 0.033428572 0.78000003 7502443
0.08266858 0.033514287 0.78200006 7173731
0.084373333 0.033600003 0.78400004 7170908
0.085866667 0.033600003 0.78400004 7170160
0.087582856 0.033685714 0.78600001 8423044
0.089080006 0.033685714 0.78600001 9737344
-0.067137145 0.033929523 0.75800002 859759
-0.065520003 0.033840001 0.75600004 5799102
-0.06408 0.033840001 0.75600004 10732494
-0.062640004 0.033840001 0.75600004 12176863
-0.06111905 0.033795241 0.75500005 13555679
-0.059680957 0.033795241 0.75500005 13555168
-0.058242857 0.033795241 0.75500005 13620442
-0.05657905 0.033660952 0.75200003 13423573
-0.055146668 0.033660952 0.75200003 13292500
-0.053714287 0.033660952 0.75200003 13160403
-0.052142859 0.033571433 0.75000006 13028814
-0.050714288 0.033571433 0.75000006 12765898
-0.049285717 0.033571433 0.75000006 12567753
-0.047857147 0.033571433 0.75000006 12502729
-0.046304762 0.033481907 0.74800003 12437706
-0.044879999 0.033481907 0.74800003 12568523
-0.043455239 0.033481907 0.74800003 12699600
-0.042030476 0.033481907 0.74800003 13294550
-0.040605716 0.033481907 0.74800003 13950439
-0.039180957 0.033481907 0.74800003 13358584
-0.025833335 0.034690477 0.77500004 16645886
-0.024200002 0.034466669 0.77000004 16711422
-0.022674287 0.034377143 0.76800001 16711422
-0.021073334 0.034153335 0.76300001 16711422
-0.019619999 0.034153335 0.76300001 16580350
-0.01809524 0.034019049 0.76000005 16449275
-0.016494285 0.033705715 0.75300002 16119544
-0.015040001 0.033660952 0.75200003 15791606
-0.01360762 0.033660952 0.75200003 15593460
-0.012142858 0.033571433 0.75000006 15462644
-0.010714287 0.033571433 0.75000006 15067380
-0.0092609525 0.033481907 0.74800003 14674158
-0.0078257145 0.033437144 0.74700004 14476264
-0.0063857147 0.033347622 0.74500006 14213087
-0.0049666674 0.033347622 0.74500006 13883095
-0.0035380954 0.033258095 0.74300003 13489879
-0.0021228571 0.033258095 0.74300003 13225943
-0.00070761907 0.033258095 0.74300003 12963540
0.00070761907 0.033258095 0.74300003 12831185
0.0021228571 0.033258095 0.74300003 12765391
0.0035380954 0.033258095 0.74300003 12699597
0.0049533336 0.033258095 0.74300003 12633808
0.0063685714 0.033258095 0.74300003 12568020
0.0077838097 0.033258095 0.74300003 12502223
0.0092238095 0.033347622 0.74500006 12502474
0.010642858 0.033347622 0.74500006 12502728
0.012061905 0.033347622 0.74500006 12436167
0.013444763 0.033258095 0.74300003 12435909
0.01486 0.033258095 0.74300003 12305091
0.016275238 0.033258095 0.74300003 12174017
0.017690476 0.033258095 0.74300003 12108224
0.019105716 0.033258095 0.74300003 12108224
0.020520953 0.033258095 0.74300003 12107712
0.021936191 0.033258095 0.74300003 12107455
0.023351429 0.033258095 0.74300003 11976127
0.024766667 0.033258095 0.74300003 11910336
0.026181906 0.033258095 0.74300003 11844802
0.027597144 0.033258095 0.74300003 11778751
0.029012382 0.033258095 0.74300003 11712956
0.03042762 0.033258095 0.74300003 11647416
0.031842858 0.033258095 0.74300003 11450292
0.033258095 0.033258095 0.74300003 11253165
0.03476667 0.033347622 0.74500006 10988454
0.036185715 0.033347622 0.74500006 10792884
0.037604764 0.033347622 0.74500006 10858178
0.039023813 0.033347622 0.74500006 10923706
0.040442862 0.033347622 0.74500006 10923699
0.04186191 0.033347622 0.74500006 10923694
0.043397143 0.033437144 0.74700004 10792617
0.044819999 0.033437144 0.74700004 10727593
0.046304762 0.033481907 0.74800003 10463658
0.047729526 0.033481907 0.74800003 10132111
0.049154289 0.033481907 0.74800003 8092021
0.050714288 0.033571433 0.75000006 6056052
0.052142859 0.033571433 0.75000006 6254196
0.053714287 0.033660952 0.75200003 6516593
0.055146668 0.033660952 0.75200003 6450543
0.063576192 0.037823807 0.84500003 6385270
0.065185711 0.037823807 0.84500003 6319997
0.066637143 0.037734289 0.84300005 6255222
0.068242863 0.037734289 0.84300005 6320751
0.069848575 0.037734289 0.84300005 6386294
0.071284764 0.037644763 0.84100002 6583421
0.066126667 0.034153335 0.76300001 6847606
0.06758 0.034153335 0.76300001 6516592
0.069033332 0.034153335 0.76300001 6253415
0.070486665 0.034153335 0.76300001 6056031
0.071940005 0.034153335 0.76300001 5925221
0.0737781 0.03433238 0.76700002 7044460
0.075729519 0.034556191 0.77200001 8093297
0.077500001 0.034690477 0.77500004 7961975
0.079383813 0.034869526 0.77900004 7895921
0.080971435 0.034914285 0.78000003 7633260
0.08266858 0.035003811 0.78200006 7435621
0.084588572 0.03518286 0.78600001 7367518
0.086085714 0.03518286 0.78600001 7301744
0.087582856 0.03518286 0.78600001 8687490
0.089080006 0.03518286 0.78600001 10066048
-0.06408 0.03528 0.75600004 9810372
-0.062640004 0.03528 0.75600004 11651550
-0.0612 0.03528 0.75600004 13556445
-0.059680957 0.035233337 0.75500005 13621213
-0.058088571 0.03514 0.75300002 13751513
-0.056654289 0.03514 0.75300002 13554645
-0.055146668 0.035093337 0.75200003 13423315
-0.053714287 0.035093337 0.75200003 13292242
-0.052142859 0.035000004 0.75000006 13225936
-0.050714288 0.035000004 0.75000006 12963277
-0.049285717 0.035000004 0.75000006 12700365
-0.047857147 0.035000004 0.75000006 12502988
-0.046304762 0.034906667 0.74800003 12371917
-0.044879999 0.034906667 0.74800003 12372174
-0.043455239 0.034906667 0.74800003 12437200
-0.042030476 0.034906667 0.74800003 13029842
-0.040605716 0.034906667 0.74800003 13621219
-0.039180957 0.034906667 0.74800003 14412276
-0.03775619 0.034906667 0.74800003 15262660
-0.025833335 0.036166668 0.77500004 16645372
-0.024137143 0.035840001 0.76800001 16710652
-0.022644762 0.035793334 0.76700002 16710652
-0.021018095 0.035513334 0.76100004 16711165
-0.019491429 0.035373334 0.75800002 16580350
-0.017904762 0.035093337 0.75200003 16514554
-0.016472382 0.035093337 0.75200003 16119543
-0.015000001 0.035000004 0.75000006 15725813
-0.013571429 0.035000004 0.75000006 15527667
-0.012142858 0.035000004 0.75000006 15331315
-0.010685714 0.034906667 0.74800003 15002355
-0.0092485715 0.03486 0.74700004 14673644
-0.0078047626 0.03476667 0.74500006 14343398
-0.0063685714 0.034673333 0.74300003 14081758
-0.0049533336 0.034673333 0.74300003 13752022
-0.0035380954 0.034673333 0.74300003 13423572
-0.0021228571 0.034673333 0.74300003 13160915
-0.00070761907 0.034673333 0.74300003 12896977
0.00070761907 0.034673333 0.74300003 12764623
0.0021228571 0.034673333 0.74300003 12699342
0.0035380954 0.034673333 0.74300003 12634061
0.0049533336 0.034673333 0.74300003 12633550
0.0063685714 0.034673333 0.74300003 12568015
0.0077838097 0.034673333 0.74300003 12502221
0.0091990475 0.034673333 0.74300003 12436683
0.010614286 0.034673333 0.74300003 12436680
0.012029524 0.034673333 0.74300003 12436678
0.013444763 0.034673333 0.74300003 12436421
0.01486 0.034673333 0.74300003 12305348
0.016275238 0.034673333 0.74300003 12173763
0.017690476 0.034673333 0.74300003 12107970
0.019105716 0.034673333 0.74300003 12107968
0.020520953 0.034673333 0.74300003 12107711
0.021906666 0.034626666 0.74200004 12172991
0.023320002 0.034626666 0.74200004 12041663
0.024733335 0.034626666 0.74200004 11910338
0.026146669 0.034626666 0.74200004 11844805
0.027560001 0.034626666 0.74200004 11778752
0.029012382 0.034673333 0.74300003 11713468
0.03042762 0.034673333 0.74300003 11647160
0.031842858 0.034673333 0.74300003 11450293
0.033258095 0.034673333 0.74300003 11253169
0.034673333 0.034673333 0.74300003 10988461
0.036185715 0.03476667 0.74500006 10727349
0.037604764 0.03476667 0.74500006 10859453
0.039023813 0.03476667 0.74500006 10989497
0.040442862 0.03476667 0.74500006 10923958
0.04186191 0.03476667 0.74500006 10923698
0.043280955 0.03476667 0.74500006 10923694
0.044819999 0.03486 0.74700004 10923946
0.046242859 0.03486 0.74700004 10397350
0.047665719 0.03486 0.74700004 9935756
0.049154289 0.034906667 0.74800003 7959922
0.050714288 0.035000004 0.75000006 6056307
0.052142859 0.035000004 0.75000006 6254453
0.053714287 0.035093337 0.75200003 6516593
0.055366673 0.035233337 0.75500005 6450542
0.056804765 0.035233337 0.75500005 6385522
0.058474287 0.035373334 0.75800002 6189430
0.059918094 0.035373334 0.75800002 6058098
0.068242863 0.039340001 0.84300005 6188911
0.069848575 0.039340001 0.84300005 6320498
0.064673327 0.035606667 0.76300001 6453109
0.066126667 0.035606667 0.76300001 6648945
0.06758 0.035606667 0.76300001 6451564
0.069033332 0.035606667 0.76300001 6318953
0.070671432 0.035700001 0.76500005 6121574
0.072128579 0.035700001 0.76500005 5990504
0.073874287 0.035840001 0.76800001 7044458
0.075729519 0.036026664 0.77200001 8093038
0.077500001 0.036166668 0.77500004 8027506
0.079383813 0.036353335 0.77900004 7961199
0.080971435 0.036400001 0.78000003 7829868
0.082879998 0.036586668 0.78400004 7697253
0.084588572 0.036679998 0.78600001 7564382
0.086085714 0.036679998 0.78600001 7498351
0.087582856 0.036679998 0.78600001 8951936
0.089306667 0.036773335 0.78800005 10393729
0.090807624 0.036773335 0.78800005 10197635
-0.06408 0.036720004 0.75600004 8232890
-0.062640004 0.036720004 0.75600004 10863837
-0.0612 0.036720004 0.75600004 13491675
-0.059680957 0.03667143 0.75500005 13621466
-0.058088571 0.036574285 0.75300002 13751511
-0.056654289 0.036574285 0.75300002 13554645
-0.055146668 0.036525715 0.75200003 13423315
-0.053714287 0.036525715 0.75200003 13358034
-0.052142859 0.036428574 0.75000006 13227473
-0.050714288 0.036428574 0.75000006 13029073
-0.049285717 0.036428574 0.75000006 12831696
-0.047857147 0.036428574 0.75000006 12700368
-0.046304762 0.03633143 0.74800003 12569297
-0.044879999 0.03633143 0.74800003 12569042
-0.043455239 0.03633143 0.74800003 12502736
-0.042030476 0.03633143 0.74800003 12831695
-0.040605716 0.03633143 0.74800003 13161183
-0.039180957 0.03633143 0.74800003 14148592
-0.037857145 0.036428574 0.75000006 15136757
-0.036428574 0.036428574 0.75000006 14743034
-0.025433334 0.03706 0.76300001 16645115
-0.023980001 0.03706 0.76300001 16644859
-0.022467621 0.036962859 0.76100004 16645115
-0.020935237 0.036817145 0.75800002 16711164
-0.019440001 0.036720004 0.75600004 16514558
-0.017904762 0.036525715 0.75200003 16317946
-0.016428573 0.036428574 0.75000006 15921911
-0.015000001 0.036428574 0.75000006 15529205
-0.013535239 0.03633143 0.74800003 15330803
-0.012110476 0.03633143 0.74800003 15134451
-0.010671429 0.036282856 0.74700004 14804723
-0.0092485715 0.036282856 0.74700004 14476523
-0.0078047626 0.036185715 0.74500006 14148068
-0.0063685714 0.036088571 0.74300003 13819613
-0.0049533336 0.036088571 0.74300003 13488598
-0.0035380954 0.036088571 0.74300003 13160146
-0.0021228571 0.036088571 0.74300003 12963535
-0.00070761907 0.036088571 0.74300003 12830670
0.00070761907 0.036088571 0.74300003 12699342
0.0021228571 0.036088571 0.74300003 12633549
0.0035380954 0.036088571 0.74300003 12568013
0.0049666674 0.036185715 0.74500006 12502476
0.0063685714 0.036088571 0.74300003 12502475
0.0077838097 0.036088571 0.74300003 12502475
0.0091990475 0.036088571 0.74300003 12436940
0.010614286 0.036088571 0.74300003 12436937
0.012029524 0.036088571 0.74300003 12371142
0.013444763 0.036088571 0.74300003 12371398
0.01486 0.036088571 0.74300003 12305094
0.016275238 0.036088571 0.74300003 12173765
0.017666668 0.036040001 0.74200004 12107972
0.01908 0.036040001 0.74200004 12042433
0.020493334 0.036040001 0.74200004 12042175
0.021906666 0.036040001 0.74200004 12107711
0.023320002 0.036040001 0.74200004 11976128
0.024733335 0.036040001 0.74200004 11910596
0.026146669 0.036040001 0.74200004 11844808
0.027597144 0.036088571 0.74300003 11844290
0.029012382 0.036088571 0.74300003 11713212
0.03042762 0.036088571 0.74300003 11646905
0.031842858 0.036088571 0.74300003 11450295
0.033258095 0.036088571 0.74300003 11253174
0.03476667 0.036185715 0.74500006 11055797
0.036185715 0.036185715 0.74500006 10858678
0.037604764 0.036185715 0.74500006 10924472
0.039023813 0.036185715 0.74500006 11055544
0.040442862 0.036185715 0.74500006 10989753
0.04186191 0.036185715 0.74500006 10923702
0.043280955 0.036185715 0.74500006 10923699
0.044700004 0.036185715 0.74500006 10923691
0.046242859 0.036282856 0.74700004 10266275
0.047665719 0.036282856 0.74700004 9673865
0.049088575 0.036282856 0.74700004 7828079
0.050579049 0.03633143 0.74800003 6056818
0.052142859 0.036428574 0.75000006 6254454
0.053714287 0.036525715 0.75200003 6516594
0.055366673 0.03667143 0.75500005 6451054
0.056880001 0.036720004 0.75600004 6385774
0.058474287 0.036817145 0.75800002 6319983
0.059918094 0.036817145 0.75800002 6188655
0.061361905 0.036817145 0.75800002 6254191
0.069848575 0.040945716 0.84300005 6254702
0.064673327 0.03706 0.76300001 6320238
0.066126667 0.03706 0.76300001 6385771
0.06758 0.03706 0.76300001 6254185
0.069033332 0.03706 0.76300001 6057067
0.070486665 0.03706 0.76300001 6055790
0.071940005 0.03706 0.76300001 5990507
0.073393337 0.03706 0.76300001 7044713
0.07602381 0.037642859 0.77500004 8159083
0.077699997 0.03774 0.77700001 8027246
0.079383813 0.037837148 0.77900004 7960941
0.080971435 0.037885718 0.78000003 7763821
0.08266858 0.037982859 0.78200006 7631205
0.0841581 0.037982859 0.78200006 7368030
0.086085714 0.038177144 0.78600001 7105134
0.087582856 0.038177144 0.78600001 7766398
0.089306667 0.038274288 0.78800005 8427651
0.090807624 0.038274288 0.78800005 8295560
-0.062805712 0.038260952 0.75800002 10010577
-0.0612 0.03816 0.75600004 13424853
-0.059680957 0.038109526 0.75500005 13556441
-0.058088571 0.038008571 0.75300002 13751767
-0.056654289 0.038008571 0.75300002 13620693
-0.05522 0.038008571 0.75300002 13489364
-0.053714287 0.037958097 0.75200003 13358290
-0.052281909 0.037958097 0.75200003 13292753
-0.050714288 0.037857145 0.75000006 13095121
-0.049285717 0.037857145 0.75000006 12963281
-0.047857147 0.037857145 0.75000006 12897489
-0.046428576 0.037857145 0.75000006 12831697
-0.045000002 0.037857145 0.75000006 12700370
-0.043571431 0.037857145 0.75000006 12634321
-0.042030476 0.03775619 0.74800003 12699089
-0.04071429 0.037857145 0.75000006 12766940
-0.039180957 0.03775619 0.74800003 13885160
-0.037857145 0.037857145 0.75000006 15001839
-0.036428574 0.037857145 0.75000006 15463159
-0.035000004 0.037857145 0.75000006 15922423
-0.033571433 0.037857145 0.75000006 16318199
-0.029402858 0.038008571 0.75300002 16711422
-0.027968572 0.038008571 0.75300002 16711422
-0.026710477 0.038260952 0.75800002 16710908
-0.025266668 0.038260952 0.75800002 16645115
-0.023822857 0.038260952 0.75800002 16579579
-0.022379048 0.038260952 0.75800002 16645371
-0.020880001 0.03816 0.75600004 16711164
-0.019414287 0.038109526 0.75500005 16383742
-0.017857144 0.037857145 0.75000006 16119801
-0.016428573 0.037857145 0.75000006 15724532
-0.01496 0.03775619 0.74800003 15397107
-0.013517143 0.037705716 0.74700004 15133938
-0.012094286 0.037705716 0.74700004 14937070
-0.010671429 0.037705716 0.74700004 14607082
-0.0092238095 0.037604764 0.74500006 14279142
-0.0078047626 0.037604764 0.74500006 13882850
-0.0063685714 0.037503812 0.74300003 13553884
-0.0049533336 0.037503812 0.74300003 13225174
-0.0035380954 0.037503812 0.74300003 12963027
-0.0021228571 0.037503812 0.74300003 12831695
-0.00070761907 0.037503812 0.74300003 12765135
0.00070761907 0.037503812 0.74300003 12699598
0.0021228571 0.037503812 0.74300003 12633805
0.0035380954 0.037503812 0.74300003 12502732
0.0049533336 0.037503812 0.74300003 12371402
0.0063685714 0.037503812 0.74300003 12436936
0.0077838097 0.037503812 0.74300003 12502475
0.0091990475 0.037503812 0.74300003 12436942
0.010614286 0.037503812 0.74300003 12436936
0.012029524 0.037503812 0.74300003 12371139
0.013444763 0.037503812 0.74300003 12370885
0.01484 0.037453339 0.74200004 12304839
0.016275238 0.037503812 0.74300003 12239301
0.017666668 0.037453339 0.74200004 12108483
0.01908 0.037453339 0.74200004 12042432
0.020493334 0.037453339 0.74200004 12042429
0.021906666 0.037453339 0.74200004 12041918
0.023320002 0.037453339 0.74200004 11976128
0.024733335 0.037453339 0.74200004 11910338
0.026146669 0.037453339 0.74200004 11910341
0.027597144 0.037503812 0.74300003 11909825
0.029012382 0.037503812 0.74300003 11778749
0.030386668 0.037453339 0.74200004 11646907
0.031842858 0.037503812 0.74300003 11450297
0.033258095 0.037503812 0.74300003 11252660
0.034673333 0.037503812 0.74300003 11121072
0.036088571 0.037503812 0.74300003 11055284
0.037604764 0.037604764 0.74500006 11055800
0.039023813 0.037604764 0.74500006 11121080
0.040442862 0.037604764 0.74500006 11055543
0.04186191 0.037604764 0.74500006 10989747
0.043280955 0.037604764 0.74500006 10924208
0.044700004 0.037604764 0.74500006 10923947
0.046242859 0.037705716 0.74700004 10135462
0.047665719 0.037705716 0.74700004 9411211
0.049088575 0.037705716 0.74700004 7696497
0.050579049 0.03775619 0.74800003 6058099
0.052281909 0.037958097 0.75200003 6254710
0.053785715 0.038008571 0.75300002 6516595
0.05522 0.038008571 0.75300002 6451312
0.056880001 0.03816 0.75600004 6451053
0.058320004 0.03816 0.75600004 6385259
0.059760004 0.03816 0.75600004 6385260
0.0612 0.03816 0.75600004 6319725
0.063220002 0.038513333 0.76300001 6254189
0.064673327 0.038513333 0.76300001 6188652
0.066126667 0.038513333 0.76300001 6188395
0.06758 0.038513333 0.76300001 5991530
0.069033332 0.038513333 0.76300001 5860202
0.071595237 0.039119046 0.77500004 5924713
0.073071435 0.039119046 0.77500004 6056048
0.07474 0.039219998 0.77700001 7110519
0.076219998 0.039219998 0.77700001 8224883
0.077699997 0.039219998 0.77700001 8092527
0.079383813 0.039320953 0.77900004 8026477
0.080971435 0.039371427 0.78000003 7763307
0.08266858 0.039472383 0.78200006 7566185
0.084588572 0.039674286 0.78600001 7106406
0.086304761 0.039775241 0.78800005 6711925
0.087917142 0.039825715 0.78900003 6578052
0.089420006 0.039825715 0.78900003 6512765
0.090807624 0.039775241 0.78800005 6381942
-0.062805712 0.039704762 0.75800002 8498373
-0.061361905 0.039704762 0.75800002 12768206
-0.059680957 0.039547618 0.75500005 13227224
-0.058242857 0.039547618 0.75500005 13686487
-0.056654289 0.039442856 0.75300002 13554902
-0.05522 0.039442856 0.75300002 13489364
-0.053785715 0.039442856 0.75300002 13423571
-0.052281909 0.039390475 0.75200003 13358034
-0.050714288 0.039285716 0.75000006 13160657
-0.049285717 0.039285716 0.75000006 13029329
-0.047857147 0.039285716 0.75000006 12963026
-0.046428576 0.039285716 0.75000006 12897490
-0.045000002 0.039285716 0.75000006 12831699
-0.043455239 0.039180957 0.74800003 12765907
-0.042030476 0.039180957 0.74800003 12765907
-0.040605716 0.039180957 0.74800003 12766169
-0.039180957 0.039180957 0.74800003 13423840
-0.03775619 0.039180957 0.74800003 14082026
-0.036428574 0.039285716 0.75000006 14674164
-0.035000004 0.039285716 0.75000006 15332857
-0.033571433 0.039285716 0.75000006 15661566
-0.03222857 0.039390475 0.75200003 16056062
-0.030837145 0.039442856 0.75300002 16187134
-0.029402858 0.039442856 0.75300002 16383742
-0.027968572 0.039442856 0.75300002 16514814
-0.026534285 0.039442856 0.75300002 16711165
-0.0251 0.039442856 0.75300002 16645372
-0.023665715 0.039442856 0.75300002 16645372
-0.022290478 0.039547618 0.75500005 16645628
-0.020797143 0.039442856 0.75300002 16711421
-0.019337144 0.039390475 0.75200003 16449278
-0.017857144 0.039285716 0.75000006 16249591
-0.016384762 0.039180957 0.74800003 15659505
-0.014940001 0.039128575 0.74700004 15069681
-0.013480954 0.039023813 0.74500006 14871282
-0.012061905 0.039023813 0.74500006 14739946
-0.010642858 0.039023813 0.74500006 14409954
-0.0092238095 0.039023813 0.74500006 14082017
-0.0078047626 0.039023813 0.74500006 13752032
-0.0063685714 0.03891905 0.74300003 13423579
-0.0049533336 0.03891905 0.74300003 13225687
-0.0035380954 0.03891905 0.74300003 12963283
-0.0021228571 0.03891905 0.74300003 12831184
-0.00070761907 0.03891905 0.74300003 12699599
0.00070761907 0.03891905 0.74300003 12633807
0.0021228571 0.03891905 0.74300003 12568269
0.0035380954 0.03891905 0.74300003 12502475
0.0049533336 0.03891905 0.74300003 12436680
0.0063685714 0.03891905 0.74300003 12436677
0.0077838097 0.03891905 0.74300003 12502730
0.0091990475 0.03891905 0.74300003 12436944
0.010614286 0.03891905 0.74300003 12436936
0.012029524 0.03891905 0.74300003 12371137
0.013444763 0.03891905 0.74300003 12370628
0.01484 0.038866669 0.74200004 12305096
0.016253335 0.038866669 0.74200004 12239557
0.017666668 0.038866669 0.74200004 12108227
0.01908 0.038866669 0.74200004 12042431
0.020493334 0.038866669 0.74200004 11976380
0.021906666 0.038866669 0.74200004 11975870
0.023257142 0.038761906 0.74000001 11910592
0.024733335 0.038866669 0.74200004 11910081
0.026146669 0.038866669 0.74200004 11975874
0.027560001 0.038866669 0.74200004 11975360
0.028973334 0.038866669 0.74200004 11778495
0.030386668 0.038866669 0.74200004 11647165
0.031800002 0.038866669 0.74200004 11383996
0.033258095 0.03891905 0.74300003 11186611
0.034673333 0.03891905 0.74300003 11120811
0.036088571 0.03891905 0.74300003 11055282
0.037503812 0.03891905 0.74300003 11055289
0.039023813 0.039023813 0.74500006 11055543
0.040442862 0.039023813 0.74500006 10990006
0.04186191 0.039023813 0.74500006 10990257
0.043280955 0.039023813 0.74500006 10989741
0.044819999 0.039128575 0.74700004 10989995
0.046242859 0.039128575 0.74700004 10069417
0.047665719 0.039128575 0.74700004 9214350
0.049088575 0.039128575 0.74700004 7630452
0.050714288 0.039285716 0.75000006 6122869
0.05235143 0.039442856 0.75300002 6320246
0.053928573 0.039547618 0.75500005 6516596
0.055440001 0.0396 0.75600004 6516594
0.056880001 0.0396 0.75600004 6582125
0.058474287 0.039704762 0.75800002 6450792
0.059760004 0.0396 0.75600004 6385258
0.0612 0.0396 0.75600004 6319724
0.063220002 0.039966665 0.76300001 6253931
0.064673327 0.039966665 0.76300001 6188395
0.066126667 0.039966665 0.76300001 6122347
0.06758 0.039966665 0.76300001 6056812
0.069033332 0.039966665 0.76300001 5925736
0.071595237 0.040595241 0.77500004 5990757
0.073071435 0.040595241 0.77500004 6056309
0.074547619 0.040595241 0.77500004 7110790
0.07602381 0.040595241 0.77500004 8225147
0.077699997 0.0407 0.77700001 8092529
0.079383813 0.040804762 0.77900004 8026477
0.080867618 0.040804762 0.77900004 7829610
0.08266858 0.040961906 0.78200006 7698284
0.084588572 0.041171428 0.78600001 7499375
0.086085714 0.041171428 0.78600001 7367548
0.087805718 0.041276194 0.78800005 7696778
0.089306667 0.041276194 0.78800005 8026231
-0.062805712 0.041148573 0.75800002 7051969
-0.061361905 0.041148573 0.75800002 12110797
-0.059680957 0.040985718 0.75500005 12899290
-0.058242857 0.040985718 0.75500005 13685719
-0.056804765 0.040985718 0.75500005 13554901
-0.05522 0.040877145 0.75300002 13489107
-0.053785715 0.040877145 0.75300002 13423314
-0.052281909 0.04082286 0.75200003 13423313
-0.050714288 0.04071429 0.75000006 13291984
-0.049285717 0.04071429 0.75000006 13160401
-0.047857147 0.04071429 0.75000006 13028817
-0.046304762 0.040605716 0.74800003 12963282
-0.044879999 0.040605716 0.74800003 12897746
-0.043455239 0.040605716 0.74800003 12897490
-0.042030476 0.040605716 0.74800003 12831954
-0.040605716 0.040605716 0.74800003 12831699
-0.039180957 0.040605716 0.74800003 12962516
-0.03775619 0.040605716 0.74800003 13161694
-0.03633143 0.040605716 0.74800003 13950952
-0.034906667 0.040605716 0.74800003 14739696
-0.033571433 0.04071429 0.75000006 15069688
-0.03222857 0.04082286 0.75200003 15397368
-0.030796193 0.04082286 0.75200003 15725304
-0.029363809 0.04082286 0.75200003 16121595
-0.027931429 0.04082286 0.75200003 16383742
-0.026499048 0.04082286 0.75200003 16711421
-0.025066668 0.04082286 0.75200003 16711421
-0.023634287 0.04082286 0.75200003 16711421
-0.022201905 0.04082286 0.75200003 16711421
-0.020714287 0.04071429 0.75000006 16711421
-0.019234287 0.040605716 0.74800003 16514814
-0.017809525 0.040605716 0.74800003 16381431
-0.016362859 0.040551431 0.74700004 15592177
-0.014900001 0.040442862 0.74500006 14805486
-0.013480954 0.040442862 0.74500006 14674156
-0.012061905 0.040442862 0.74500006 14541797
-0.010642858 0.040442862 0.74500006 14212831
-0.0092238095 0.040442862 0.74500006 13949917
-0.0077838097 0.040334288 0.74300003 13621468
-0.0063685714 0.040334288 0.74300003 13357272
-0.0049533336 0.040334288 0.74300003 13160917
-0.0035380954 0.040334288 0.74300003 13028306
-0.0021228571 0.040334288 0.74300003 12830927
-0.00070761907 0.040334288 0.74300003 12699598
0.00070761907 0.040334288 0.74300003 12633805
0.0021228571 0.040334288 0.74300003 12568268
0.0035380954 0.040334288 0.74300003 12502475
0.0049533336 0.040334288 0.74300003 12502216
0.0063685714 0.040334288 0.74300003 12502214
0.0077838097 0.040334288 0.74300003 12502474
0.0091990475 0.040334288 0.74300003 12437198
0.010614286 0.040334288 0.74300003 12436937
0.012029524 0.040334288 0.74300003 12371141
0.013444763 0.040334288 0.74300003 12370630
0.01484 0.040280003 0.74200004 12305096
0.016253335 0.040280003 0.74200004 12239557
0.017666668 0.040280003 0.74200004 12173763
0.01908 0.040280003 0.74200004 12108224
0.020520953 0.040334288 0.74300003 11976125
0.021906666 0.040280003 0.74200004 11910591
0.023320002 0.040280003 0.74200004 11910593
0.024733335 0.040280003 0.74200004 11975872
0.026146669 0.040280003 0.74200004 12041408
0.027560001 0.040280003 0.74200004 12106687
0.029012382 0.040334288 0.74300003 11843773
0.03042762 0.040334288 0.74300003 11646908
0.031842858 0.040334288 0.74300003 11382970
0.033258095 0.040334288 0.74300003 11120820
0.034673333 0.040334288 0.74300003 11120557
0.036088571 0.040334288 0.74300003 11120820
0.037503812 0.040334288 0.74300003 11056315
0.03891905 0.040334288 0.74300003 11055799
0.040442862 0.040442862 0.74500006 10989747
0.04186191 0.040442862 0.74500006 10989488
0.043280955 0.040442862 0.74500006 10989486
0.044700004 0.040442862 0.74500006 11055785
0.046119049 0.040442862 0.74500006 10069157
0.047665719 0.040551431 0.74700004 9081227
0.048957143 0.040442862 0.74500006 7630193
0.050579049 0.040605716 0.74800003 6188146
0.05235143 0.040877145 0.75300002 6320244
0.053928573 0.040985718 0.75500005 6517107
0.055440001 0.041040003 0.75600004 6582899
0.056880001 0.041040003 0.75600004 6713711
0.058474287 0.041148573 0.75800002 6582635
0.059918094 0.041148573 0.75800002 6451308
0.061523814 0.041257147 0.76000005 6385518
0.062971428 0.041257147 0.76000005 6319467
0.064673327 0.041420002 0.76300001 6188392
0.066126667 0.041420002 0.76300001 6122346
0.06758 0.041420002 0.76300001 6056811
0.069666669 0.041800003 0.77000004 6056812
0.071133338 0.041800003 0.77000004 6056300
0.073071435 0.042071432 0.77500004 6056309
0.074547619 0.042071432 0.77500004 7176573
0.07602381 0.042071432 0.77500004 8290425
0.077699997 0.042180002 0.77700001 8158068
0.079383813 0.042288575 0.77900004 8026225
0.080971435 0.04234286 0.78000003 7960941
0.08266858 0.042451434 0.78200006 7894378
0.084373333 0.042560004 0.78400004 7957864
0.086085714 0.042668574 0.78600001 8023672
0.087805718 0.042777147 0.78800005 8752264
0.089306667 0.042777147 0.78800005 9538427
-0.061361905 0.04259238 0.75800002 11060429
-0.059680957 0.042423811 0.75500005 12374236
-0.058242857 0.042423811 0.75500005 13621976
-0.056804765 0.042423811 0.75500005 13555412
-0.05522 0.04231143 0.75300002 13423571
-0.053785715 0.04231143 0.75300002 13423314
-0.052281909 0.042255241 0.75200003 13423313
-0.050714288 0.042142861 0.75000006 13291984
-0.049285717 0.042142861 0.75000006 13225936
-0.047857147 0.042142861 0.75000006 13160401
-0.046304762 0.042030476 0.74800003 13094865
-0.044879999 0.042030476 0.74800003 13029074
-0.043455239 0.042030476 0.74800003 12963537
-0.042030476 0.042030476 0.74800003 12897745
-0.040605716 0.042030476 0.74800003 12831693
-0.039180957 0.042030476 0.74800003 12896969
-0.03775619 0.042030476 0.74800003 13027795
-0.03633143 0.042030476 0.74800003 13489629
-0.034906667 0.042030476 0.74800003 14015975
-0.033481907 0.042030476 0.74800003 14279666
-0.032142859 0.042142861 0.75000006 14608882
-0.030714288 0.042142861 0.75000006 15265522
-0.029285716 0.042142861 0.75000006 15924984
-0.027931429 0.042255241 0.75200003 16318206
-0.026499048 0.042255241 0.75200003 16711422
-0.025066668 0.042255241 0.75200003 16711422
-0.023634287 0.042255241 0.75200003 16711422
-0.022201905 0.042255241 0.75200003 16645886
-0.020714287 0.042142861 0.75000006 16645886
-0.019234287 0.042030476 0.74800003 16186366
-0.017809525 0.042030476 0.74800003 15661304
-0.016362859 0.041974287 0.74700004 15066098
-0.014900001 0.04186191 0.74500006 14477292
-0.013480954 0.04186191 0.74500006 14279398
-0.012061905 0.04186191 0.74500006 14081505
-0.010642858 0.04186191 0.74500006 13818589
-0.0092238095 0.04186191 0.74500006 13555930
-0.0077838097 0.041749526 0.74300003 13358040
-0.0063685714 0.041749526 0.74300003 13160149
-0.0049533336 0.041749526 0.74300003 13028307
-0.0035380954 0.041749526 0.74300003 12831185
-0.0021228571 0.041749526 0.74300003 12765391
-0.00070761907 0.041749526 0.74300003 12634317
0.00070761907 0.041749526 0.74300003 12568268
0.0021228571 0.041749526 0.74300003 12502731
0.0035380954 0.041749526 0.74300003 12502731
0.0049533336 0.041749526 0.74300003 12502729
0.0063685714 0.041749526 0.74300003 12502472
0.0077838097 0.041749526 0.74300003 12502474
0.0091990475 0.041749526 0.74300003 12436940
0.010600001 0.041693337 0.74200004 12371658
0.012013334 0.041693337 0.74200004 12371145
0.013426667 0.041693337 0.74200004 12436169
0.01484 0.041693337 0.74200004 12305097
0.016253335 0.041693337 0.74200004 12239814
0.017666668 0.041693337 0.74200004 12174019
0.01908 0.041693337 0.74200004 12108481
0.020493334 0.041693337 0.74200004 11976895
0.021906666 0.041693337 0.74200004 11845568
0.023320002 0.041693337 0.74200004 11910594
0.024766667 0.041749526 0.74300003 11910336
0.026181906 0.041749526 0.74300003 11910335
0.027597144 0.041749526 0.74300003 11976125
0.029012382 0.041749526 0.74300003 11778492
0.03042762 0.041749526 0.74300003 11581370
0.031842858 0.041749526 0.74300003 11318457
0.033258095 0.041749526 0.74300003 11121332
0.034673333 0.041749526 0.74300003 11121072
0.036088571 0.041749526 0.74300003 11121078
0.037503812 0.041749526 0.74300003 11121341
0.03891905 0.041749526 0.74300003 11121590
0.040334288 0.041749526 0.74300003 10989744
0.041749526 0.041749526 0.74300003 10923695
0.043280955 0.04186191 0.74500006 10989487
0.044700004 0.04186191 0.74500006 11121576
0.046119049 0.04186191 0.74500006 9938082
0.047538098 0.04186191 0.74500006 8751496
0.048957143 0.04186191 0.74500006 7498350
0.050579049 0.042030476 0.74800003 6188144
0.052281909 0.042255241 0.75200003 6386035
0.053785715 0.04231143 0.75300002 6582899
0.055366673 0.042423811 0.75500005 6714484
0.056880001 0.042480003 0.75600004 6912369
0.058320004 0.042480003 0.75600004 6648686
0.059760004 0.042480003 0.75600004 6451567
0.061523814 0.042704765 0.76000005 6385521
0.062971428 0.042704765 0.76000005 6318955
0.064673327 0.042873334 0.76300001 6187878
0.066126667 0.042873334 0.76300001 6122344
0.06758 0.042873334 0.76300001 5991275
0.069666669 0.043266669 0.77000004 5925999
0.071133338 0.043266669 0.77000004 5991028
0.072788574 0.043379046 0.77200001 6122100
0.074355245 0.043435238 0.77300006 7176565
0.07602381 0.043547619 0.77500004 8290166
0.077500001 0.043547619 0.77500004 8092536
0.079383813 0.043772385 0.77900004 7960692
0.080867618 0.043772385 0.77900004 7895409
0.08266858 0.043940958 0.78200006 7828585
0.084373333 0.044053335 0.78400004 7893857
0.086304761 0.0442781 0.78800005 7959156
0.088140003 0.044446666 0.79100001 8488583
0.089646667 0.044446666 0.79100001 9012862
-0.0612 0.043919999 0.75600004 10073027
-0.059680957 0.043861907 0.75500005 11849180
-0.058242857 0.043861907 0.75500005 13621722
-0.056804765 0.043861907 0.75500005 13490393
-0.05522 0.043745715 0.75300002 13424086
-0.053785715 0.043745715 0.75300002 13423827
-0.052281909 0.043687619 0.75200003 13423314
-0.050714288 0.043571431 0.75000006 13357778
-0.049285717 0.043571431 0.75000006 13357522
-0.047729526 0.043455239 0.74800003 13291986
-0.046304762 0.043455239 0.74800003 13226194
-0.044879999 0.043455239 0.74800003 13093843
-0.043455239 0.043455239 0.74800003 13029075
-0.042030476 0.043455239 0.74800003 12963795
-0.040605716 0.043455239 0.74800003 12897745
-0.039180957 0.043455239 0.74800003 12897231
-0.03775619 0.043455239 0.74800003 12897238
-0.03633143 0.043455239 0.74800003 13094109
-0.034906667 0.043455239 0.74800003 13292257
-0.033481907 0.043455239 0.74800003 13555941
-0.032142859 0.043571431 0.75000006 13820394
-0.030714288 0.043571431 0.75000006 14805999
-0.029285716 0.043571431 0.75000006 15791606
-0.027931429 0.043687619 0.75200003 16252670
-0.026499048 0.043687619 0.75200003 16711422
-0.025066668 0.043687619 0.75200003 16711422
-0.02357143 0.043571431 0.75000006 16711422
-0.022142859 0.043571431 0.75000006 16645886
-0.020714287 0.043571431 0.75000006 16644856
-0.019208571 0.043397143 0.74700004 15791859
-0.017785715 0.043397143 0.74700004 15002094
-0.016362859 0.043397143 0.74700004 14605802
-0.014900001 0.043280955 0.74500006 14211812
-0.013480954 0.043280955 0.74500006 13949151
-0.012061905 0.043280955 0.74500006 13685981
-0.010642858 0.043280955 0.74500006 13423067
-0.0092238095 0.043280955 0.74500006 13225944
-0.0077838097 0.043164764 0.74300003 13094357
-0.0063685714 0.043164764 0.74300003 13028307
-0.0049533336 0.043164764 0.74300003 12831186
-0.0035380954 0.043164764 0.74300003 12699600
-0.0021228571 0.043164764 0.74300003 12633294
-0.00070761907 0.043164764 0.74300003 12634061
0.00070761907 0.043164764 0.74300003 12502987
0.0021228571 0.043164764 0.74300003 12437195
0.0035380954 0.043164764 0.74300003 12437451
0.0049533336 0.043164764 0.74300003 12502730
0.0063685714 0.043164764 0.74300003 12502473
0.0077733337 0.043106668 0.74200004 12502475
0.0091866674 0.043106668 0.74200004 12371406
0.010600001 0.043106668 0.74200004 12305612
0.011980952 0.042990476 0.74000001 12371146
0.013426667 0.043106668 0.74200004 12501961
0.0148 0.042990476 0.74000001 12370889
0.016209524 0.042990476 0.74000001 12305350
0.017666668 0.043106668 0.74200004 12174276
0.01908 0.043106668 0.74200004 12108226
0.020493334 0.043106668 0.74200004 11977152
0.021906666 0.043106668 0.74200004 11845568
0.023320002 0.043106668 0.74200004 11845313
0.024733335 0.043106668 0.74200004 11910592
0.026181906 0.043164764 0.74300003 11845055
0.027597144 0.043164764 0.74300003 11844797
0.029012382 0.043164764 0.74300003 11713468
0.03042762 0.043164764 0.74300003 11581626
0.031842858 0.043164764 0.74300003 11318969
0.033258095 0.043164764 0.74300003 11121077
0.034673333 0.043164764 0.74300003 11121330
0.036088571 0.043164764 0.74300003 11186612
0.037503812 0.043164764 0.74300003 11186871
0.03891905 0.043164764 0.74300003 11186866
0.040334288 0.043164764 0.74300003 11055534
0.041749526 0.043164764 0.74300003 10923950
0.043280955 0.043280955 0.74500006 11055278
0.044700004 0.043280955 0.74500006 11187108
0.046119049 0.043280955 0.74500006 9807003
0.047538098 0.043280955 0.74500006 8487298
0.048957143 0.043280955 0.74500006 7366762
0.050579049 0.043455239 0.74800003 6253935
0.052281909 0.043687619 0.75200003 6451828
0.053714287 0.043687619 0.75200003 6713976
0.055366673 0.043861907 0.75500005 6911867
0.056804765 0.043861907 0.75500005 7108213
0.058242857 0.043861907 0.75500005 6780527
0.059680957 0.043861907 0.75500005 6516848
0.069666669 0.044733334 0.77000004 5794929
0.071318097 0.044849522 0.77200001 5991287
0.072788574 0.044849522 0.77200001 6188406
0.074355245 0.044907622 0.77300006 7242101
0.07602381 0.04502381 0.77500004 8290678
0.077500001 0.04502381 0.77500004 8092535
0.079383813 0.04525619 0.77900004 7961205
0.080867618 0.04525619 0.77900004 7829876
0.082879998 0.045546666 0.78400004 7762799
0.084373333 0.045546666 0.78400004 7828330
0.086304761 0.045779053 0.78800005 7958899
0.088140003 0.045953333 0.79100001 8224892
0.089646667 0.045953333 0.79100001 8552569
-0.0612 0.045360003 0.75600004 8495802
-0.059680957 0.045300003 0.75500005 10930652
-0.058242857 0.045300003 0.75500005 13359581
-0.056804765 0.045300003 0.75500005 13424863
-0.05522 0.045180004 0.75300002 13490138
-0.053785715 0.045180004 0.75300002 13489621
-0.052281909 0.045120001 0.75200003 13423572
-0.050714288 0.045000002 0.75000006 13423316
-0.049285717 0.045000002 0.75000006 13357523
-0.047729526 0.044879999 0.74800003 13291987
-0.046304762 0.044879999 0.74800003 13291987
-0.044879999 0.044879999 0.74800003 13160660
-0.043455239 0.044879999 0.74800003 13094868
-0.042030476 0.044879999 0.74800003 13029333
-0.040605716 0.044879999 0.74800003 12963797
-0.039180957 0.044879999 0.74800003 12963797
-0.03775619 0.044879999 0.74800003 12964057
-0.03633143 0.044879999 0.74800003 13095134
-0.03486 0.044819999 0.74700004 13226203
-0.033481907 0.044879999 0.74800003 13424088
-0.032142859 0.045000002 0.75000006 13621986
-0.030714288 0.045000002 0.75000006 14148333
-0.029285716 0.045000002 0.75000006 14740981
-0.027857145 0.045000002 0.75000006 15201790
-0.026428573 0.045000002 0.75000006 15662846
-0.025000002 0.045000002 0.75000006 15662846
-0.02357143 0.045000002 0.75000006 15662846
-0.022142859 0.045000002 0.75000006 15397886
-0.020659048 0.044879999 0.74800003 15198707
-0.019208571 0.044819999 0.74700004 14737641
-0.017785715 0.044819999 0.74700004 14276581
-0.01631905 0.044700004 0.74500006 14080226
-0.014900001 0.044700004 0.74500006 13884125
-0.013480954 0.044700004 0.74500006 13621209
-0.012061905 0.044700004 0.74500006 13424089
-0.010642858 0.044700004 0.74500006 13225946
-0.0091990475 0.044580001 0.74300003 13094102
-0.0077838097 0.044580001 0.74300003 13028563
-0.0063685714 0.044580001 0.74300003 12896978
-0.0049533336 0.044580001 0.74300003 12765393
-0.0035380954 0.044580001 0.74300003 12633807
-0.0021228571 0.044580001 0.74300003 12568270
-0.00070666667 0.044520002 0.74200004 12568524
0.00070761907 0.044580001 0.74300003 12502731
0.0021228571 0.044580001 0.74300003 12437195
0.0035380954 0.044580001 0.74300003 12437452
0.0049533336 0.044580001 0.74300003 12502987
0.0063685714 0.044580001 0.74300003 12502475
0.0077733337 0.044520002 0.74200004 12568013
0.0091866674 0.044520002 0.74200004 12502480
0.010600001 0.044520002 0.74200004 12371149
0.011980952 0.044399999 0.74000001 12436683
0.013426667 0.044520002 0.74200004 12436426
0.0148 0.044399999 0.74000001 12370889
0.016253335 0.044520002 0.74200004 12305351
0.017666668 0.044520002 0.74200004 12174022
0.01908 0.044520002 0.74200004 12107971
0.020493334 0.044520002 0.74200004 12042177
0.021906666 0.044520002 0.74200004 11911105
0.023320002 0.044520002 0.74200004 11910849
0.024733335 0.044520002 0.74200004 11910592
0.026181906 0.044580001 0.74300003 11910591
0.027597144 0.044580001 0.74300003 11844797
0.029012382 0.044580001 0.74300003 11713468
0.03042762 0.044580001 0.74300003 11581883
0.031842858 0.044580001 0.74300003 11187642
0.033258095 0.044580001 0.74300003 10858935
0.034673333 0.044580001 0.74300003 10990004
0.036088571 0.044580001 0.74300003 11186610
0.037503812 0.044580001 0.74300003 11186865
0.03891905 0.044580001 0.74300003 11186863
0.040334288 0.044580001 0.74300003 11055789
0.04186191 0.044700004 0.74500006 10923949
0.043280955 0.044700004 0.74500006 11055278
0.044700004 0.044700004 0.74500006 11187361
0.046242859 0.044819999 0.74700004 9675412
0.047665719 0.044819999 0.74700004 8223357
0.049088575 0.044819999 0.74700004 7169894
0.050579049 0.044879999 0.74800003 6188654
0.052142859 0.045000002 0.75000006 6320502
0.053714287 0.045120001 0.75200003 6517372
0.055146668 0.045120001 0.75200003 6648707
0.05657905 0.045120001 0.75200003 6845817
0.058011431 0.045120001 0.75200003 6648432
0.059443813 0.045120001 0.75200003 6451056
0.071318097 0.046320003 0.77200001 6253947
0.072788574 0.046320003 0.77200001 6582392
0.074355245 0.046380006 0.77300006 7373430
0.07602381 0.046500001 0.77500004 8160118
0.077500001 0.046500001 0.77500004 8093046
0.079383813 0.046740003 0.77900004 7961719
0.080867618 0.046740003 0.77900004 7764088
0.08266858 0.046920002 0.78200006 7500661
0.0841581 0.046920002 0.78200006 7762803
0.085866667 0.047040001 0.78400004 8024434
0.087360002 0.047040001 0.78400004 8290162
0.089646667 0.047460001 0.79100001 8618613
-0.061361905 0.046923809 0.75800002 6982808
-0.059680957 0.046738099 0.75500005 10077898
-0.058242857 0.046738099 0.75500005 13161172
-0.056804765 0.046738099 0.75500005 13360094
-0.05522 0.046614286 0.75300002 13621210
-0.053785715 0.046614286 0.75300002 13555414
-0.052281909 0.046552382 0.75200003 13489365
-0.050714288 0.046428576 0.75000006 13423573
-0.049285717 0.046428576 0.75000006 13423316
-0.047729526 0.046304762 0.74800003 13357780
-0.046304762 0.046304762 0.74800003 13357523
-0.044879999 0.046304762 0.74800003 13226451
-0.043397143 0.046242859 0.74700004 13160660
-0.041974287 0.046242859 0.74700004 13095125
-0.040551431 0.046242859 0.74700004 13029589
-0.039128575 0.046242859 0.74700004 13029845
-0.037705716 0.046242859 0.74700004 13095384
-0.036282856 0.046242859 0.74700004 13161179
-0.03476667 0.046119049 0.74500006 13226714
-0.033347622 0.046119049 0.74500006 13357785
-0.032057144 0.046304762 0.74800003 13489887
-0.030632382 0.046304762 0.74800003 13555940
-0.029207621 0.046304762 0.74800003 13688297
-0.027782857 0.046304762 0.74800003 14148589
-0.026428573 0.046428576 0.75000006 14673903
-0.025000002 0.046428576 0.75000006 14675186
-0.023508571 0.046304762 0.74800003 14673904
-0.022083811 0.046304762 0.74800003 14213871
-0.020631431 0.046242859 0.74700004 13753832
-0.019157145 0.046119049 0.74500006 13621474
-0.017738096 0.046119049 0.74500006 13555681
-0.01631905 0.046119049 0.74500006 13554912
-0.014900001 0.046119049 0.74500006 13554141
-0.013480954 0.046119049 0.74500006 13356762
-0.012061905 0.046119049 0.74500006 13160152
-0.010642858 0.046119049 0.74500006 13094615
-0.0091990475 0.045995239 0.74300003 13028308
-0.0077838097 0.045995239 0.74300003 12897490
-0.0063685714 0.045995239 0.74300003 12831183
-0.0049466668 0.045933336 0.74200004 12699852
-0.0035333335 0.045933336 0.74200004 12568268
-0.0021200001 0.045933336 0.74200004 12568269
-0.00070666667 0.045933336 0.74200004 12568524
0.00070666667 0.045933336 0.74200004 12502475
0.0021200001 0.045933336 0.74200004 12502476
0.0035333335 0.045933336 0.74200004 12502989
0.0049533336 0.045995239 0.74300003 12502732
0.0063600005 0.045933336 0.74200004 12568267
0.0077733337 0.045933336 0.74200004 12699084
0.0091866674 0.045933336 0.74200004 12568013
0.010600001 0.045933336 0.74200004 12502220
0.011980952 0.045809526 0.74000001 12436683
0.013426667 0.045933336 0.74200004 12436681
0.0148 0.045809526 0.74000001 12371144
0.016253335 0.045933336 0.74200004 12305095
0.017666668 0.045933336 0.74200004 12239302
0.01908 0.045933336 0.74200004 12173252
0.020493334 0.045933336 0.74200004 12107714
0.021906666 0.045933336 0.74200004 12041921
0.023320002 0.045933336 0.74200004 11976383
0.024733335 0.045933336 0.74200004 11976127
0.026181906 0.045995239 0.74300003 11910591
0.027560001 0.045933336 0.74200004 11910077
0.029012382 0.045995239 0.74300003 11779004
0.03042762 0.045995239 0.74300003 11647161
0.031842858 0.045995239 0.74300003 11120054
0.033258095 0.045995239 0.74300003 10596533
0.034673333 0.045995239 0.74300003 10924725
0.036088571 0.045995239 0.74300003 11252403
0.037503812 0.045995239 0.74300003 11252401
0.03891905 0.045995239 0.74300003 11252399
0.040334288 0.045995239 0.74300003 11121581
0.04186191 0.046119049 0.74500006 10990000
0.043280955 0.046119049 0.74500006 11055283
0.044700004 0.046119049 0.74500006 11187106
0.046242859 0.046242859 0.74700004 9544081
0.047665719 0.046242859 0.74700004 7958905
0.049088575 0.046242859 0.74700004 7038818
0.050511431 0.046242859 0.74700004 6123371
0.052003808 0.046304762 0.74800003 6254964
0.053714287 0.046552382 0.75200003 6385784
0.05522 0.046614286 0.75300002 6451324
0.056654289 0.046614286 0.75300002 6582389
0.058011431 0.046552382 0.75200003 6451310
0.059443813 0.046552382 0.75200003 6385262
0.060876191 0.046552382 0.75200003 6253935
0.069938101 0.047852382 0.77300006 6188148
0.071318097 0.047790475 0.77200001 6581881
0.0726 0.047666669 0.77000004 6976119
0.07425905 0.047790475 0.77200001 7505014
0.075827621 0.047852382 0.77300006 8094327
0.077300005 0.047852382 0.77300006 8028280
0.079180002 0.048100002 0.77700001 8027000
0.080867618 0.048223812 0.77900004 7632760
0.08266858 0.048409529 0.78200006 7304567
0.0841581 0.048409529 0.78200006 7697270
0.086085714 0.048657142 0.78600001 8091252
0.087582856 0.048657142 0.78600001 8421234
-0.061361905 0.04836762 0.75800002 4486774
-0.059760004 0.048240002 0.75600004 8631224
-0.058320004 0.048240002 0.75600004 12700619
-0.056880001 0.048240002 0.75600004 13162974
-0.055366673 0.048176192 0.75500005 13621211
-0.053785715 0.048048571 0.75300002 13555416
-0.052281909 0.047984764 0.75200003 13555415
-0.050714288 0.047857147 0.75000006 13489622
-0.049285717 0.047857147 0.75000006 13489365
-0.047729526 0.047729526 0.74800003 13423317
-0.046304762 0.047729526 0.74800003 13357268
-0.044879999 0.047729526 0.74800003 13226195
-0.043397143 0.047665719 0.74700004 13160660
-0.041974287 0.047665719 0.74700004 13095125
-0.040551431 0.047665719 0.74700004 13029589
-0.039128575 0.047665719 0.74700004 13029846
-0.037705716 0.047665719 0.74700004 13095383
-0.036185715 0.047538098 0.74500006 13160921
-0.03476667 0.047538098 0.74500006 13226714
-0.033347622 0.047538098 0.74500006 13291995
-0.032014288 0.047665719 0.74700004 13358299
-0.03059143 0.047665719 0.74700004 13357532
-0.029168572 0.047665719 0.74700004 13356764
-0.027745714 0.047665719 0.74700004 13619421
-0.026322858 0.047665719 0.74700004 13882337
-0.024900001 0.047665719 0.74700004 13882086
-0.023477143 0.047665719 0.74700004 13947619
-0.022054287 0.047665719 0.74700004 13751776
