# .PCD v0.7 - Point Cloud Data file format
VERSION 0.7
FIELDS x y z rgba
SIZE 4 4 4 4
TYPE F F F U
COUNT 1 1 1 1
WIDTH 1065
HEIGHT 1
VIEWPOINT 0 0 0 1 0 0 0
POINTS 1065
DATA ascii
0.017261904 -0.053166665 0.72500002 9606800
0.018668571 -0.053240001 0.72600001 9410189
0.020106668 -0.05338667 0.72800004 9212043
0.021493334 -0.05338667 0.72800004 9013642
0.022911429 -0.053460002 0.72900003 8882570
0.024366667 -0.053606667 0.73100001 8751494
0.025794286 -0.053680003 0.73200005 8620162
0.027262859 -0.053826667 0.73400003 8488830
0.02873905 -0.053973336 0.73600006 8422523
0.030181907 -0.054046672 0.73700005 8421755
0.031671431 -0.054193333 0.73900002 8355963
0.03307905 -0.054193333 0.73900002 8289658
0.034533337 -0.054266665 0.74000001 8158074
0.036088571 -0.05448667 0.74300003 8026745
0.037604764 -0.054633338 0.74500006 7960952
0.039128575 -0.054780003 0.74700004 7895413
0.040605716 -0.054853335 0.74800003 7698546
0.042142861 -0.055000003 0.75000006 7501675
0.043745715 -0.05522 0.75300002 7632485
0.045360003 -0.055440001 0.75600004 7828326
0.047047619 -0.055733338 0.76000005 7763816
0.048686668 -0.055953331 0.76300001 7699305
0.050402857 -0.056246668 0.76700002 6906987
0.05193143 -0.05632 0.76800001 6114696
0.053533334 -0.056466669 0.77000004 8881830
0.05521429 -0.05668667 0.77300006 11651773
0.05668667 -0.05668667 0.77300006 12569556
-0.045779999 -0.054500002 0.76300001 13225175
-0.044152386 -0.054285716 0.76000005 13160665
-0.042480003 -0.054000005 0.75600004 13424347
-0.040985718 -0.053928573 0.75500005 13752796
-0.039442856 -0.053785715 0.75300002 13818590
-0.037958097 -0.053714287 0.75200003 13949919
-0.036428574 -0.053571433 0.75000006 13950177
-0.034906667 -0.053428572 0.74800003 14015970
-0.033437144 -0.053357143 0.74700004 14081763
-0.031928573 -0.053214289 0.74500006 14212580
-0.03042762 -0.053071432 0.74300003 14212581
-0.028895238 -0.052857142 0.74000001 14212580
-0.027448572 -0.052785717 0.73900002 14147299
-0.025970478 -0.052642863 0.73700005 14146788
-0.024566669 -0.052642863 0.73700005 14411238
-0.02313143 -0.052571431 0.73600006 14673121
-0.021670477 -0.052428573 0.73400003 14211548
-0.020217143 -0.05228572 0.73200005 13752282
-0.018797142 -0.052214287 0.73100001 13555417
-0.017404761 -0.052214287 0.73100001 13423576
-0.015968572 -0.05207143 0.72900003 13357527
-0.014560001 -0.052000001 0.72800004 13291990
-0.013137143 -0.051857144 0.72600001 13291990
-0.011738095 -0.051785715 0.72500002 13291987
-0.010328572 -0.051642857 0.72300005 13226449
-0.0089390483 -0.051571433 0.72200006 13160144
-0.0075638103 -0.051571433 0.72200006 13094351
-0.0061714291 -0.051428575 0.72000003 13094092
-0.0047999998 -0.051428575 0.72000003 12962761
-0.0034285716 -0.051428575 0.72000003 12831173
-0.0020542857 -0.051357146 0.71900004 12568257
-0.00068476191 -0.051357146 0.71900004 12371134
0.00068476191 -0.051357146 0.71900004 12106684
0.0020542857 -0.051357146 0.71900004 11909812
0.0034238098 -0.051357146 0.71900004 11581612
0.0047933338 -0.051357146 0.71900004 11252139
0.0061628572 -0.051357146 0.71900004 10923177
0.0075323815 -0.051357146 0.71900004 10592931
0.0089019043 -0.051357146 0.71900004 10396060
0.010271429 -0.051357146 0.71900004 10264473
0.011657143 -0.051428575 0.72000003 10132630
0.013028571 -0.051428575 0.72000003 10001043
0.014440001 -0.051571433 0.72200006 9804177
0.015837144 -0.051642857 0.72300005 9672591
0.017285714 -0.051857144 0.72600001 9475726
0.018668571 -0.051857144 0.72600001 9343627
0.020106668 -0.052000001 0.72800004 9211528
0.021493334 -0.052000001 0.72800004 9079430
0.022911429 -0.05207143 0.72900003 8948100
0.024400003 -0.05228572 0.73200005 8817027
0.025794286 -0.05228572 0.73200005 8685186
0.027337145 -0.052571431 0.73600006 8553855
0.028778099 -0.052642863 0.73700005 8488060
0.030181907 -0.052642863 0.73700005 8422011
0.031671431 -0.052785717 0.73900002 8355963
0.03307905 -0.052785717 0.73900002 8289915
0.034533337 -0.052857142 0.74000001 8158075
0.036088571 -0.053071432 0.74300003 8026489
0.037604764 -0.053214289 0.74500006 7960696
0.039180957 -0.053428572 0.74800003 7960949
0.040605716 -0.053428572 0.74800003 7829875
0.042142861 -0.053571433 0.75000006 7763821
0.043745715 -0.053785715 0.75300002 7763816
0.045360003 -0.054000005 0.75600004 7829097
0.047047619 -0.054285716 0.76000005 7698027
0.048686668 -0.054500002 0.76300001 7633002
0.050402857 -0.054785714 0.76700002 6908009
0.05193143 -0.054857146 0.76800001 6246792
0.053533334 -0.055000003 0.77000004 9212071
0.055000003 -0.055000003 0.77000004 12241086
0.056613334 -0.055142857 0.77200001 13033685
0.05808381 -0.055142857 0.77200001 13881297
-0.047233336 -0.053046666 0.76300001 13424858
-0.04566 -0.05290762 0.76100004 13358811
-0.044152386 -0.052838098 0.76000005 13358556
-0.042480003 -0.052560002 0.75600004 13555678
-0.040985718 -0.05249048 0.75500005 13818335
-0.039442856 -0.05235143 0.75300002 13949921
-0.038008571 -0.05235143 0.75300002 14081762
-0.036428574 -0.052142859 0.75000006 14081763
-0.034906667 -0.052003808 0.74800003 14082020
-0.033437144 -0.051934287 0.74700004 14147302
-0.031928573 -0.051795244 0.74500006 14278375
-0.03042762 -0.05165619 0.74300003 14212840
-0.028973334 -0.051586669 0.74200004 14213094
-0.027448572 -0.051378097 0.73900002 14212836
-0.026040953 -0.051378097 0.73900002 14212583
-0.024566669 -0.051239051 0.73700005 14345195
-0.02313143 -0.051169526 0.73600006 14476771
-0.021670477 -0.051030476 0.73400003 14146267
-0.020217143 -0.050891433 0.73200005 13752538
-0.018797142 -0.050821904 0.73100001 13620698
-0.017404761 -0.050821904 0.73100001 13489368
-0.01601238 -0.050821904 0.73100001 13358038
-0.014580001 -0.050682858 0.72900003 13292502
-0.013173334 -0.050613336 0.72800004 13226710
-0.011754286 -0.050474286 0.72600001 13226708
-0.010357142 -0.050404765 0.72500002 13160658
-0.0089514283 -0.050265718 0.72300005 13160144
-0.0075638103 -0.050196193 0.72200006 13094095
-0.0061885719 -0.050196193 0.72200006 13028555
-0.0047999998 -0.050057143 0.72000003 12897224
-0.0034285716 -0.050057143 0.72000003 12765635
-0.002057143 -0.050057143 0.72000003 12502463
-0.0006857143 -0.050057143 0.72000003 12305340
0.00068476191 -0.049987622 0.71900004 12041146
0.0020542857 -0.049987622 0.71900004 11778482
0.0034238098 -0.049987622 0.71900004 11383979
0.0047933338 -0.049987622 0.71900004 11054506
0.0061628572 -0.049987622 0.71900004 10724778
0.0075323815 -0.049987622 0.71900004 10395298
0.0089019043 -0.049987622 0.71900004 10263962
0.010285715 -0.050057143 0.72000003 10132888
0.011657143 -0.050057143 0.72000003 10000791
0.013028571 -0.050057143 0.72000003 9869203
0.014400001 -0.050057143 0.72000003 9672592
0.015815239 -0.050196193 0.72200006 9541774
0.017285714 -0.050474286 0.72600001 9409677
0.018720001 -0.050613336 0.72800004 9277321
0.020106668 -0.050613336 0.72800004 9145990
0.021522857 -0.050682858 0.72900003 9014402
0.022974286 -0.050821904 0.73100001 8882814
0.024400003 -0.050891433 0.73200005 8817024
0.025864763 -0.051030476 0.73400003 8685186
0.027337145 -0.051169526 0.73600006 8553856
0.02873905 -0.051169526 0.73600006 8487806
0.030181907 -0.051239051 0.73700005 8422268
0.031671431 -0.051378097 0.73900002 8356219
0.03307905 -0.051378097 0.73900002 8290171
0.034533337 -0.051447619 0.74000001 8158588
0.036088571 -0.05165619 0.74300003 8026490
0.037705716 -0.051934287 0.74700004 7960953
0.039180957 -0.052003808 0.74800003 7895414
0.040605716 -0.052003808 0.74800003 7829620
0.042142861 -0.052142859 0.75000006 7763823
0.043745715 -0.05235143 0.75300002 7698283
0.045300003 -0.05249048 0.75500005 7698541
0.046923809 -0.052699048 0.75800002 7566959
0.048686668 -0.053046666 0.76300001 7435883
0.050402857 -0.053324763 0.76700002 6842984
0.051863808 -0.053324763 0.76700002 6247816
0.053394284 -0.053394284 0.76800001 9278377
0.055142857 -0.053672384 0.77200001 12371904
0.056613334 -0.053672384 0.77200001 13164503
0.05808381 -0.053672384 0.77200001 14013138
-0.047109526 -0.051458098 0.76100004 13556188
-0.04566 -0.051458098 0.76100004 13555422
-0.044152386 -0.05139048 0.76000005 13555423
-0.042480003 -0.051120002 0.75600004 13753056
-0.041040003 -0.051120002 0.75600004 13949922
-0.039442856 -0.050917145 0.75300002 14082276
-0.037958097 -0.050849527 0.75200003 14213349
-0.036428574 -0.050714288 0.75000006 14213350
-0.034906667 -0.050579049 0.74800003 14213351
-0.033437144 -0.050511431 0.74700004 14278888
-0.031928573 -0.050376195 0.74500006 14344168
-0.03042762 -0.050240953 0.74300003 14278632
-0.028895238 -0.050038096 0.74000001 14278628
-0.027485715 -0.050038096 0.74000001 14278368
-0.026040953 -0.049970478 0.73900002 14278887
-0.024566669 -0.049835242 0.73700005 14279407
-0.02313143 -0.049767621 0.73600006 14344933
-0.021670477 -0.049632382 0.73400003 14080987
-0.020217143 -0.049497146 0.73200005 13817819
-0.018797142 -0.049429525 0.73100001 13686236
-0.017404761 -0.049429525 0.73100001 13620698
-0.015968572 -0.049294289 0.72900003 13424089
-0.014560001 -0.049226668 0.72800004 13292247
-0.013173334 -0.049226668 0.72800004 13226710
-0.011754286 -0.049091429 0.72600001 13226451
-0.010357142 -0.049023811 0.72500002 13160657
-0.0089514283 -0.048888575 0.72300005 13160399
-0.0075638103 -0.048820958 0.72200006 13028302
-0.0061885719 -0.048820958 0.72200006 12962762
-0.0047999998 -0.048685715 0.72000003 12831687
-0.0034285716 -0.048685715 0.72000003 12699587
-0.002057143 -0.048685715 0.72000003 12436671
-0.0006857143 -0.048685715 0.72000003 12239036
0.00068476191 -0.048618097 0.71900004 11910074
0.0020542857 -0.048618097 0.71900004 11646643
0.0034238098 -0.048618097 0.71900004 11251883
0.0047933338 -0.048618097 0.71900004 10923177
0.0061628572 -0.048618097 0.71900004 10591911
0.0075323815 -0.048618097 0.71900004 10264224
0.0089019043 -0.048618097 0.71900004 10132633
0.010285715 -0.048685715 0.72000003 10001303
0.011657143 -0.048685715 0.72000003 9869205
0.013028571 -0.048685715 0.72000003 9737875
0.014400001 -0.048685715 0.72000003 9541009
0.015815239 -0.048820958 0.72200006 9409423
0.017285714 -0.049091429 0.72600001 9343628
0.018720001 -0.049226668 0.72800004 9277065
0.020106668 -0.049226668 0.72800004 9145991
0.021522857 -0.049294289 0.72900003 9014404
0.022911429 -0.049294289 0.72900003 8883330
0.024400003 -0.049497146 0.73200005 8817029
0.025864763 -0.049632382 0.73400003 8685448
0.027337145 -0.049767621 0.73600006 8553860
0.02873905 -0.049767621 0.73600006 8487809
0.030181907 -0.049835242 0.73700005 8487807
0.031671431 -0.049970478 0.73900002 8356477
0.03307905 -0.049970478 0.73900002 8290428
0.034533337 -0.050038096 0.74000001 8159099
0.036088571 -0.050240953 0.74300003 8026745
0.037705716 -0.050511431 0.74700004 7961207
0.039180957 -0.050579049 0.74800003 7895158
0.040605716 -0.050579049 0.74800003 7829620
0.042142861 -0.050714288 0.75000006 7764080
0.043745715 -0.050917145 0.75300002 7698539
0.045300003 -0.051052384 0.75500005 7632494
0.046923809 -0.051255237 0.75800002 7435376
0.048559051 -0.051458098 0.76100004 7238764
0.050139997 -0.051593333 0.76300001 6777959
0.051728573 -0.051728573 0.76500005 6314890
0.05318572 -0.051728573 0.76500005 9410221
0.05464286 -0.051728573 0.76500005 12506566
0.056100003 -0.051728573 0.76500005 13295328
0.05808381 -0.052201904 0.77200001 14147038
-0.051059999 -0.051059999 0.77700001 8035491
-0.049005713 -0.050468571 0.76800001 10864090
-0.047233336 -0.050139997 0.76300001 13687774
-0.04566 -0.050008573 0.76100004 13687266
-0.044152386 -0.049942859 0.76000005 13686754
-0.04259238 -0.04981143 0.75800002 13949923
-0.041040003 -0.049680002 0.75600004 14212581
-0.039442856 -0.049482856 0.75300002 14213608
-0.037958097 -0.049417142 0.75200003 14214633
-0.036428574 -0.049285717 0.75000006 14147306
-0.035000004 -0.049285717 0.75000006 14147818
-0.033437144 -0.049088575 0.74700004 14278890
-0.031928573 -0.048957143 0.74500006 14410217
-0.03042762 -0.048825715 0.74300003 14409961
-0.028895238 -0.048628572 0.74000001 14409955
-0.027448572 -0.048562858 0.73900002 14410205
-0.026040953 -0.048562858 0.73900002 14410472
-0.024566669 -0.048431434 0.73700005 14344947
-0.02313143 -0.04836572 0.73600006 14344423
-0.02161143 -0.048102859 0.73200005 14081244
-0.020217143 -0.048102859 0.73200005 13817565
-0.018797142 -0.048037142 0.73100001 13752030
-0.017357143 -0.047905717 0.72900003 13686493
-0.015968572 -0.047905717 0.72900003 13489372
-0.014560001 -0.047840003 0.72800004 13357785
-0.013173334 -0.047840003 0.72800004 13292247
-0.011754286 -0.047708571 0.72600001 13226195
-0.010357142 -0.047642857 0.72500002 13160656
-0.0089514283 -0.047511432 0.72300005 13160910
-0.0075742863 -0.047511432 0.72300005 13028301
-0.0061885719 -0.047445718 0.72200006 12896970
-0.0047999998 -0.047314286 0.72000003 12765127
-0.0034285716 -0.047314286 0.72000003 12568003
-0.002057143 -0.047314286 0.72000003 12304831
-0.0006857143 -0.047314286 0.72000003 12107453
0.0006857143 -0.047314286 0.72000003 11777979
0.002057143 -0.047314286 0.72000003 11449267
0.0034238098 -0.047248576 0.71900004 11120300
0.0047933338 -0.047248576 0.71900004 10792104
0.0061628572 -0.047248576 0.71900004 10461093
0.0075323815 -0.047248576 0.71900004 10198686
0.0089019043 -0.047248576 0.71900004 10066840
0.010271429 -0.047248576 0.71900004 9935254
0.011657143 -0.047314286 0.72000003 9737876
0.013028571 -0.047314286 0.72000003 9606035
0.014400001 -0.047314286 0.72000003 9474707
0.015880954 -0.047642857 0.72500002 9343375
0.017261904 -0.047642857 0.72500002 9277836
0.018642858 -0.047642857 0.72500002 9211530
0.020106668 -0.047840003 0.72800004 9080200
0.021522857 -0.047905717 0.72900003 8948359
0.022974286 -0.048037142 0.73100001 8882822
0.024400003 -0.048102859 0.73200005 8817034
0.025864763 -0.048234288 0.73400003 8685455
0.027337145 -0.04836572 0.73600006 8619657
0.02873905 -0.04836572 0.73600006 8553604
0.030181907 -0.048431434 0.73700005 8553346
0.031671431 -0.048562858 0.73900002 8421760
0.03307905 -0.048562858 0.73900002 8290685
0.034533337 -0.048628572 0.74000001 8159098
0.036040001 -0.048760001 0.74200004 8027256
0.037604764 -0.048957143 0.74500006 7895670
0.039180957 -0.049154289 0.74800003 7764085
0.040605716 -0.049154289 0.74800003 7633013
0.042142861 -0.049285717 0.75000006 7566704
0.043861907 -0.049614292 0.75500005 7566700
0.045360003 -0.049680002 0.75600004 7566703
0.047047619 -0.049942859 0.76000005 7435378
0.048559051 -0.050008573 0.76100004 7303788
0.050008573 -0.050008573 0.76100004 6908775
0.051593333 -0.050139997 0.76300001 6447500
0.053046666 -0.050139997 0.76300001 9477297
0.054500002 -0.050139997 0.76300001 12575949
0.056100003 -0.050271433 0.76500005 13231082
-0.050731428 -0.049260955 0.77200001 8100517
-0.049005713 -0.049005713 0.76800001 10995158
-0.047233336 -0.048686668 0.76300001 13884893
-0.04566 -0.048559051 0.76100004 13819364
-0.044152386 -0.048495241 0.76000005 13819109
-0.042480003 -0.048240002 0.75600004 14146791
-0.041040003 -0.048240002 0.75600004 14540770
-0.039442856 -0.048048571 0.75300002 14344924
-0.037958097 -0.047984764 0.75200003 14213092
-0.036428574 -0.047857147 0.75000006 14147051
-0.034906667 -0.047729526 0.74800003 14082027
-0.033347622 -0.047538098 0.74500006 14279404
-0.031842858 -0.047410477 0.74300003 14476267
-0.03042762 -0.047410477 0.74300003 14542058
-0.028895238 -0.047219049 0.74000001 14607079
-0.027448572 -0.047155239 0.73900002 14541284
-0.025970478 -0.047027621 0.73700005 14541545
-0.024533335 -0.046963815 0.73600006 14476271
-0.02313143 -0.046963815 0.73600006 14409959
-0.02161143 -0.046708573 0.73200005 14147295
-0.020189524 -0.046644762 0.73100001 13883615
-0.018797142 -0.046644762 0.73100001 13818079
-0.017357143 -0.046517145 0.72900003 13752029
-0.015946668 -0.046453338 0.72800004 13620444
-0.014560001 -0.046453338 0.72800004 13489113
-0.013137143 -0.046325717 0.72600001 13358038
-0.011754286 -0.046325717 0.72600001 13291987
-0.010357142 -0.046261907 0.72500002 13226192
-0.0089761904 -0.046261907 0.72500002 13160143
-0.0075742863 -0.046134286 0.72300005 13028557
-0.0061885719 -0.046070479 0.72200006 12896714
-0.0047999998 -0.045942858 0.72000003 12698312
-0.0034285716 -0.045942858 0.72000003 12501187
-0.002057143 -0.045942858 0.72000003 12238782
-0.0006857143 -0.045942858 0.72000003 11976123
0.0006857143 -0.045942858 0.72000003 11645880
0.002057143 -0.045942858 0.72000003 11317681
0.0034285716 -0.045942858 0.72000003 10988714
0.0047999998 -0.045942858 0.72000003 10660262
0.0061714291 -0.045942858 0.72000003 10396066
0.0075323815 -0.045879051 0.71900004 10132891
0.0089019043 -0.045879051 0.71900004 10001301
0.010285715 -0.045942858 0.72000003 9869460
0.011657143 -0.045942858 0.72000003 9672339
0.013028571 -0.045942858 0.72000003 9474962
0.014400001 -0.045942858 0.72000003 9408914
0.015837144 -0.046134286 0.72300005 9343119
0.017261904 -0.046261907 0.72500002 9212044
0.018668571 -0.046325717 0.72600001 9145995
0.020051429 -0.046325717 0.72600001 9014410
0.021493334 -0.046453338 0.72800004 8883080
0.022911429 -0.046517145 0.72900003 8817543
0.024366667 -0.046644762 0.73100001 8816776
0.025794286 -0.046708573 0.73200005 8750985
0.027262859 -0.04683619 0.73400003 8750470
0.028660953 -0.04683619 0.73400003 8684930
0.030140955 -0.046963815 0.73600006 8618626
0.031585716 -0.047027621 0.73700005 8487297
0.032989528 -0.047027621 0.73700005 8356221
0.034533337 -0.047219049 0.74000001 8159354
0.036040001 -0.04734667 0.74200004 8027257
0.037604764 -0.047538098 0.74500006 7830393
0.039128575 -0.047665719 0.74700004 7698550
0.040605716 -0.047729526 0.74800003 7501939
0.042255241 -0.047984764 0.75200003 7370096
0.043919999 -0.048240002 0.75600004 7435886
0.045480002 -0.04836762 0.75800002 7501166
0.047047619 -0.048495241 0.76000005 7435374
0.048495241 -0.048495241 0.76000005 7434347
0.050008573 -0.048559051 0.76100004 7039847
0.051458098 -0.048559051 0.76100004 6646661
0.053046666 -0.048686668 0.76300001 9609891
0.054500002 -0.048686668 0.76300001 12634046
-0.0506 -0.047666669 0.77000004 8231335
-0.048941903 -0.047480952 0.76700002 11127506
-0.047233336 -0.047233336 0.76300001 14016732
-0.045779999 -0.047233336 0.76300001 14016486
-0.044210479 -0.047109526 0.76100004 14082025
-0.04259238 -0.046923809 0.75800002 13296108
-0.041040003 -0.046800002 0.75600004 12575966
-0.039442856 -0.046614286 0.75300002 11194577
-0.037958097 -0.046552382 0.75200003 9813471
-0.036428574 -0.046428576 0.75000006 11389421
-0.03486 -0.046242859 0.74700004 12965613
-0.033347622 -0.046119049 0.74500006 13821166
-0.031842858 -0.045995239 0.74300003 14673645
-0.03042762 -0.045995239 0.74300003 14607340
-0.028973334 -0.045933336 0.74200004 14541804
-0.027448572 -0.045747619 0.73900002 14541804
-0.025970478 -0.045623813 0.73700005 14607595
-0.024533335 -0.04556191 0.73600006 14476011
-0.023068571 -0.045438096 0.73400003 14344422
-0.02161143 -0.045314286 0.73200005 14147298
-0.020189524 -0.045252379 0.73100001 13949921
-0.018797142 -0.045252379 0.73100001 13818080
-0.017357143 -0.045128573 0.72900003 13752286
-0.015946668 -0.04506667 0.72800004 13620700
-0.014560001 -0.04506667 0.72800004 13554905
-0.013137143 -0.04494286 0.72600001 13423574
-0.011754286 -0.04494286 0.72600001 13357779
-0.010357142 -0.044880953 0.72500002 13226193
-0.0089761904 -0.044880953 0.72500002 13159631
-0.0075742863 -0.044757146 0.72300005 13028558
-0.0061971433 -0.044757146 0.72300005 12831179
-0.0048133335 -0.044695243 0.72200006 12633033
-0.0034380956 -0.044695243 0.72200006 12435651
-0.002057143 -0.044571429 0.72000003 12172990
-0.0006857143 -0.044571429 0.72000003 11910586
0.0006857143 -0.044571429 0.72000003 11580086
0.002057143 -0.044571429 0.72000003 11186351
0.0034285716 -0.044571429 0.72000003 10857129
0.0047999998 -0.044571429 0.72000003 10594212
0.0061714291 -0.044571429 0.72000003 10329759
0.007542857 -0.044571429 0.72000003 10067097
0.0089142863 -0.044571429 0.72000003 9869971
0.010285715 -0.044571429 0.72000003 9738130
0.011657143 -0.044571429 0.72000003 9540754
0.013028571 -0.044571429 0.72000003 9409426
0.014440001 -0.044695243 0.72200006 9343378
0.015837144 -0.044757146 0.72300005 9277327
0.017261904 -0.044880953 0.72500002 9211788
0.018720001 -0.04506667 0.72800004 9080460
0.020134287 -0.045128573 0.72900003 9014669
0.021522857 -0.045128573 0.72900003 8948874
0.022911429 -0.045128573 0.72900003 8882824
0.024366667 -0.045252379 0.73100001 8816774
0.025794286 -0.045314286 0.73200005 8816516
0.027262859 -0.045438096 0.73400003 8881538
0.028660953 -0.045438096 0.73400003 8750465
0.030059047 -0.045438096 0.73400003 8618626
0.031585716 -0.045623813 0.73700005 8487299
0.03312381 -0.045809526 0.74000001 8356222
0.034533337 -0.045809526 0.74000001 8159610
0.036040001 -0.045933336 0.74200004 7961979
0.037604764 -0.046119049 0.74500006 7567997
0.039128575 -0.046242859 0.74700004 7239799
0.040605716 -0.046304762 0.74800003 7108465
0.042255241 -0.046552382 0.75200003 6977137
0.043919999 -0.046800002 0.75600004 7107697
0.045480002 -0.046923809 0.75800002 7238254
0.047109526 -0.047109526 0.76100004 7238507
0.048559051 -0.047109526 0.76100004 7302761
0.050139997 -0.047233336 0.76300001 7170920
0.051593333 -0.047233336 0.76300001 6977151
0.053046666 -0.047233336 0.76300001 8622486
0.054500002 -0.047233336 0.76300001 10267568
-0.0506 -0.0462 0.77000004 8429737
-0.048941903 -0.046020001 0.76700002 11325655
-0.047357146 -0.045900002 0.76500005 14213090
-0.045779999 -0.045779999 0.76300001 14278638
-0.044326667 -0.045779999 0.76300001 14343910
-0.042760953 -0.04566 0.76100004 12510430
-0.041040003 -0.045360003 0.75600004 10662084
-0.039547618 -0.045300003 0.75500005 8027561
-0.037857145 -0.045000002 0.75000006 5474497
-0.03633143 -0.044879999 0.74800003 8623066
-0.03486 -0.044819999 0.74700004 11851748
-0.033347622 -0.044700004 0.74500006 13362927
-0.031842858 -0.044580001 0.74300003 14869741
-0.03042762 -0.044580001 0.74300003 14672875
-0.028856192 -0.044340003 0.73900002 14541805
-0.027448572 -0.044340003 0.73900002 14607598
-0.02593524 -0.044160005 0.73600006 14673132
-0.024466667 -0.044040002 0.73400003 14476010
-0.023005717 -0.043920003 0.73200005 14344166
-0.021581903 -0.04386 0.73100001 14147298
-0.020189524 -0.04386 0.73100001 14015201
-0.018797142 -0.04386 0.73100001 13883871
-0.017357143 -0.043740001 0.72900003 13818077
-0.015946668 -0.043680001 0.72800004 13686748
-0.014560001 -0.043680001 0.72800004 13620697
-0.013137143 -0.043559998 0.72600001 13489367
-0.011754286 -0.043559998 0.72600001 13423318
-0.010357142 -0.043500002 0.72500002 13291732
-0.0089761904 -0.043500002 0.72500002 13225426
-0.0075742863 -0.043380003 0.72300005 13028560
-0.0061885719 -0.043320004 0.72200006 12830924
-0.0048133335 -0.043320004 0.72200006 12633544
-0.0034380956 -0.043320004 0.72200006 12436162
-0.002057143 -0.043200001 0.72000003 12171709
-0.0006857143 -0.043200001 0.72000003 11909817
0.0006857143 -0.043200001 0.72000003 11514548
0.002057143 -0.043200001 0.72000003 11120301
0.0034285716 -0.043200001 0.72000003 10791079
0.0047999998 -0.043200001 0.72000003 10528675
0.0061714291 -0.043200001 0.72000003 10263712
0.007542857 -0.043200001 0.72000003 10067098
0.0089142863 -0.043200001 0.72000003 9804436
0.010285715 -0.043200001 0.72000003 9607059
0.011657143 -0.043200001 0.72000003 9474963
0.013028571 -0.043200001 0.72000003 9409426
0.014400001 -0.043200001 0.72000003 9343633
0.015837144 -0.043380003 0.72300005 9277838
0.017261904 -0.043500002 0.72500002 9146763
0.018720001 -0.043680001 0.72800004 9080715
0.020134287 -0.043740001 0.72900003 9014923
0.021522857 -0.043740001 0.72900003 9014409
0.022974286 -0.04386 0.73100001 8948103
0.024366667 -0.04386 0.73100001 8882308
0.025794286 -0.043920003 0.73200005 8947586
0.027262859 -0.044040002 0.73400003 9012865
0.028660953 -0.044040002 0.73400003 8816001
0.030059047 -0.044040002 0.73400003 8684161
0.031585716 -0.044220004 0.73700005 8487298
0.03307905 -0.044340003 0.73900002 8356221
0.03448667 -0.044340003 0.73900002 8159865
0.03594286 -0.044399999 0.74000001 7962491
0.037503812 -0.044580001 0.74300003 7371389
0.039023813 -0.044700004 0.74500006 6779254
0.040442862 -0.044700004 0.74500006 6645872
0.042255241 -0.045120001 0.75200003 6581615
0.044036191 -0.045480002 0.75800002 6779502
0.045480002 -0.045480002 0.75800002 6976109
0.047109526 -0.04566 0.76100004 7107180
0.048686668 -0.045779999 0.76300001 7236970
0.050139997 -0.045779999 0.76300001 7302249
0.051593333 -0.045779999 0.76300001 7368826
0.053046666 -0.045779999 0.76300001 7635339
-0.050731428 -0.044849522 0.77200001 8825003
-0.049005713 -0.044617143 0.76800001 11591132
-0.047542859 -0.044617143 0.76800001 14409705
-0.046079997 -0.044617143 0.76800001 13754102
-0.04455905 -0.04455905 0.76700002 13164003
-0.042760953 -0.044210479 0.76100004 10728145
-0.041148573 -0.044036191 0.75800002 8350377
-0.039180957 -0.043455239 0.74800003 7175554
-0.03775619 -0.043455239 0.74800003 5991332
-0.036282856 -0.043397143 0.74700004 9150919
-0.03476667 -0.043280955 0.74500006 12376540
-0.033347622 -0.043280955 0.74500006 13625073
-0.031842858 -0.043164764 0.74300003 14871534
-0.03042762 -0.043164764 0.74300003 14738411
-0.028856192 -0.042932384 0.73900002 14607342
-0.027374288 -0.042816196 0.73700005 14672881
-0.02593524 -0.0427581 0.73600006 14738669
-0.024466667 -0.042641908 0.73400003 14541290
-0.023005717 -0.042525716 0.73200005 14344166
-0.021581903 -0.042467616 0.73100001 14146787
-0.020189524 -0.042467616 0.73100001 14015201
-0.018745715 -0.042351428 0.72900003 13949407
-0.017333334 -0.042293333 0.72800004 13883869
-0.015946668 -0.042293333 0.72800004 13752540
-0.014560001 -0.042293333 0.72800004 13686490
-0.013137143 -0.042177141 0.72600001 13555161
-0.011754286 -0.042177141 0.72600001 13488856
-0.010357142 -0.042119049 0.72500002 13357272
-0.0089761904 -0.042119049 0.72500002 13225685
-0.0075742863 -0.04200286 0.72300005 13028563
-0.0061885719 -0.041944765 0.72200006 12830925
-0.0048133335 -0.041944765 0.72200006 12699079
-0.0034380956 -0.041944765 0.72200006 12502210
-0.002057143 -0.041828573 0.72000003 12238269
-0.0006857143 -0.041828573 0.72000003 11909048
0.0006857143 -0.041828573 0.72000003 11514547
0.002057143 -0.041828573 0.72000003 11185580
0.0034285716 -0.041828573 0.72000003 10856869
0.0047999998 -0.041828573 0.72000003 10594211
0.0061714291 -0.041828573 0.72000003 10330273
0.007542857 -0.041828573 0.72000003 10132891
0.0089142863 -0.041828573 0.72000003 9935765
0.010285715 -0.041828573 0.72000003 9672597
0.011657143 -0.041828573 0.72000003 9540757
0.013028571 -0.041828573 0.72000003 9409427
0.014440001 -0.041944765 0.72200006 9343633
0.015837144 -0.04200286 0.72300005 9277837
0.017261904 -0.042119049 0.72500002 9212298
0.018720001 -0.042293333 0.72800004 9146505
0.020134287 -0.042351428 0.72900003 9014921
0.021581903 -0.042467616 0.73100001 8949127
0.022974286 -0.042467616 0.73100001 8883078
0.024366667 -0.042467616 0.73100001 8882819
0.025794286 -0.042525716 0.73200005 8882304
0.027188573 -0.042525716 0.73200005 8882048
0.028660953 -0.042641908 0.73400003 8750721
0.030059047 -0.042641908 0.73400003 8684417
0.03154286 -0.0427581 0.73600006 8553345
0.032989528 -0.042816196 0.73700005 8422268
0.034393337 -0.042816196 0.73700005 8225400
0.03589429 -0.042932384 0.73900002 8028794
0.037453339 -0.043106668 0.74200004 7369085
0.039023813 -0.043280955 0.74500006 6775670
0.040442862 -0.043280955 0.74500006 6579823
0.04186191 -0.043280955 0.74500006 6384237
0.044036191 -0.044036191 0.75800002 6450284
0.045600004 -0.044152386 0.76000005 6582124
0.047233336 -0.044326667 0.76300001 6843757
0.048686668 -0.044326667 0.76300001 7040108
0.050139997 -0.044326667 0.76300001 7301995
0.051728573 -0.044442859 0.76500005 7498614
0.05318572 -0.044442859 0.76500005 7963265
-0.050731428 -0.043379046 0.77200001 9284787
-0.049133338 -0.043266669 0.77000004 11922141
-0.047666669 -0.043266669 0.77000004 14608608
-0.046079997 -0.043154284 0.76800001 13297636
-0.044617143 -0.043154284 0.76800001 11974857
-0.043154284 -0.043154284 0.76800001 9011631
-0.041148573 -0.04259238 0.75800002 6061981
-0.039128575 -0.041974287 0.74700004 6323595
-0.037705716 -0.041974287 0.74700004 6585770
-0.036282856 -0.041974287 0.74700004 9744330
-0.03476667 -0.04186191 0.74500006 12903389
-0.033258095 -0.041749526 0.74300003 13887472
-0.031842858 -0.041749526 0.74300003 14935532
-0.03042762 -0.041749526 0.74300003 14804200
-0.028856192 -0.041524764 0.73900002 14672878
-0.027374288 -0.041412383 0.73700005 14741492
-0.02593524 -0.041356195 0.73600006 14804717
-0.024466667 -0.04124381 0.73400003 14541286
-0.023005717 -0.041131433 0.73200005 14344164
-0.021581903 -0.041075241 0.73100001 14146530
-0.020134287 -0.04096286 0.72900003 14015200
-0.018745715 -0.04096286 0.72900003 13949663
-0.017333334 -0.040906668 0.72800004 13949406
-0.015902856 -0.040794283 0.72600001 13818333
-0.01452 -0.040794283 0.72600001 13752027
-0.013137143 -0.040794283 0.72600001 13620954
-0.011754286 -0.040794283 0.72600001 13554393
-0.010357142 -0.040738095 0.72500002 13357527
-0.0089514283 -0.040625714 0.72300005 13225685
-0.0075742863 -0.040625714 0.72300005 13028562
-0.0061885719 -0.040569525 0.72200006 12896461
-0.0048133335 -0.040569525 0.72200006 12764871
-0.0034285716 -0.040457144 0.72000003 12633027
-0.002057143 -0.040457144 0.72000003 12304832
-0.0006857143 -0.040457144 0.72000003 11975607
0.0006857143 -0.040457144 0.72000003 11580078
0.002057143 -0.040457144 0.72000003 11251114
0.0034285716 -0.040457144 0.72000003 10922662
0.0047999998 -0.040457144 0.72000003 10659747
0.0061714291 -0.040457144 0.72000003 10462369
0.007542857 -0.040457144 0.72000003 10264220
0.0089142863 -0.040457144 0.72000003 10001560
0.010285715 -0.040457144 0.72000003 9803926
0.011657143 -0.040457144 0.72000003 9606804
0.013064764 -0.040569525 0.72200006 9475218
0.014440001 -0.040569525 0.72200006 9409169
0.015837144 -0.040625714 0.72300005 9343375
0.017261904 -0.040738095 0.72500002 9277836
0.018720001 -0.040906668 0.72800004 9212043
0.020134287 -0.04096286 0.72900003 9080713
0.021581903 -0.041075241 0.73100001 8949384
0.022974286 -0.041075241 0.73100001 8883591
0.024366667 -0.041075241 0.73100001 8883332
0.025794286 -0.041131433 0.73200005 8817537
0.027188573 -0.041131433 0.73200005 8816770
0.028660953 -0.04124381 0.73400003 8750979
0.030059047 -0.04124381 0.73400003 8685186
0.03154286 -0.041356195 0.73600006 8553856
0.032989528 -0.041412383 0.73700005 8487547
0.034393337 -0.041412383 0.73700005 8290935
0.03589429 -0.041524764 0.73900002 8094329
0.037301905 -0.041524764 0.73900002 7432572
0.038866669 -0.041693337 0.74200004 6841459
0.040280003 -0.041693337 0.74200004 6514027
0.042760953 -0.042760953 0.76100004 6187114
0.044210479 -0.042760953 0.76100004 6188137
0.04566 -0.042760953 0.76100004 6253930
0.047233336 -0.042873334 0.76300001 6581868
0.048686668 -0.042873334 0.76300001 6908779
0.050271433 -0.042985715 0.76500005 7301738
0.051728573 -0.042985715 0.76500005 7695989
0.05318572 -0.042985715 0.76500005 8291456
-0.050731428 -0.041908573 0.77200001 9613499
-0.049133338 -0.041800003 0.77000004 11989215
-0.047666669 -0.041800003 0.77000004 14345176
-0.046079997 -0.04169143 0.76800001 11980498
-0.044617143 -0.04169143 0.76800001 9540528
-0.043154284 -0.04169143 0.76800001 8160142
-0.039128575 -0.040551431 0.74700004 7175316
-0.037705716 -0.040551431 0.74700004 7573424
-0.036282856 -0.040551431 0.74700004 10732237
-0.03476667 -0.040442862 0.74500006 13954526
-0.033258095 -0.040334288 0.74300003 14280432
-0.031800002 -0.040280003 0.74200004 14673387
-0.030304762 -0.04017143 0.74000001 14607590
-0.028856192 -0.040117145 0.73900002 14607598
-0.027374288 -0.040008575 0.73700005 14739191
-0.02593524 -0.03995429 0.73600006 14870765
-0.024466667 -0.039845716 0.73400003 14541027
-0.023005717 -0.039737146 0.73200005 14278626
-0.021581903 -0.039682858 0.73100001 14212578
-0.020189524 -0.039682858 0.73100001 14081248
-0.018745715 -0.039574288 0.72900003 14015455
-0.017333334 -0.039520003 0.72800004 14015198
-0.015946668 -0.039520003 0.72800004 13883870
-0.01452 -0.039411429 0.72600001 13752285
-0.013137143 -0.039411429 0.72600001 13620700
-0.011754286 -0.039411429 0.72600001 13554649
-0.010357142 -0.039357144 0.72500002 13423063
-0.0089514283 -0.039248575 0.72300005 13291220
-0.0075638103 -0.03919429 0.72200006 13094098
-0.0061885719 -0.03919429 0.72200006 12962253
-0.0048133335 -0.03919429 0.72200006 12765640
-0.0034285716 -0.039085716 0.72000003 12634821
-0.002057143 -0.039085716 0.72000003 12304835
-0.0006857143 -0.039085716 0.72000003 11976630
0.0006857143 -0.039085716 0.72000003 11580842
0.002057143 -0.039085716 0.72000003 11251113
0.0034285716 -0.039085716 0.72000003 10987944
0.0047999998 -0.039085716 0.72000003 10659748
0.0061714291 -0.039085716 0.72000003 10462369
0.007542857 -0.039085716 0.72000003 10264478
0.0089142863 -0.039085716 0.72000003 10067100
0.010285715 -0.039085716 0.72000003 9869975
0.011657143 -0.039085716 0.72000003 9672595
0.013064764 -0.03919429 0.72200006 9541010
0.014440001 -0.03919429 0.72200006 9474706
0.015880954 -0.039357144 0.72500002 9408912
0.017261904 -0.039357144 0.72500002 9343375
0.018720001 -0.039520003 0.72800004 9277836
0.020134287 -0.039574288 0.72900003 9146506
0.021581903 -0.039682858 0.73100001 9015177
0.022974286 -0.039682858 0.73100001 8949384
0.024366667 -0.039682858 0.73100001 8949125
0.025794286 -0.039737146 0.73200005 8883331
0.027188573 -0.039737146 0.73200005 8817028
0.028660953 -0.039845716 0.73400003 8750982
0.030059047 -0.039845716 0.73400003 8619651
0.03154286 -0.03995429 0.73600006 8553600
0.032989528 -0.040008575 0.73700005 8487547
0.034393337 -0.040008575 0.73700005 8290934
0.035797145 -0.040008575 0.73700005 8160120
0.037301905 -0.040117145 0.73900002 7566203
0.038709525 -0.040117145 0.73900002 7038321
0.040117145 -0.040117145 0.73900002 6579560
0.041524764 -0.040117145 0.73900002 6121063
0.044210479 -0.041311432 0.76100004 6121830
0.04566 -0.041311432 0.76100004 6122089
0.047357146 -0.041528575 0.76500005 6318444
0.048814289 -0.041528575 0.76500005 6514795
0.050271433 -0.041528575 0.76500005 7039082
0.051728573 -0.041528575 0.76500005 7565685
-0.039023813 -0.039023813 0.74500006 8092833
-0.037604764 -0.039023813 0.74500006 8627389
-0.036185715 -0.039023813 0.74500006 11785945
-0.034673333 -0.03891905 0.74300003 15003876
-0.033213332 -0.038866669 0.74200004 14739183
-0.031800002 -0.038866669 0.74200004 14476523
-0.030304762 -0.038761906 0.74000001 14476263
-0.028856192 -0.038709525 0.73900002 14542063
-0.027374288 -0.038604766 0.73700005 14739702
-0.02593524 -0.038552385 0.73600006 14936557
-0.024466667 -0.038447622 0.73400003 14606563
-0.023005717 -0.03834286 0.73200005 14278627
-0.021581903 -0.038290478 0.73100001 14213091
-0.020189524 -0.038290478 0.73100001 14212322
-0.018745715 -0.038185716 0.72900003 14147041
-0.017333334 -0.038133334 0.72800004 14080992
-0.015946668 -0.038133334 0.72800004 13884128
-0.01452 -0.038028572 0.72600001 13752030
-0.013137143 -0.038028572 0.72600001 13620701
-0.011754286 -0.038028572 0.72600001 13554650
-0.010357142 -0.03797619 0.72500002 13423319
-0.0089514283 -0.037871432 0.72300005 13357013
-0.0075742863 -0.037871432 0.72300005 13159891
-0.0061885719 -0.03781905 0.72200006 13027791
-0.0048133335 -0.03781905 0.72200006 12831692
-0.0034380956 -0.03781905 0.72200006 12700101
-0.002057143 -0.037714288 0.72000003 12304830
-0.0006857143 -0.037714288 0.72000003 11976117
0.0006857143 -0.037714288 0.72000003 11647148
0.002057143 -0.037714288 0.72000003 11317932
0.0034285716 -0.037714288 0.72000003 10987948
0.0047999998 -0.037714288 0.72000003 10725287
0.0061714291 -0.037714288 0.72000003 10527906
0.007542857 -0.037714288 0.72000003 10330271
0.0089142863 -0.037714288 0.72000003 10132893
0.010285715 -0.037714288 0.72000003 9935513
0.011657143 -0.037714288 0.72000003 9804181
0.013064764 -0.03781905 0.72200006 9672341
0.01446 -0.037871432 0.72300005 9540501
0.015880954 -0.03797619 0.72500002 9474706
0.017261904 -0.03797619 0.72500002 9408656
0.018720001 -0.038133334 0.72800004 9343117
0.020134287 -0.038185716 0.72900003 9212298
0.021522857 -0.038185716 0.72900003 9080970
0.022974286 -0.038290478 0.73100001 9015434
0.024366667 -0.038290478 0.73100001 9014664
0.025794286 -0.03834286 0.73200005 8949126
0.027188573 -0.03834286 0.73200005 8882567
0.02858286 -0.03834286 0.73200005 8751240
0.030059047 -0.038447622 0.73400003 8619909
0.031457145 -0.038447622 0.73400003 8553602
0.032989528 -0.038604766 0.73700005 8553597
0.034393337 -0.038604766 0.73700005 8356985
0.035797145 -0.038604766 0.73700005 8225144
0.037352383 -0.038761906 0.74000001 7699831
0.038761906 -0.038761906 0.74000001 7237744
0.04017143 -0.038761906 0.74000001 6644586
0.041524764 -0.038709525 0.73900002 6055525
0.044326667 -0.039966665 0.76300001 5990496
0.045779999 -0.039966665 0.76300001 5991012
0.047357146 -0.040071428 0.76500005 6056553
0.048814289 -0.040071428 0.76500005 6187372
0.050271433 -0.040071428 0.76500005 6776687
-0.039180957 -0.03775619 0.74800003 8752814
-0.037604764 -0.037604764 0.74500006 10140362
-0.036185715 -0.037604764 0.74500006 12574182
-0.034673333 -0.037503812 0.74300003 14939114
-0.033213332 -0.037453339 0.74200004 14739183
-0.031800002 -0.037453339 0.74200004 14476268
-0.030304762 -0.037352383 0.74000001 14541801
-0.028856192 -0.037301905 0.73900002 14542319
-0.027374288 -0.037200954 0.73700005 14674166
-0.025970478 -0.037200954 0.73700005 14805741
-0.024466667 -0.037049524 0.73400003 14474980
-0.023068571 -0.037049524 0.73400003 14212836
-0.021581903 -0.036898095 0.73100001 14147045
-0.020189524 -0.036898095 0.73100001 14147044
-0.018745715 -0.036797144 0.72900003 14081251
-0.017357143 -0.036797144 0.72900003 14015715
-0.015946668 -0.03674667 0.72800004 13818083
-0.01452 -0.036645714 0.72600001 13686496
-0.013137143 -0.036645714 0.72600001 13620702
-0.011754286 -0.036645714 0.72600001 13554907
-0.010357142 -0.03659524 0.72500002 13423064
-0.0089514283 -0.036494289 0.72300005 13291734
-0.0075742863 -0.036494289 0.72300005 13159636
-0.0061885719 -0.036443811 0.72200006 12962258
-0.0048133335 -0.036443811 0.72200006 12831184
-0.0034380956 -0.036443811 0.72200006 12634565
-0.002057143 -0.036342856 0.72000003 12304826
-0.0006857143 -0.036342856 0.72000003 11975604
0.0006857143 -0.036342856 0.72000003 11646895
0.002057143 -0.036342856 0.72000003 11384751
0.0034285716 -0.036342856 0.72000003 11053488
0.0047999998 -0.036342856 0.72000003 10725290
0.0061714291 -0.036342856 0.72000003 10527908
0.007542857 -0.036342856 0.72000003 10396065
0.0089142863 -0.036342856 0.72000003 10198430
0.010285715 -0.036342856 0.72000003 10001307
0.011689525 -0.036443811 0.72200006 9869720
0.013064764 -0.036443811 0.72200006 9738392
0.01446 -0.036494289 0.72300005 9606296
0.015880954 -0.03659524 0.72500002 9540501
0.017261904 -0.03659524 0.72500002 9409682
0.018720001 -0.03674667 0.72800004 9344398
0.020134287 -0.036797144 0.72900003 9212554
0.021522857 -0.036797144 0.72900003 9146763
0.022974286 -0.036898095 0.73100001 9080716
0.024366667 -0.036898095 0.73100001 9014667
0.025794286 -0.036948573 0.73200005 8948874
0.027188573 -0.036948573 0.73200005 8882826
0.02858286 -0.036948573 0.73200005 8751242
0.029977145 -0.036948573 0.73200005 8620167
0.031457145 -0.037049524 0.73400003 8553860
0.032944765 -0.03715048 0.73600006 8553600
0.03434667 -0.03715048 0.73600006 8356732
0.035797145 -0.037200954 0.73700005 8224887
0.037301905 -0.037301905 0.73900002 7962227
0.038709525 -0.037301905 0.73900002 7699311
0.040117145 -0.037301905 0.73900002 6841708
0.044326667 -0.038513333 0.76300001 5924955
0.045779999 -0.038513333 0.76300001 5925472
0.047357146 -0.038614288 0.76500005 5859942
0.048814289 -0.038614288 0.76500005 5859949
0.050271433 -0.038614288 0.76500005 6515572
-0.039180957 -0.03633143 0.74800003 9478327
-0.037604764 -0.036185715 0.74500006 11717841
-0.036088571 -0.036088571 0.74300003 13297132
-0.034626666 -0.036040001 0.74200004 14935790
-0.033213332 -0.036040001 0.74200004 14739440
-0.031800002 -0.036040001 0.74200004 14542062
-0.030304762 -0.03594286 0.74000001 14542059
-0.028856192 -0.03589429 0.73900002 14607600
-0.027374288 -0.035797145 0.73700005 14608885
-0.02593524 -0.035748575 0.73600006 14674669
-0.024466667 -0.03565143 0.73400003 14409189
-0.023005717 -0.03555429 0.73200005 14212582
-0.021581903 -0.035505716 0.73100001 14147047
-0.020189524 -0.035505716 0.73100001 14081253
-0.018745715 -0.035408571 0.72900003 14015715
-0.017357143 -0.035408571 0.72900003 13949666
-0.015946668 -0.035360001 0.72800004 13817825
-0.01452 -0.035262857 0.72600001 13686494
-0.013137143 -0.035262857 0.72600001 13620699
-0.011754286 -0.035262857 0.72600001 13554649
-0.010357142 -0.035214286 0.72500002 13423062
-0.0089514283 -0.035117142 0.72300005 13291476
-0.0075742863 -0.035117142 0.72300005 13093841
-0.0061971433 -0.035117142 0.72300005 12962255
-0.0048133335 -0.035068572 0.72200006 12765390
-0.0034380956 -0.035068572 0.72200006 12633543
-0.002057143 -0.034971431 0.72000003 12304832
-0.00068761909 -0.035068572 0.72200006 12041143
0.0006857143 -0.034971431 0.72000003 11712429
0.002057143 -0.034971431 0.72000003 11450032
0.0034285716 -0.034971431 0.72000003 11119282
0.0047999998 -0.034971431 0.72000003 10791083
0.0061714291 -0.034971431 0.72000003 10593701
0.007542857 -0.034971431 0.72000003 10462370
0.0089142863 -0.034971431 0.72000003 10263967
0.010285715 -0.034971431 0.72000003 10132636
0.011689525 -0.035068572 0.72200006 10000793
0.013064764 -0.035068572 0.72200006 9869464
0.01446 -0.035117142 0.72300005 9737878
0.015880954 -0.035214286 0.72500002 9606547
0.017261904 -0.035214286 0.72500002 9475472
0.018668571 -0.035262857 0.72600001 9409934
0.020106668 -0.035360001 0.72800004 9278604
0.021522857 -0.035408571 0.72900003 9212555
0.022911429 -0.035408571 0.72900003 9145994
0.024366667 -0.035505716 0.73100001 9080203
0.025794286 -0.03555429 0.73200005 8948876
0.027188573 -0.03555429 0.73200005 8882826
0.028660953 -0.03565143 0.73400003 8751496
0.030059047 -0.03565143 0.73400003 8685701
0.031457145 -0.03565143 0.73400003 8619907
0.032944765 -0.035748575 0.73600006 8553599
0.034393337 -0.035797145 0.73700005 8422011
0.035797145 -0.035797145 0.73700005 8290171
0.037352383 -0.03594286 0.74000001 8224635
0.038866669 -0.036040001 0.74200004 8224369
0.040280003 -0.036040001 0.74200004 7039080
-0.04071429 -0.035000004 0.75000006 7244974
-0.039180957 -0.034906667 0.74800003 10006209
-0.037604764 -0.03476667 0.74500006 12771033
-0.036088571 -0.034673333 0.74300003 13756146
-0.034626666 -0.034626666 0.74200004 14738930
-0.03312381 -0.034533337 0.74000001 14607858
-0.031800002 -0.034626666 0.74200004 14476784
-0.030304762 -0.034533337 0.74000001 14542062
-0.028895238 -0.034533337 0.74000001 14607601
-0.027374288 -0.034393337 0.73700005 14608628
-0.02593524 -0.03434667 0.73600006 14609133
-0.024466667 -0.034253333 0.73400003 14409702
-0.023005717 -0.034160003 0.73200005 14213352
-0.021581903 -0.034113333 0.73100001 14081514
-0.020189524 -0.034113333 0.73100001 14015718
-0.018797142 -0.034113333 0.73100001 13949923
-0.017357143 -0.034019999 0.72900003 13883873
-0.015946668 -0.033973332 0.72800004 13818079
-0.01452 -0.033879999 0.72600001 13686492
-0.013137143 -0.033879999 0.72600001 13620697
-0.011738095 -0.033833336 0.72500002 13488855
-0.010357142 -0.033833336 0.72500002 13357269
-0.0089514283 -0.033740003 0.72300005 13225682
-0.0075742863 -0.033740003 0.72300005 13094863
-0.0061885719 -0.033693336 0.72200006 12964045
-0.0048133335 -0.033693336 0.72200006 12765132
-0.0034285716 -0.033600003 0.72000003 12567241
-0.002057143 -0.033600003 0.72000003 12304583
-0.0006857143 -0.033600003 0.72000003 12041145
0.0006857143 -0.033600003 0.72000003 11712428
0.002057143 -0.033600003 0.72000003 11384496
0.0034285716 -0.033600003 0.72000003 11120053
0.0047999998 -0.033600003 0.72000003 10856877
0.0061714291 -0.033600003 0.72000003 10660006
0.007542857 -0.033600003 0.72000003 10463139
0.0089142863 -0.033600003 0.72000003 10330273
0.010285715 -0.033600003 0.72000003 10198430
0.011657143 -0.033600003 0.72000003 10067099
0.013064764 -0.033693336 0.72200006 9935768
0.01446 -0.033740003 0.72300005 9804181
0.015837144 -0.033740003 0.72300005 9672849
0.017261904 -0.033833336 0.72500002 9541006
0.018668571 -0.033879999 0.72600001 9409934
0.020051429 -0.033879999 0.72600001 9344142
0.021493334 -0.033973332 0.72800004 9213067
0.022880001 -0.033973332 0.72800004 9146760
0.024300002 -0.034019999 0.72900003 9080715
0.025759049 -0.034113333 0.73100001 9014414
0.027151428 -0.034113333 0.73100001 8948618
0.028543809 -0.034113333 0.73100001 8817286
0.030059047 -0.034253333 0.73400003 8685956
0.031457145 -0.034253333 0.73400003 8619651
0.032944765 -0.03434667 0.73600006 8553854
0.034393337 -0.034393337 0.73700005 8422010
0.035797145 -0.034393337 0.73700005 8355710
0.037301905 -0.03448667 0.73900002 8224643
0.038761906 -0.034533337 0.74000001 8094067
0.04017143 -0.034533337 0.74000001 7171428
-0.04071429 -0.033571433 0.75000006 7311026
-0.039285716 -0.033571433 0.75000006 10599883
-0.037604764 -0.033347622 0.74500006 13887198
-0.036088571 -0.033258095 0.74300003 14215153
-0.034626666 -0.033213332 0.74200004 14541808
-0.03312381 -0.03312381 0.74000001 14475759
-0.031714283 -0.03312381 0.74000001 14476270
-0.030263809 -0.03307905 0.73900002 14541805
-0.028856192 -0.03307905 0.73900002 14607857
-0.027374288 -0.032989528 0.73700005 14542836
-0.025864763 -0.032855239 0.73400003 14542060
-0.024400003 -0.032765716 0.73200005 14344932
-0.023005717 -0.032765716 0.73200005 14213093
-0.021581903 -0.03272095 0.73100001 14081766
-0.020189524 -0.03272095 0.73100001 14015716
-0.018797142 -0.03272095 0.73100001 13949923
-0.017357143 -0.032631427 0.72900003 13883617
-0.015946668 -0.032586671 0.72800004 13818335
-0.01452 -0.032497145 0.72600001 13752028
-0.013119048 -0.032452382 0.72500002 13620953
-0.011738095 -0.032452382 0.72500002 13489111
-0.010357142 -0.032452382 0.72500002 13357270
-0.0089514283 -0.03236286 0.72300005 13226195
-0.0075742863 -0.03236286 0.72300005 13095376
-0.0061885719 -0.032318097 0.72200006 12963791
-0.0048133335 -0.032318097 0.72200006 12699342
-0.0034380956 -0.032318097 0.72200006 12502218
-0.002057143 -0.03222857 0.72000003 12238789
-0.0006857143 -0.03222857 0.72000003 12041915
0.0006857143 -0.03222857 0.72000003 11712432
0.002057143 -0.03222857 0.72000003 11384241
0.0034285716 -0.03222857 0.72000003 11121073
0.0047999998 -0.03222857 0.72000003 10922923
0.0061714291 -0.03222857 0.72000003 10726053
0.007542857 -0.03222857 0.72000003 10528675
0.0089142863 -0.03222857 0.72000003 10396834
0.010285715 -0.03222857 0.72000003 10264223
0.011657143 -0.03222857 0.72000003 10132892
0.013064764 -0.032318097 0.72200006 10001305
0.014440001 -0.032318097 0.72200006 9870230
0.015837144 -0.03236286 0.72300005 9803667
0.017261904 -0.032452382 0.72500002 9606801
0.018668571 -0.032497145 0.72600001 9475471
0.020051429 -0.032497145 0.72600001 9344398
0.021493334 -0.032586671 0.72800004 9278603
0.022880001 -0.032586671 0.72800004 9212808
0.024300002 -0.032631427 0.72900003 9146250
0.025759049 -0.03272095 0.73100001 9080204
0.027151428 -0.03272095 0.73100001 9014153
0.028543809 -0.03272095 0.73100001 8817798
0.029977145 -0.032765716 0.73200005 8685700
0.031457145 -0.032855239 0.73400003 8619650
0.032944765 -0.032944765 0.73600006 8553599
0.034393337 -0.032989528 0.73700005 8487804
0.035797145 -0.032989528 0.73700005 8421757
0.037301905 -0.03307905 0.73900002 8224895
0.038761906 -0.03312381 0.74000001 8028020
0.04017143 -0.03312381 0.74000001 7369577
0.041580953 -0.03312381 0.74000001 6712168
0.042990476 -0.03312381 0.74000001 6251623
-0.039180957 -0.032057144 0.74800003 11061462
-0.037604764 -0.031928573 0.74500006 14282723
-0.036088571 -0.031842858 0.74300003 14345968
-0.034626666 -0.031800002 0.74200004 14475758
-0.03312381 -0.031714283 0.74000001 14475756
-0.031714283 -0.031714283 0.74000001 14476268
-0.030263809 -0.031671431 0.73900002 14541805
-0.028856192 -0.031671431 0.73900002 14673905
-0.027374288 -0.031585716 0.73700005 14542837
-0.025864763 -0.031457145 0.73400003 14476012
-0.024400003 -0.03137143 0.73200005 14344419
-0.023005717 -0.03137143 0.73200005 14212835
-0.021581903 -0.03132857 0.73100001 14081507
-0.020189524 -0.03132857 0.73100001 13950179
