# .PCD v0.7 - Point Cloud Data file format
VERSION 0.7
FIELDS x y z rgba
SIZE 4 4 4 4
TYPE F F F U
COUNT 1 1 1 1
WIDTH 1088
HEIGHT 1
VIEWPOINT 0 0 0 1 0 0 0
POINTS 1088
DATA ascii
-0.014720001 0.056777146 0.73600006 7110022
-0.013318096 0.056777146 0.73600006 6717316
-0.011916191 0.056777146 0.73600006 6388864
-0.010457143 0.056468572 0.73200005 6124413
-0.0090628574 0.056468572 0.73200005 5860254
-0.0076685725 0.056468572 0.73200005 9151166
-0.0062657143 0.056391429 0.73100001 12506320
-0.0048600002 0.056237146 0.72900003 13032162
-0.0034666669 0.056160003 0.72800004 13555163
-0.00208 0.056160003 0.72800004 13423573
-0.00069333339 0.056160003 0.72800004 13357523
0.00069142855 0.056005713 0.72600001 13291472
0.0020742856 0.056005713 0.72600001 13225938
0.003457143 0.056005713 0.72600001 13094867
0.0048400001 0.056005713 0.72600001 13029075
0.0062228572 0.056005713 0.72600001 13028562
0.0076057143 0.056005713 0.72600001 13094097
0.0089761904 0.055928573 0.72500002 13028561
0.010371429 0.056005713 0.72600001 12962769
0.011738095 0.055928573 0.72500002 12831441
0.013119048 0.055928573 0.72500002 12765390
0.014500001 0.055928573 0.72500002 12765131
0.015880954 0.055928573 0.72500002 12765130
0.017261904 0.055928573 0.72500002 12699594
0.01859143 0.05577429 0.72300005 12699336
0.019968573 0.05577429 0.72300005 12568006
0.021345716 0.05577429 0.72300005 12436163
0.022722857 0.05577429 0.72300005 12370881
0.024100002 0.05577429 0.72300005 12304833
0.025477143 0.05577429 0.72300005 12239041
0.026817145 0.055697147 0.72200006 12238784
0.028192384 0.055697147 0.72200006 12107456
0.029567622 0.055697147 0.72200006 12041406
0.030985717 0.05577429 0.72300005 11909564
0.032318097 0.055697147 0.72200006 11843769
0.033693336 0.055697147 0.72200006 11777975
0.035068572 0.055697147 0.72200006 11712183
0.036494289 0.05577429 0.72300005 11580854
0.037871432 0.05577429 0.72300005 11449011
0.039248575 0.05577429 0.72300005 11318191
0.040738095 0.055928573 0.72500002 11186094
0.042119049 0.055928573 0.72500002 11054764
0.043500002 0.055928573 0.72500002 10922663
0.04494286 0.056005713 0.72600001 10726562
0.046325717 0.056005713 0.72600001 10528928
0.047840003 0.056160003 0.72800004 10264222
0.049294289 0.056237146 0.72900003 10066585
0.050821904 0.056391429 0.73100001 9803924
0.052214287 0.056391429 0.73100001 9605775
0.053680003 0.056468572 0.73200005 9342859
0.055074289 0.056468572 0.73200005 9079685
0.056622859 0.056622859 0.73400003 8882303
0.058179051 0.056777146 0.73600006 8684671
0.059823811 0.057008572 0.73900002 8552830
0.061314281 0.057085715 0.74000001 8420988
0.062893331 0.057240006 0.74200004 8750458
0.064306669 0.057240006 0.74200004 9144446
-0.039861906 0.060155239 0.76100004 14146785
-0.038260952 0.059918094 0.75800002 14081249
-0.036817145 0.059918094 0.75800002 14278370
-0.035233337 0.059680957 0.75500005 14476770
-0.033705715 0.059522856 0.75300002 13560034
-0.03222857 0.059443813 0.75200003 12633783
-0.030796193 0.059443813 0.75200003 9407116
-0.029285716 0.059285719 0.75000006 6126740
-0.027782857 0.059127621 0.74800003 6783645
-0.026358096 0.059127621 0.74800003 7375004
-0.024933333 0.059127621 0.74800003 7507356
-0.023351429 0.058732383 0.74300003 7574423
-0.021847619 0.058495238 0.74000001 7442578
-0.020438096 0.058495238 0.74000001 7245463
-0.019002859 0.058416191 0.73900002 7376029
-0.01754762 0.058258101 0.73700005 7506834
-0.01614381 0.058258101 0.73700005 7177607
-0.014720001 0.058179051 0.73600006 6848392
-0.013318096 0.058179051 0.73600006 6717066
-0.01188381 0.058020953 0.73400003 6585732
-0.010457143 0.057862859 0.73200005 6254974
-0.0090628574 0.057862859 0.73200005 5991328
-0.0076580956 0.057783809 0.73100001 9350851
-0.0062657143 0.057783809 0.73100001 12705236
-0.0048600002 0.057625718 0.72900003 13097189
-0.0034666669 0.057546668 0.72800004 13489117
-0.00208 0.057546668 0.72800004 13357782
-0.00069333339 0.057546668 0.72800004 13291986
0.00069142855 0.05738857 0.72600001 13226190
0.0020742856 0.05738857 0.72600001 13225680
0.003457143 0.05738857 0.72600001 13160147
0.0048400001 0.05738857 0.72600001 13094611
0.0062228572 0.05738857 0.72600001 13094611
0.0075952383 0.057309527 0.72500002 13160146
0.0089761904 0.057309527 0.72500002 13028818
0.010357142 0.057309527 0.72500002 12963282
0.011738095 0.057309527 0.72500002 12897234
0.013119048 0.057309527 0.72500002 12896463
0.014500001 0.057309527 0.72500002 12830925
0.015880954 0.057309527 0.72500002 12765387
0.017214287 0.057151429 0.72300005 12699594
0.01859143 0.057151429 0.72300005 12699848
0.019968573 0.057151429 0.72300005 12567750
0.021345716 0.057151429 0.72300005 12436163
0.022722857 0.057151429 0.72300005 12370881
0.024100002 0.057151429 0.72300005 12304834
0.025477143 0.057151429 0.72300005 12239043
0.026854288 0.057151429 0.72300005 12239041
0.028231429 0.057151429 0.72300005 12172992
0.029608574 0.057151429 0.72300005 12106942
0.030985717 0.057151429 0.72300005 11975613
0.03236286 0.057151429 0.72300005 11910074
0.033740003 0.057151429 0.72300005 11778231
0.035117142 0.057151429 0.72300005 11646903
0.036494289 0.057151429 0.72300005 11515319
0.037871432 0.057151429 0.72300005 11383477
0.039357144 0.057309527 0.72500002 11252403
0.040738095 0.057309527 0.72500002 11186095
0.042119049 0.057309527 0.72500002 11054507
0.043559998 0.05738857 0.72600001 10922919
0.04494286 0.05738857 0.72600001 10726308
0.046453338 0.057546668 0.72800004 10528931
0.047840003 0.057546668 0.72800004 10263970
0.049294289 0.057625718 0.72900003 10066588
0.050821904 0.057783809 0.73100001 9803670
0.052214287 0.057783809 0.73100001 9540496
0.053680003 0.057862859 0.73200005 9277578
0.055074289 0.057862859 0.73200005 9014404
0.056622859 0.058020953 0.73400003 8817023
0.058258101 0.058258101 0.73700005 8684672
0.059823811 0.058416191 0.73900002 8421761
0.061314281 0.058495238 0.74000001 8224636
0.062893331 0.058653336 0.74200004 8225911
0.064306669 0.058653336 0.74200004 8292733
-0.039966665 0.061766669 0.76300001 14147042
-0.038412381 0.061604768 0.76100004 14081506
-0.036817145 0.061361905 0.75800002 14278371
-0.035233337 0.06111905 0.75500005 14476766
-0.033705715 0.060957149 0.75300002 13297113
-0.03222857 0.060876191 0.75200003 12172465
-0.030796193 0.060876191 0.75200003 9143945
-0.029285716 0.06071429 0.75000006 6127505
-0.027782857 0.060552381 0.74800003 6521753
-0.026358096 0.060552381 0.74800003 6914200
-0.024933333 0.060552381 0.74800003 6913686
-0.023351429 0.060147621 0.74300003 6978962
-0.021936191 0.060147621 0.74300003 6913166
-0.020493334 0.06006667 0.74200004 6848145
-0.019028571 0.059904762 0.74000001 6848916
-0.017595239 0.059823811 0.73900002 6847884
-0.01614381 0.05966191 0.73700005 6715781
-0.014720001 0.059580956 0.73600006 6651015
-0.013281905 0.059419051 0.73400003 6716810
-0.01188381 0.059419051 0.73400003 6847112
-0.010457143 0.059257146 0.73200005 6451334
-0.0090628574 0.059257146 0.73200005 6126245
-0.0076580956 0.059176192 0.73100001 9550788
-0.0062657143 0.059176192 0.73100001 12967634
-0.0048600002 0.059014291 0.72900003 13162208
-0.0034666669 0.058933336 0.72800004 13423322
-0.00208 0.058933336 0.72800004 13357269
-0.00069142855 0.058771428 0.72600001 13291987
0.00069142855 0.058771428 0.72600001 13226449
0.0020742856 0.058771428 0.72600001 13225938
0.003457143 0.058771428 0.72600001 13225939
0.0048333337 0.058690481 0.72500002 13225938
0.0062142857 0.058690481 0.72500002 13225938
0.0075952383 0.058690481 0.72500002 13225682
0.0089761904 0.058690481 0.72500002 13094609
0.010357142 0.058690481 0.72500002 13028817
0.011738095 0.058690481 0.72500002 13028560
0.013119048 0.058690481 0.72500002 13028047
0.014500001 0.058690481 0.72500002 12896717
0.015880954 0.058690481 0.72500002 12830924
0.017214287 0.058528576 0.72300005 12765130
0.01859143 0.058528576 0.72300005 12699592
0.019968573 0.058528576 0.72300005 12567751
0.021345716 0.058528576 0.72300005 12501957
0.022722857 0.058528576 0.72300005 12436419
0.024100002 0.058528576 0.72300005 12370372
0.025477143 0.058528576 0.72300005 12304581
0.026854288 0.058528576 0.72300005 12238788
0.028231429 0.058528576 0.72300005 12172995
0.029608574 0.058528576 0.72300005 12172481
0.030985717 0.058528576 0.72300005 12107199
0.03236286 0.058528576 0.72300005 12040892
0.033740003 0.058528576 0.72300005 11844025
0.035117142 0.058528576 0.72300005 11646904
0.036494289 0.058528576 0.72300005 11515319
0.037871432 0.058528576 0.72300005 11383732
0.039357144 0.058690481 0.72500002 11252146
0.040738095 0.058690481 0.72500002 11186096
0.042119049 0.058690481 0.72500002 11054510
0.043559998 0.058771428 0.72600001 10988201
0.04494286 0.058771428 0.72600001 10726053
0.046453338 0.058933336 0.72800004 10528675
0.047840003 0.058933336 0.72800004 10329505
0.049294289 0.059014291 0.72900003 10132379
0.050821904 0.059176192 0.73100001 9803670
0.052214287 0.059176192 0.73100001 9540495
0.053680003 0.059257146 0.73200005 9277832
0.055074289 0.059257146 0.73200005 9014148
0.056622859 0.059419051 0.73400003 8817280
0.058258101 0.05966191 0.73700005 8684671
0.059823811 0.059823811 0.73900002 8356222
0.061314281 0.059904762 0.74000001 8027769
0.062893331 0.06006667 0.74200004 7697780
0.064566672 0.060309529 0.74500006 7432556
0.065985717 0.060309529 0.74500006 6970980
-0.039966665 0.063220002 0.76300001 14212835
-0.038412381 0.063054286 0.76100004 14147300
-0.036817145 0.062805712 0.75800002 14344421
-0.035233337 0.062557146 0.75500005 14608091
-0.033705715 0.06239143 0.75300002 13164241
-0.03222857 0.062308576 0.75200003 11711404
-0.030714288 0.062142864 0.75000006 8946055
-0.029207621 0.061977144 0.74800003 6125966
-0.027745714 0.06189429 0.74700004 6521494
-0.026322858 0.06189429 0.74700004 6914451
-0.024900001 0.06189429 0.74700004 6848145
-0.023351429 0.061562862 0.74300003 6847373
-0.021936191 0.061562862 0.74300003 6782346
-0.020438096 0.061314281 0.74000001 6717066
-0.019002859 0.061231427 0.73900002 6717579
-0.01754762 0.061065719 0.73700005 6781831
-0.016121905 0.060982861 0.73600006 6716291
-0.01468 0.060817145 0.73400003 6650758
-0.013281905 0.060817145 0.73400003 6453898
-0.01188381 0.060817145 0.73400003 6256780
-0.010457143 0.060651433 0.73200005 6909583
-0.0090628574 0.060651433 0.73200005 7506602
-0.0076580956 0.060568571 0.73100001 10405061
-0.0062485719 0.060402859 0.72900003 13230032
-0.0048600002 0.060402859 0.72900003 13293019
-0.0034666669 0.060320001 0.72800004 13357527
-0.00208 0.060320001 0.72800004 13357524
-0.00069142855 0.060154289 0.72600001 13357524
0.00069142855 0.060154289 0.72600001 13291732
0.0020714288 0.060071427 0.72500002 13226195
0.0034523809 0.060071427 0.72500002 13226195
0.0048333337 0.060071427 0.72500002 13226450
0.0062142857 0.060071427 0.72500002 13225938
0.0075952383 0.060071427 0.72500002 13225937
0.0089761904 0.060071427 0.72500002 13160145
0.010357142 0.060071427 0.72500002 13094352
0.011738095 0.060071427 0.72500002 13028559
0.013119048 0.060071427 0.72500002 13028302
0.01446 0.059905719 0.72300005 12962510
0.015837144 0.059905719 0.72300005 12830924
0.017214287 0.059905719 0.72300005 12765131
0.01859143 0.059905719 0.72300005 12699337
0.019968573 0.059905719 0.72300005 12568008
0.021345716 0.059905719 0.72300005 12502470
0.022722857 0.059905719 0.72300005 12436421
0.024100002 0.059905719 0.72300005 12370374
0.02554762 0.060071427 0.72500002 12304584
0.026854288 0.059905719 0.72300005 12238791
0.028231429 0.059905719 0.72300005 12172998
0.029690476 0.060071427 0.72500002 12106947
0.031071428 0.060071427 0.72500002 12041153
0.032452382 0.060071427 0.72500002 11975358
0.033740003 0.059905719 0.72300005 11844027
0.035117142 0.059905719 0.72300005 11646905
0.036494289 0.059905719 0.72300005 11515575
0.037871432 0.059905719 0.72300005 11449780
0.039357144 0.060071427 0.72500002 11317937
0.040738095 0.060071427 0.72500002 11186097
0.042119049 0.060071427 0.72500002 11054513
0.043559998 0.060154289 0.72600001 10922668
0.04494286 0.060154289 0.72600001 10725799
0.046453338 0.060320001 0.72800004 10528675
0.047905717 0.060402859 0.72900003 10331040
0.049294289 0.060402859 0.72900003 10133659
0.050821904 0.060568571 0.73100001 9803414
0.052214287 0.060568571 0.73100001 9540750
0.053680003 0.060651433 0.73200005 9277831
0.055074289 0.060651433 0.73200005 9079684
0.056622859 0.060817145 0.73400003 8882561
0.058258101 0.061065719 0.73700005 8684926
0.059823811 0.061231427 0.73900002 8487035
0.061314281 0.061314281 0.74000001 8224374
0.062893331 0.061480001 0.74200004 8092786
0.064306669 0.061480001 0.74200004 8022107
0.065985717 0.061728574 0.74500006 7889989
-0.039966665 0.064673327 0.76300001 14278371
-0.038412381 0.064503811 0.76100004 14212837
-0.036720004 0.06408 0.75600004 14476007
-0.03514 0.063825712 0.75300002 14739419
-0.033660952 0.063740954 0.75200003 13031631
-0.03222857 0.063740954 0.75200003 11315625
-0.030714288 0.063571438 0.75000006 8748164
-0.029207621 0.0634019 0.74800003 6192012
-0.027745714 0.063317142 0.74700004 6587029
-0.026322858 0.063317142 0.74700004 6979729
-0.024900001 0.063317142 0.74700004 6848397
-0.023351429 0.062978096 0.74300003 6717323
-0.021936191 0.062978096 0.74300003 6651785
-0.020493334 0.062893331 0.74200004 6586249
-0.019002859 0.06263905 0.73900002 6651785
-0.01752381 0.062384766 0.73600006 6716550
-0.016121905 0.062384766 0.73600006 6651011
-0.01468 0.062215243 0.73400003 6650756
-0.013245715 0.062045716 0.73200005 6191749
-0.01185143 0.062045716 0.73200005 5731211
-0.010442858 0.06196095 0.73100001 7302289
-0.0090504764 0.06196095 0.73100001 8955311
-0.0076580956 0.06196095 0.73100001 11259341
-0.0062485719 0.061791431 0.72900003 13553875
-0.0048533333 0.061706673 0.72800004 13423832
-0.003457143 0.061537139 0.72600001 13358037
-0.0020742856 0.061537139 0.72600001 13358034
-0.00069142855 0.061537139 0.72600001 13423059
0.00069047621 0.061452381 0.72500002 13357269
0.0020714288 0.061452381 0.72500002 13291732
0.0034523809 0.061452381 0.72500002 13226195
0.0048333337 0.061452381 0.72500002 13226194
0.0062142857 0.061452381 0.72500002 13226194
0.0075952383 0.061452381 0.72500002 13291473
0.0089761904 0.061452381 0.72500002 13225937
0.010357142 0.061452381 0.72500002 13159888
0.011738095 0.061452381 0.72500002 13094351
0.013119048 0.061452381 0.72500002 13093838
0.01446 0.061282866 0.72300005 12962765
0.015837144 0.061282866 0.72300005 12896716
0.017214287 0.061282866 0.72300005 12765130
0.01859143 0.061282866 0.72300005 12699337
0.019968573 0.061282866 0.72300005 12568008
0.021345716 0.061282866 0.72300005 12502214
0.022722857 0.061282866 0.72300005 12436420
0.024100002 0.061282866 0.72300005 12370628
0.02554762 0.061452381 0.72500002 12304837
0.026854288 0.061282866 0.72300005 12238532
0.028309524 0.061452381 0.72500002 12172995
0.029690476 0.061452381 0.72500002 12106689
0.031071428 0.061452381 0.72500002 12040895
0.032452382 0.061452381 0.72500002 11975356
0.033833336 0.061452381 0.72500002 11844281
0.035117142 0.061282866 0.72300005 11712695
0.03659524 0.061452381 0.72500002 11581365
0.03797619 0.061452381 0.72500002 11515315
0.039357144 0.061452381 0.72500002 11318450
0.040738095 0.061452381 0.72500002 11186096
0.042177141 0.061537139 0.72600001 11054766
0.043559998 0.061537139 0.72600001 10923179
0.04494286 0.061537139 0.72600001 10725544
0.046453338 0.061706673 0.72800004 10528419
0.047840003 0.061706673 0.72800004 10331549
0.049294289 0.061791431 0.72900003 10199193
0.050682858 0.061791431 0.72900003 9868950
0.05207143 0.061791431 0.72900003 9541007
0.053606667 0.06196095 0.73100001 9343369
0.055074289 0.062045716 0.73200005 9210500
0.056622859 0.062215243 0.73400003 8947840
0.058020953 0.062215243 0.73400003 8750717
0.059904762 0.062723808 0.74000001 8618106
0.061480001 0.062893331 0.74200004 8487285
0.062978096 0.062978096 0.74300003 8553328
0.064393342 0.062978096 0.74300003 8618599
0.065985717 0.063147627 0.74500006 8815199
0.067404769 0.063147627 0.74500006 9011556
-0.039966665 0.066126667 0.76300001 14343907
-0.038412381 0.065953337 0.76100004 14212838
-0.03667143 0.065433331 0.75500005 14410729
-0.03514 0.065260001 0.75300002 14674395
-0.033660952 0.065173343 0.75200003 12439758
-0.03222857 0.065173343 0.75200003 10199207
-0.030632382 0.064826667 0.74800003 8223873
-0.029168572 0.064740002 0.74700004 6258314
-0.02767143 0.064566672 0.74500006 6586516
-0.026252383 0.064566672 0.74500006 6913935
-0.024833336 0.064566672 0.74500006 6782858
-0.023351429 0.064393342 0.74300003 6651785
-0.021936191 0.064393342 0.74300003 6717320
-0.020493334 0.064306669 0.74200004 6717320
-0.01908 0.064306669 0.74200004 6717064
-0.01754762 0.063873336 0.73700005 6651270
-0.016121905 0.063786671 0.73600006 6651012
-0.01468 0.063613333 0.73400003 6651010
-0.013245715 0.063440003 0.73200005 5994625
-0.01185143 0.063440003 0.73200005 5400714
-0.010442858 0.063353337 0.73100001 7831699
-0.0090504764 0.063353337 0.73100001 10272948
-0.0076371427 0.063180007 0.72900003 11981782
-0.0062400005 0.063093334 0.72800004 13620694
-0.0048533333 0.063093334 0.72800004 13554902
-0.003457143 0.062920004 0.72600001 13423571
-0.0020742856 0.062920004 0.72600001 13423569
-0.00069142855 0.062920004 0.72600001 13423059
0.00069047621 0.062833332 0.72500002 13357270
0.0020714288 0.062833332 0.72500002 13225941
0.0034523809 0.062833332 0.72500002 13226196
0.0048333337 0.062833332 0.72500002 13226195
0.0062142857 0.062833332 0.72500002 13226194
0.0075952383 0.062833332 0.72500002 13291729
0.0089761904 0.062833332 0.72500002 13225681
0.010357142 0.062833332 0.72500002 13159888
0.011738095 0.062833332 0.72500002 13094351
0.013119048 0.062833332 0.72500002 13094094
0.01446 0.062660009 0.72300005 12962765
0.015880954 0.062833332 0.72500002 12896971
0.017261904 0.062833332 0.72500002 12765386
0.01859143 0.062660009 0.72300005 12633801
0.019968573 0.062660009 0.72300005 12568008
0.021345716 0.062660009 0.72300005 12502213
0.022722857 0.062660009 0.72300005 12436419
0.024100002 0.062660009 0.72300005 12371139
0.02554762 0.062833332 0.72500002 12304579
0.026854288 0.062660009 0.72300005 12238273
0.028309524 0.062833332 0.72500002 12172480
0.029690476 0.062833332 0.72500002 12106686
0.031071428 0.062833332 0.72500002 12040893
0.032452382 0.062833332 0.72500002 11975354
0.033833336 0.062833332 0.72500002 11844023
0.035117142 0.062660009 0.72300005 11778485
0.03659524 0.062833332 0.72500002 11581363
0.03797619 0.062833332 0.72500002 11449779
0.039357144 0.062833332 0.72500002 11317939
0.040738095 0.062833332 0.72500002 11186095
0.042177141 0.062920004 0.72600001 11055020
0.043559998 0.062920004 0.72600001 10923947
0.04494286 0.062920004 0.72600001 10725290
0.046325717 0.062920004 0.72600001 10528418
0.047840003 0.063093334 0.72800004 10331035
0.049226668 0.063093334 0.72800004 10133656
0.050682858 0.063180007 0.72900003 9803926
0.05207143 0.063180007 0.72900003 9541265
0.053606667 0.063353337 0.73100001 9277580
0.055074289 0.063440003 0.73200005 9079429
0.056468572 0.063440003 0.73200005 8882559
0.058653336 0.064306669 0.74200004 8685436
0.06006667 0.064306669 0.74200004 8552569
0.061562862 0.064393342 0.74300003 8422003
0.062978096 0.064393342 0.74300003 8553326
0.064566672 0.064566672 0.74500006 8685172
0.065985717 0.064566672 0.74500006 8947066
0.067404769 0.064566672 0.74500006 9209203
-0.041528575 0.067757145 0.76500005 14606820
-0.039966665 0.06758 0.76300001 14409699
-0.038412381 0.067402862 0.76100004 14212839
-0.03667143 0.066871434 0.75500005 14411244
-0.035233337 0.066871434 0.75500005 14674142
-0.033705715 0.066694282 0.75300002 11848145
-0.03227143 0.066694282 0.75300002 9081514
-0.030714288 0.066428579 0.75000006 7699843
-0.029207621 0.066251434 0.74800003 6389643
-0.027782857 0.066251434 0.74800003 6587283
-0.026322858 0.066162854 0.74700004 6848399
-0.024833336 0.065985717 0.74500006 6717835
-0.023351429 0.065808572 0.74300003 6651275
-0.021936191 0.065808572 0.74300003 6782347
-0.020520953 0.065808572 0.74300003 6913421
-0.01908 0.065720007 0.74200004 6782351
-0.017595239 0.065454289 0.73900002 6651016
-0.016187619 0.065454289 0.73900002 6650753
-0.014720001 0.065188579 0.73600006 6650752
-0.013281905 0.065011427 0.73400003 5863040
-0.01185143 0.064834289 0.73200005 5138838
-0.010442858 0.064745717 0.73100001 8361389
-0.0090504764 0.064745717 0.73100001 11653316
-0.0076371427 0.064568572 0.72900003 12704219
-0.0062400005 0.064479999 0.72800004 13752281
-0.0048533333 0.064479999 0.72800004 13620951
-0.003457143 0.064302854 0.72600001 13554645
-0.0020742856 0.064302854 0.72600001 13489364
-0.00069142855 0.064302854 0.72600001 13488852
0.00069047621 0.064214289 0.72500002 13356501
0.0020714288 0.064214289 0.72500002 13226196
0.0034523809 0.064214289 0.72500002 13226195
0.0048333337 0.064214289 0.72500002 13226194
0.0062142857 0.064214289 0.72500002 13226194
0.0075952383 0.064214289 0.72500002 13291219
0.0089761904 0.064214289 0.72500002 13225428
0.010357142 0.064214289 0.72500002 13225426
0.011738095 0.064214289 0.72500002 13159888
0.013119048 0.064214289 0.72500002 13093838
0.01446 0.064037152 0.72300005 13028301
0.015837144 0.064037152 0.72300005 12962507
0.017214287 0.064037152 0.72300005 12765641
0.01859143 0.064037152 0.72300005 12633802
0.019968573 0.064037152 0.72300005 12568010
0.021316191 0.063948572 0.72200006 12567495
0.022722857 0.064037152 0.72300005 12436421
0.024100002 0.064037152 0.72300005 12370627
0.02554762 0.064214289 0.72500002 12304321
0.026854288 0.064037152 0.72300005 12303552
0.028309524 0.064214289 0.72500002 12238015
0.029690476 0.064214289 0.72500002 12172478
0.031071428 0.064214289 0.72500002 12041405
0.032452382 0.064214289 0.72500002 11975355
0.033833336 0.064214289 0.72500002 11909561
0.035214286 0.064214289 0.72500002 11843767
0.03659524 0.064214289 0.72500002 11647158
0.03797619 0.064214289 0.72500002 11449524
0.039357144 0.064214289 0.72500002 11317683
0.040738095 0.064214289 0.72500002 11186095
0.042177141 0.064302854 0.72600001 11054507
0.043559998 0.064302854 0.72600001 10923689
0.04494286 0.064302854 0.72600001 10725288
0.046325717 0.064302854 0.72600001 10593954
0.047840003 0.064479999 0.72800004 10330524
0.049294289 0.064568572 0.72900003 10067866
0.050682858 0.064568572 0.72900003 9804439
0.05207143 0.064568572 0.72900003 9540497
0.053460002 0.064568572 0.72900003 9277322
0.055074289 0.064834289 0.73200005 9013894
0.056622859 0.065011427 0.73400003 8817281
0.058653336 0.065720007 0.74200004 8619645
0.06006667 0.065720007 0.74200004 8487289
0.061562862 0.065808572 0.74300003 8421750
0.062978096 0.065808572 0.74300003 8619123
0.064566672 0.065985717 0.74500006 8815993
0.065985717 0.065985717 0.74500006 9143936
-0.041637145 0.069395244 0.76700002 14409444
-0.039966665 0.069033332 0.76300001 14278372
-0.038412381 0.068852387 0.76100004 14147305
-0.036720004 0.068400003 0.75600004 14345455
-0.035233337 0.068309531 0.75500005 14542818
-0.033705715 0.068128571 0.75300002 11583957
-0.03227143 0.068128571 0.75300002 8619181
-0.030796193 0.068038099 0.75200003 7504517
-0.029207621 0.067676194 0.74800003 6389900
-0.027745714 0.067585714 0.74700004 6586515
-0.026322858 0.067585714 0.74700004 6783120
-0.024833336 0.067404769 0.74500006 6651789
-0.023414288 0.067404769 0.74500006 6519950
-0.021936191 0.067223817 0.74300003 6585487
-0.020520953 0.067223817 0.74300003 6717074
-0.01908 0.067133337 0.74200004 6585494
-0.017595239 0.066861905 0.73900002 6519690
-0.016187619 0.066861905 0.73900002 6388351
-0.014720001 0.066590481 0.73600006 6322815
-0.013281905 0.066409528 0.73400003 6124159
-0.01185143 0.066228576 0.73200005 5991331
-0.010442858 0.066138096 0.73100001 9283527
-0.0090504764 0.066138096 0.73100001 12509651
-0.0076371427 0.065957144 0.72900003 13162976
-0.0062400005 0.065866672 0.72800004 13752540
-0.0048400001 0.065685712 0.72600001 13686488
-0.003457143 0.065685712 0.72600001 13554903
-0.0020742856 0.065685712 0.72600001 13489367
-0.00069142855 0.065685712 0.72600001 13489110
0.00069047621 0.065595239 0.72500002 13357781
0.0020714288 0.065595239 0.72500002 13226451
0.0034523809 0.065595239 0.72500002 13160658
0.0048333337 0.065595239 0.72500002 13160402
0.0062142857 0.065595239 0.72500002 13159891
0.0075952383 0.065595239 0.72500002 13159637
0.0089761904 0.065595239 0.72500002 13159640
0.010357142 0.065595239 0.72500002 13159636
0.011738095 0.065595239 0.72500002 13094097
0.013119048 0.065595239 0.72500002 13093839
0.01446 0.065414287 0.72300005 13028301
0.015837144 0.065414287 0.72300005 12962507
0.017214287 0.065414287 0.72300005 12831433
0.01859143 0.065414287 0.72300005 12699339
0.019940954 0.065323815 0.72200006 12567757
0.021316191 0.065323815 0.72200006 12501706
0.022722857 0.065414287 0.72300005 12435911
0.024100002 0.065414287 0.72300005 12304835
0.02554762 0.065595239 0.72500002 12304320
0.026854288 0.065414287 0.72300005 12238015
0.028309524 0.065595239 0.72500002 12172478
0.029690476 0.065595239 0.72500002 12107197
0.031071428 0.065595239 0.72500002 12041405
0.032452382 0.065595239 0.72500002 11975356
0.033833336 0.065595239 0.72500002 11909820
0.035214286 0.065595239 0.72500002 11777978
0.03659524 0.065595239 0.72500002 11646393
0.03797619 0.065595239 0.72500002 11514806
0.039357144 0.065595239 0.72500002 11317939
0.040738095 0.065595239 0.72500002 11120559
0.042177141 0.065685712 0.72600001 10989227
0.043559998 0.065685712 0.72600001 10923688
0.04494286 0.065685712 0.72600001 10725286
0.046325717 0.065685712 0.72600001 10528418
0.047840003 0.065866672 0.72800004 10264990
0.049294289 0.065957144 0.72900003 10067867
0.050682858 0.065957144 0.72900003 9737881
0.05207143 0.065957144 0.72900003 9474449
0.053606667 0.066138096 0.73100001 9211529
0.055224765 0.066409528 0.73400003 9014150
0.056622859 0.066409528 0.73400003 8817284
0.058495238 0.066952385 0.74000001 8619647
0.06006667 0.067133337 0.74200004 8420986
0.061562862 0.067223817 0.74300003 8224633
0.062978096 0.067223817 0.74300003 8553848
0.064566672 0.067404769 0.74500006 8882559
0.065985717 0.067404769 0.74500006 9079175
-0.041420002 0.070486665 0.76300001 14278373
-0.039861906 0.070301905 0.76100004 14147303
-0.038361907 0.070209526 0.76000005 14081771
-0.036720004 0.069839999 0.75600004 14214128
-0.035233337 0.069747627 0.75500005 14411227
-0.033795241 0.069747627 0.75500005 11254471
-0.03227143 0.06956286 0.75300002 8158375
-0.030796193 0.069470473 0.75200003 7239560
-0.029207621 0.069100954 0.74800003 6389644
-0.027782857 0.069100954 0.74800003 6521232
-0.026181906 0.068639047 0.74300003 6717323
-0.024766667 0.068639047 0.74300003 6585991
-0.023351429 0.068639047 0.74300003 6454409
-0.021936191 0.068639047 0.74300003 6454411
-0.020493334 0.068546675 0.74200004 6519949
-0.019028571 0.068361901 0.74000001 6454415
-0.017595239 0.068269521 0.73900002 6454410
-0.016187619 0.068269521 0.73900002 6191493
-0.014720001 0.067992389 0.73600006 5993343
-0.013318096 0.067992389 0.73600006 6446713
-0.01185143 0.067622863 0.73200005 6916516
-0.010442858 0.067530476 0.73100001 10140112
-0.0090257144 0.067345716 0.72900003 13427672
-0.0076371427 0.067345716 0.72900003 13621729
-0.0062400005 0.067253336 0.72800004 13817821
-0.0048400001 0.067068577 0.72600001 13686746
-0.003457143 0.067068577 0.72600001 13620696
-0.0020742856 0.067068577 0.72600001 13554903
-0.00069142855 0.067068577 0.72600001 13489110
0.00069047621 0.066976197 0.72500002 13358037
0.0020714288 0.066976197 0.72500002 13291987
0.0034523809 0.066976197 0.72500002 13160657
0.0048333337 0.066976197 0.72500002 13094609
0.0062142857 0.066976197 0.72500002 13093841
0.0075952383 0.066976197 0.72500002 13094098
0.0089761904 0.066976197 0.72500002 13094099
0.010357142 0.066976197 0.72500002 13094098
0.011738095 0.066976197 0.72500002 13094096
0.013119048 0.066976197 0.72500002 13093838
0.01446 0.06679143 0.72300005 13028556
0.015837144 0.06679143 0.72300005 13028554
0.017214287 0.06679143 0.72300005 12897480
0.01859143 0.06679143 0.72300005 12765130
0.019940954 0.06669905 0.72200006 12633291
0.021316191 0.06669905 0.72200006 12501961
0.022722857 0.06679143 0.72300005 12370374
0.024100002 0.06679143 0.72300005 12304835
0.025477143 0.06679143 0.72300005 12238784
0.026854288 0.06679143 0.72300005 12238527
0.028231429 0.06679143 0.72300005 12172991
0.029690476 0.066976197 0.72500002 12106940
0.031071428 0.066976197 0.72500002 12041401
0.032452382 0.066976197 0.72500002 12041146
0.033833336 0.066976197 0.72500002 11910075
0.035214286 0.066976197 0.72500002 11777721
0.03659524 0.066976197 0.72500002 11646135
0.03797619 0.066976197 0.72500002 11580340
0.039357144 0.066976197 0.72500002 11318194
0.040738095 0.066976197 0.72500002 11120557
0.042177141 0.067068577 0.72600001 10989481
0.043559998 0.067068577 0.72600001 10923174
0.04494286 0.067068577 0.72600001 10725539
0.046453338 0.067253336 0.72800004 10528416
0.047840003 0.067253336 0.72800004 10265245
0.049294289 0.067345716 0.72900003 10067866
0.050682858 0.067345716 0.72900003 9736856
0.05207143 0.067345716 0.72900003 9408656
0.053606667 0.067530476 0.73100001 9211528
0.055375241 0.067992389 0.73600006 9014150
0.056854289 0.068084769 0.73700005 8817283
0.058653336 0.068546675 0.74200004 8619388
0.06006667 0.068546675 0.74200004 8354934
0.061562862 0.068639047 0.74300003 8094071
0.062978096 0.068639047 0.74300003 8554360
0.064566672 0.068823814 0.74500006 9013629
0.065985717 0.068823814 0.74500006 9079426
-0.041528575 0.072128579 0.76500005 14278631
-0.039966665 0.071940005 0.76300001 14212842
-0.038361907 0.071657151 0.76000005 14147309
-0.036720004 0.071280003 0.75600004 14214641
-0.035233337 0.071185715 0.75500005 14214357
-0.033705715 0.070997149 0.75300002 10726585
-0.03222857 0.070902862 0.75200003 7239074
-0.030714288 0.070714295 0.75000006 6911883
-0.029168572 0.070431434 0.74700004 6651532
-0.02767143 0.070242859 0.74500006 6651533
-0.026181906 0.070054293 0.74300003 6651527
-0.024733335 0.069960006 0.74200004 6520194
-0.023351429 0.070054293 0.74300003 6388869
-0.021906666 0.069960006 0.74200004 6454408
-0.020493334 0.069960006 0.74200004 6519688
-0.019002859 0.069677144 0.73900002 6388617
-0.01754762 0.069488578 0.73700005 6323594
-0.01614381 0.069488578 0.73700005 6060171
-0.014720001 0.06939429 0.73600006 5860479
-0.013281905 0.069205716 0.73400003 7171955
-0.01185143 0.069017142 0.73200005 8562598
-0.010442858 0.068922862 0.73100001 11127001
-0.0090257144 0.068734288 0.72900003 13756126
-0.0076371427 0.068734288 0.72900003 13752803
-0.0062400005 0.068640009 0.72800004 13752031
-0.0048400001 0.068451427 0.72600001 13686748
-0.003457143 0.068451427 0.72600001 13687001
-0.0020742856 0.068451427 0.72600001 13555159
-0.00069142855 0.068451427 0.72600001 13489366
0.00069047621 0.068357147 0.72500002 13423317
0.0020714288 0.068357147 0.72500002 13291987
0.0034523809 0.068357147 0.72500002 13226193
0.0048333337 0.068357147 0.72500002 13160144
0.0062142857 0.068357147 0.72500002 13094096
0.0075952383 0.068357147 0.72500002 13028559
0.0089761904 0.068357147 0.72500002 12963023
0.010357142 0.068357147 0.72500002 12963023
0.011738095 0.068357147 0.72500002 12963024
0.013119048 0.068357147 0.72500002 13028301
0.01446 0.068168573 0.72300005 12963019
0.015880954 0.068357147 0.72500002 12963273
0.017214287 0.068168573 0.72300005 12831688
0.01859143 0.068168573 0.72300005 12700105
0.019968573 0.068168573 0.72300005 12568010
0.021316191 0.068074286 0.72200006 12436680
0.022722857 0.068168573 0.72300005 12370630
0.024100002 0.068168573 0.72300005 12305091
0.025477143 0.068168573 0.72300005 12239296
0.026817145 0.068074286 0.72200006 12173504
0.028231429 0.068168573 0.72300005 12107457
0.029608574 0.068168573 0.72300005 12106683
0.031071428 0.068357147 0.72500002 12041398
0.032452382 0.068357147 0.72500002 12041656
0.033833336 0.068357147 0.72500002 11910074
0.035214286 0.068357147 0.72500002 11777720
0.03659524 0.068357147 0.72500002 11711926
0.03797619 0.068357147 0.72500002 11580851
0.039357144 0.068357147 0.72500002 11383729
0.040738095 0.068357147 0.72500002 11186348
0.042177141 0.068451427 0.72600001 11054760
0.043559998 0.068451427 0.72600001 10922916
0.04494286 0.068451427 0.72600001 10725537
0.046453338 0.068640009 0.72800004 10528415
0.047840003 0.068640009 0.72800004 10264477
0.049294289 0.068734288 0.72900003 10067866
0.050682858 0.068734288 0.72900003 9737111
0.05207143 0.068734288 0.72900003 9474191
0.053606667 0.068922862 0.73100001 9211784
0.055224765 0.069205716 0.73400003 9014405
0.056777146 0.06939429 0.73600006 8817283
0.058653336 0.069960006 0.74200004 8619386
0.06006667 0.069960006 0.74200004 8488050
0.061562862 0.070054293 0.74300003 8356981
0.062978096 0.070054293 0.74300003 8685432
0.064393342 0.070054293 0.74300003 9013627
0.065985717 0.070242859 0.74500006 9078910
-0.041420002 0.073393337 0.76300001 14278631
-0.039861906 0.073200949 0.76100004 14278888
-0.038361907 0.073104762 0.76000005 14278635
-0.036720004 0.072719999 0.75600004 14149614
-0.035233337 0.072623812 0.75500005 14081485
-0.033660952 0.072335243 0.75200003 10198701
-0.032142859 0.072142862 0.75000006 6385564
-0.030632382 0.07195048 0.74800003 6649996
-0.029168572 0.071854293 0.74700004 6913933
-0.02767143 0.071661904 0.74500006 6717070
-0.026181906 0.071469523 0.74300003 6585993
-0.024766667 0.071469523 0.74300003 6454404
-0.023351429 0.071469523 0.74300003 6388870
-0.021936191 0.071469523 0.74300003 6454664
-0.020520953 0.071469523 0.74300003 6585479
-0.019028571 0.071180947 0.74000001 6388614
-0.017595239 0.07108476 0.73900002 6191751
-0.01614381 0.070892386 0.73700005 5929096
-0.014720001 0.070796199 0.73600006 5729934
-0.013245715 0.070411436 0.73200005 7962773
-0.011835238 0.070315242 0.73100001 10272954
-0.010414286 0.07012286 0.72900003 12179679
-0.0090257144 0.07012286 0.72900003 14080480
-0.0076266672 0.070026673 0.72800004 13884130
-0.0062400005 0.070026673 0.72800004 13752542
-0.0048400001 0.069834292 0.72600001 13752283
-0.003457143 0.069834292 0.72600001 13752281
-0.0020742856 0.069834292 0.72600001 13621207
-0.00069142855 0.069834292 0.72600001 13555157
0.00069047621 0.069738097 0.72500002 13422804
0.0020714288 0.069738097 0.72500002 13357522
0.0034523809 0.069738097 0.72500002 13291984
0.0048333337 0.069738097 0.72500002 13291471
0.0062142857 0.069738097 0.72500002 13094351
0.0075952383 0.069738097 0.72500002 12962764
0.0089761904 0.069738097 0.72500002 12896713
0.010357142 0.069738097 0.72500002 12831693
0.011705714 0.069545716 0.72300005 12897746
0.013082858 0.069545716 0.72300005 12963022
0.01446 0.069545716 0.72300005 12897483
0.015880954 0.069738097 0.72500002 12897226
0.017214287 0.069545716 0.72300005 12765897
0.01859143 0.069545716 0.72300005 12699850
0.019968573 0.069545716 0.72300005 12568522
0.021316191 0.069449529 0.72200006 12436680
0.022722857 0.069545716 0.72300005 12370887
0.024066668 0.069449529 0.72200006 12370884
0.025477143 0.069545716 0.72300005 12239809
0.026817145 0.069449529 0.72200006 12173505
0.028231429 0.069545716 0.72300005 12107457
0.029608574 0.069545716 0.72300005 12107197
0.031071428 0.069738097 0.72500002 12041402
0.03236286 0.069545716 0.72300005 12041402
0.033833336 0.069738097 0.72500002 11910075
0.035214286 0.069738097 0.72500002 11844280
0.03659524 0.069738097 0.72500002 11712948
0.03797619 0.069738097 0.72500002 11646386
0.039357144 0.069738097 0.72500002 11449265
0.040794283 0.069834292 0.72600001 11251886
0.042293333 0.070026673 0.72800004 11054763
0.043559998 0.069834292 0.72600001 10922406
0.04494286 0.069834292 0.72600001 10725794
0.046453338 0.070026673 0.72800004 10594208
0.047905717 0.07012286 0.72900003 10329502
0.049294289 0.07012286 0.72900003 10067610
0.050682858 0.07012286 0.72900003 9803158
0.052214287 0.070315242 0.73100001 9540496
0.053680003 0.070411436 0.73200005 9277835
0.055375241 0.070796199 0.73600006 9079687
0.056854289 0.070892386 0.73700005 8882819
0.058653336 0.071373336 0.74200004 8684926
0.06006667 0.071373336 0.74200004 8618360
0.061562862 0.071469523 0.74300003 8619131
0.062978096 0.071469523 0.74300003 8816510
0.064393342 0.071469523 0.74300003 9078654
-0.042985715 0.075042859 0.76500005 13819624
-0.041420002 0.07484667 0.76300001 14409959
-0.039809525 0.074552387 0.76000005 14344422
-0.038361907 0.074552387 0.76000005 14344680
-0.036720004 0.074160002 0.75600004 13821931
-0.035233337 0.074061908 0.75500005 13293254
-0.033571433 0.073571436 0.75000006 9738145
-0.032142859 0.073571436 0.75000006 6187415
-0.030632382 0.07337524 0.74800003 6519693
-0.029168572 0.073277146 0.74700004 6914190
-0.02767143 0.073080957 0.74500006 6782863
-0.026252383 0.073080957 0.74500006 6586250
-0.024833336 0.073080957 0.74500006 6454918
-0.023414288 0.073080957 0.74500006 6323591
-0.021936191 0.072884768 0.74300003 6454665
-0.020520953 0.072884768 0.74300003 6651270
-0.01908 0.072786666 0.74200004 6585476
-0.017619047 0.072590478 0.74000001 6519428
-0.016187619 0.072492383 0.73900002 6190469
-0.014740001 0.072296195 0.73700005 5861534
-0.013281905 0.072001912 0.73400003 8822199
-0.011835238 0.071707621 0.73100001 11852238
-0.010414286 0.071511433 0.72900003 12901350
-0.0090257144 0.071511433 0.72900003 14016227
-0.0076266672 0.071413331 0.72800004 13884129
-0.0062400005 0.071413331 0.72800004 13818589
-0.0048533333 0.071413331 0.72800004 13752538
-0.003457143 0.071217142 0.72600001 13752281
-0.0020742856 0.071217142 0.72600001 13686744
-0.00069142855 0.071217142 0.72600001 13621205
0.00069047621 0.071119048 0.72500002 13489363
0.0020714288 0.071119048 0.72500002 13423313
0.0034523809 0.071119048 0.72500002 13357776
0.0048333337 0.071119048 0.72500002 13292239
0.0062142857 0.071119048 0.72500002 13093582
0.0075952383 0.071119048 0.72500002 12961736
0.0089761904 0.071119048 0.72500002 12896707
0.010357142 0.071119048 0.72500002 12896972
0.011705714 0.070922859 0.72300005 12897493
0.013082858 0.070922859 0.72300005 12897744
0.01446 0.070922859 0.72300005 12831947
0.015880954 0.071119048 0.72500002 12831691
0.017261904 0.071119048 0.72500002 12765387
0.01859143 0.070922859 0.72300005 12699595
0.019968573 0.070922859 0.72300005 12568267
0.021345716 0.070922859 0.72300005 12436681
0.022722857 0.070922859 0.72300005 12371144
0.024100002 0.070922859 0.72300005 12371141
0.025477143 0.070922859 0.72300005 12239555
0.026817145 0.070824765 0.72200006 12173762
0.028231429 0.070922859 0.72300005 12107713
0.029608574 0.070922859 0.72300005 12041919
0.031071428 0.071119048 0.72500002 12041406
0.03236286 0.070922859 0.72300005 11975869
0.033833336 0.071119048 0.72500002 11909821
0.035214286 0.071119048 0.72500002 11844280
0.03659524 0.071119048 0.72500002 11712947
0.038028572 0.071217142 0.72600001 11646642
0.039411429 0.071217142 0.72600001 11449521
0.040794283 0.071217142 0.72600001 11251887
0.042293333 0.071413331 0.72800004 11054254
0.043559998 0.071217142 0.72600001 10922152
0.04494286 0.071217142 0.72600001 10725539
0.046453338 0.071413331 0.72800004 10594721
0.047840003 0.071413331 0.72800004 10329760
0.049294289 0.071511433 0.72900003 10067354
0.050682858 0.071511433 0.72900003 9803669
0.052214287 0.071707621 0.73100001 9541266
0.053680003 0.071805716 0.73200005 9276815
0.055375241 0.0721981 0.73600006 9013897
0.056854289 0.072296195 0.73700005 8817028
0.058653336 0.072786666 0.74200004 8684929
0.06006667 0.072786666 0.74200004 8618879
0.061562862 0.072884768 0.74300003 8553602
0.062978096 0.072884768 0.74300003 8816261
0.064393342 0.072884768 0.74300003 9079425
-0.042873334 0.076299995 0.76300001 13819623
-0.041420002 0.076299995 0.76300001 14540774
-0.039861906 0.076100007 0.76100004 14475493
-0.038361907 0.076000005 0.76000005 14476260
-0.036720004 0.075600006 0.75600004 13494498
-0.035233337 0.075500011 0.75500005 12569277
-0.033571433 0.075000003 0.75000006 9277592
-0.032142859 0.075000003 0.75000006 5992341
-0.030632382 0.0748 0.74800003 6454930
-0.029168572 0.074700005 0.74700004 6979985
-0.02767143 0.074500002 0.74500006 6783376
-0.026252383 0.074500002 0.74500006 6651788
-0.024833336 0.074500002 0.74500006 6455433
-0.023414288 0.074500002 0.74500006 6324362
-0.021936191 0.074299999 0.74300003 6520972
-0.020520953 0.074299999 0.74300003 6717068
-0.019002859 0.073899999 0.73900002 6782349
-0.017595239 0.073899999 0.73900002 6846081
-0.016187619 0.073899999 0.73900002 6452086
-0.014720001 0.073600002 0.73600006 6064031
-0.013281905 0.073399998 0.73400003 9747143
-0.01185143 0.07320001 0.73200005 13426900
-0.010414286 0.072900005 0.72900003 13689058
-0.0090257144 0.072900005 0.72900003 13950176
-0.0076266672 0.072800003 0.72800004 13884126
-0.0062400005 0.072800003 0.72800004 13884124
-0.0048533333 0.072800003 0.72800004 13818331
-0.003457143 0.0726 0.72600001 13817818
-0.0020742856 0.0726 0.72600001 13752281
-0.00069142855 0.0726 0.72600001 13686487
0.00069142855 0.0726 0.72600001 13620948
0.0020714288 0.072499998 0.72500002 13555155
0.0034523809 0.072499998 0.72500002 13423826
0.0048333337 0.072499998 0.72500002 13357520
0.0062142857 0.072499998 0.72500002 13158350
0.0075952383 0.072499998 0.72500002 12961995
0.0089761904 0.072499998 0.72500002 12962503
0.010328572 0.072300009 0.72300005 12962764
0.011705714 0.072300009 0.72300005 12897489
0.013082858 0.072300009 0.72300005 12897486
0.01446 0.072300009 0.72300005 12831948
0.015880954 0.072499998 0.72500002 12765900
0.017261904 0.072499998 0.72500002 12699596
0.018642858 0.072499998 0.72500002 12699339
0.019968573 0.072300009 0.72300005 12568267
0.021345716 0.072300009 0.72300005 12502474
0.022722857 0.072300009 0.72300005 12436937
0.024100002 0.072300009 0.72300005 12371143
0.025477143 0.072300009 0.72300005 12305093
0.026854288 0.072300009 0.72300005 12239299
0.028231429 0.072300009 0.72300005 12107969
0.029608574 0.072300009 0.72300005 12041919
0.031071428 0.072499998 0.72500002 11975870
0.03236286 0.072300009 0.72300005 11975869
0.033833336 0.072499998 0.72500002 11909820
0.035214286 0.072499998 0.72500002 11844280
0.03659524 0.072499998 0.72500002 11713204
0.03797619 0.072499998 0.72500002 11646643
0.039411429 0.0726 0.72600001 11449777
0.040794283 0.0726 0.72600001 11252400
0.042293333 0.072800003 0.72800004 11053998
0.043559998 0.0726 0.72600001 10922921
0.04494286 0.0726 0.72600001 10726308
0.046325717 0.0726 0.72600001 10594722
0.047840003 0.072800003 0.72800004 10330016
0.049294289 0.072900005 0.72900003 10066841
0.050682858 0.072900005 0.72900003 9804179
0.052214287 0.073099993 0.73100001 9541264
0.053826667 0.073399998 0.73400003 9276045
0.055375241 0.073600002 0.73600006 9013897
0.057008572 0.073899999 0.73900002 8816773
0.058653336 0.074200004 0.74200004 8684671
0.06006667 0.074200004 0.74200004 8553082
0.061562862 0.074299999 0.74300003 8488061
0.062978096 0.074299999 0.74300003 8750721
0.064393342 0.074299999 0.74300003 9078910
-0.042873334 0.077753328 0.76300001 13819878
-0.041420002 0.077753328 0.76300001 14476261
-0.039861906 0.077549525 0.76100004 14541029
-0.038361907 0.077447623 0.76000005 14542303
-0.036817145 0.077243812 0.75800002 13362394
-0.035233337 0.0769381 0.75500005 12173236
-0.033571433 0.076428577 0.75000006 9012879
-0.032142859 0.076428577 0.75000006 5928595
-0.030632382 0.076224767 0.74800003 6389912
-0.029168572 0.076122858 0.74700004 6914708
-0.02767143 0.075919047 0.74500006 6783377
-0.026252383 0.075919047 0.74500006 6717326
-0.024833336 0.075919047 0.74500006 6586252
-0.023414288 0.075919047 0.74500006 6455181
-0.021936191 0.075715244 0.74300003 6586511
-0.020520953 0.075715244 0.74300003 6783378
-0.019002859 0.075307623 0.73900002 6454422
-0.01747619 0.0747981 0.73400003 6189183
-0.016078096 0.0747981 0.73400003 7240296
-0.01468 0.0747981 0.73400003 8298144
-0.013245715 0.074594289 0.73200005 11127512
-0.01185143 0.074594289 0.73200005 13953243
-0.010442858 0.07449238 0.73100001 13950686
-0.0090504764 0.07449238 0.73100001 13949661
-0.0076371427 0.074288577 0.72900003 13884124
-0.0062485719 0.074288577 0.72900003 13884124
-0.0048533333 0.074186668 0.72800004 13818076
-0.003457143 0.073982857 0.72600001 13818075
-0.0020742856 0.073982857 0.72600001 13752283
-0.00069142855 0.073982857 0.72600001 13686488
0.00069142855 0.073982857 0.72600001 13620950
0.0020742856 0.073982857 0.72600001 13555157
0.003457143 0.073982857 0.72600001 13423573
0.0048400001 0.073982857 0.72600001 13357522
0.0062228572 0.073982857 0.72600001 13292239
0.0076057143 0.073982857 0.72600001 13226957
0.0089761904 0.073880956 0.72500002 13160140
0.010357142 0.073880956 0.72500002 13094348
0.011705714 0.073677152 0.72300005 13028813
0.013082858 0.073677152 0.72300005 12963533
0.01446 0.073677152 0.72300005 12897485
0.015837144 0.073677152 0.72300005 12831181
0.017214287 0.073677152 0.72300005 12700110
0.018642858 0.073880956 0.72500002 12634572
0.019968573 0.073677152 0.72300005 12568523
0.021345716 0.073677152 0.72300005 12568266
0.022722857 0.073677152 0.72300005 12502474
0.024100002 0.073677152 0.72300005 12436680
0.025477143 0.073677152 0.72300005 12305351
0.026854288 0.073677152 0.72300005 12239300
0.028231429 0.073677152 0.72300005 12173505
0.029608574 0.073677152 0.72300005 12107711
0.031071428 0.073880956 0.72500002 12041662
0.03236286 0.073677152 0.72300005 11975869
0.033833336 0.073880956 0.72500002 11910076
0.035214286 0.073880956 0.72500002 11844281
0.03659524 0.073880956 0.72500002 11712950
0.03797619 0.073880956 0.72500002 11581108
0.039357144 0.073880956 0.72500002 11383986
0.040794283 0.073982857 0.72600001 11252912
0.042177141 0.073982857 0.72600001 11054767
0.043559998 0.073982857 0.72600001 10922666
0.04506667 0.074186668 0.72800004 10725797
0.046453338 0.074186668 0.72800004 10529187
0.047840003 0.074186668 0.72800004 10264225
0.049294289 0.074288577 0.72900003 10066585
0.050682858 0.074288577 0.72900003 9803921
0.05228572 0.074594289 0.73200005 9606798
0.053826667 0.0747981 0.73400003 9276811
0.055375241 0.07500191 0.73600006 9013896
0.056854289 0.075103819 0.73700005 8816518
0.058495238 0.075409524 0.74000001 8618877
0.06006667 0.075613335 0.74200004 8618869
0.061480001 0.075613335 0.74200004 8619129
0.062893331 0.075613335 0.74200004 8815998
0.064306669 0.075613335 0.74200004 9078908
-0.0462 0.079933338 0.77000004 12831703
-0.04455905 0.079621911 0.76700002 13292511
-0.042985715 0.079414286 0.76500005 13885927
-0.041420002 0.079206668 0.76300001 14475750
-0.039861906 0.07899905 0.76100004 14541030
-0.038361907 0.078895241 0.76000005 14672093
-0.036720004 0.078480005 0.75600004 13230548
-0.035233337 0.078376196 0.75500005 11776688
-0.033571433 0.077857152 0.75000006 8813708
-0.032142859 0.077857152 0.75000006 5930898
-0.030632382 0.077649526 0.74800003 6390423
-0.029207621 0.077649526 0.74800003 6849172
-0.02767143 0.077338107 0.74500006 6783377
-0.026252383 0.077338107 0.74500006 6783116
-0.01747619 0.076196194 0.73400003 5537423
-0.016078096 0.076196194 0.73400003 8028564
-0.01468 0.076196194 0.73400003 10600123
-0.013245715 0.075988576 0.73200005 12573411
-0.01185143 0.075988576 0.73200005 14539744
-0.010442858 0.075884759 0.73100001 14212574
-0.0090504764 0.075884759 0.73100001 13949917
-0.0076371427 0.075677149 0.72900003 13884124
-0.0062485719 0.075677149 0.72900003 13883868
-0.0048533333 0.07557334 0.72800004 13818076
-0.003457143 0.075365715 0.72600001 13818076
-0.0020742856 0.075365715 0.72600001 13752539
-0.00069142855 0.075365715 0.72600001 13752026
0.00069142855 0.075365715 0.72600001 13620953
0.0020742856 0.075365715 0.72600001 13555161
0.003457143 0.075365715 0.72600001 13489114
0.0048400001 0.075365715 0.72600001 13423318
0.0062228572 0.075365715 0.72600001 13423315
0.0075952383 0.075261906 0.72500002 13488849
0.0089761904 0.075261906 0.72500002 13357264
0.010357142 0.075261906 0.72500002 13225679
0.011705714 0.075054288 0.72300005 13160399
0.013082858 0.075054288 0.72300005 13094606
0.01446 0.075054288 0.72300005 12963022
0.015837144 0.075054288 0.72300005 12897485
0.017214287 0.075054288 0.72300005 12700877
0.01859143 0.075054288 0.72300005 12569036
0.019968573 0.075054288 0.72300005 12569034
0.021345716 0.075054288 0.72300005 12633802
0.022722857 0.075054288 0.72300005 12568265
0.024100002 0.075054288 0.72300005 12501960
0.025441907 0.074950479 0.72200006 12371143
0.026817145 0.074950479 0.72200006 12304580
0.028231429 0.075054288 0.72300005 12239041
