# .PCD v0.7 - Point Cloud Data file format
VERSION 0.7
FIELDS x y z rgba
SIZE 4 4 4 4
TYPE F F F U
COUNT 1 1 1 1
WIDTH 1089
HEIGHT 1
VIEWPOINT 0 0 0 1 0 0 0
POINTS 1089
DATA ascii
0.016472382 0.072335243 0.75200003 6057586
0.017904762 0.072335243 0.75200003 6123896
0.019337144 0.072335243 0.75200003 6259859
0.020797143 0.07243143 0.75300002 8231855
0.022231428 0.07243143 0.75300002 10201772
0.023728572 0.072623812 0.75500005 10135209
0.0252 0.072719999 0.75600004 10134437
0.026640002 0.072719999 0.75600004 10134434
0.028080001 0.072719999 0.75600004 10199718
0.029598096 0.07291238 0.75800002 10199978
0.03112381 0.073104762 0.76000005 10264996
0.032571428 0.073104762 0.76000005 10198943
0.034063812 0.073200949 0.76100004 10132636
0.035606667 0.073393337 0.76300001 10001306
0.037157144 0.073585719 0.76500005 9935510
0.03871524 0.0737781 0.76700002 9935506
0.040228572 0.073874287 0.76800001 9935252
0.041800003 0.074066669 0.77000004 10066326
0.043379046 0.07425905 0.77200001 10197398
0.044907622 0.074355245 0.77300006 9935255
0.04662 0.07474 0.77700001 9738133
0.048223812 0.074932382 0.77900004 9606547
0.049771432 0.075028576 0.78000003 9475219
0.051388573 0.075220957 0.78200006 9343891
0.053148571 0.075605713 0.78600001 9212047
0.054784764 0.075798102 0.78800005 9080715
0.056357145 0.075894289 0.78900003 9014410
0.058153339 0.076279052 0.79300004 8948106
0.059964765 0.076663807 0.79700005 8882568
0.061560001 0.076760009 0.79800004 8817031
0.063238099 0.076952383 0.80000001 8750985
0.064761907 0.076952383 0.80000001 8685452
0.066617139 0.077337146 0.80400002 8618884
0.068148568 0.077337146 0.80400002 8684412
0.069853343 0.077529527 0.80600005 8815741
0.07138858 0.077529527 0.80600005 8947326
0.072923817 0.077529527 0.80600005 9144190
-0.06656 0.075337149 0.76800001 13286352
-0.065097138 0.075337149 0.76800001 11778511
-0.063551433 0.075239047 0.76700002 12830159
-0.062090475 0.075239047 0.76700002 13885145
-0.06047143 0.075042859 0.76500005 14015971
-0.05886 0.07484667 0.76300001 14212579
-0.057256192 0.074650481 0.76100004 14212835
-0.055733338 0.074552387 0.76000005 14278370
-0.054142859 0.074356191 0.75800002 14212834
-0.052560002 0.074160002 0.75600004 14213092
-0.051120002 0.074160002 0.75600004 14212839
-0.049614292 0.074061908 0.75500005 14278117
-0.048176192 0.074061908 0.75500005 14212323
-0.046614286 0.073865719 0.75300002 14212321
-0.045120001 0.073767617 0.75200003 14080992
-0.043687619 0.073767617 0.75200003 14015455
-0.042255241 0.073767617 0.75200003 14015454
-0.04071429 0.073571436 0.75000006 14015452
-0.039285716 0.073571436 0.75000006 13949659
-0.037857145 0.073571436 0.75000006 13884124
-0.03633143 0.07337524 0.74800003 13818077
-0.034906667 0.07337524 0.74800003 13752283
-0.033481907 0.07337524 0.74800003 13686489
-0.032057144 0.07337524 0.74800003 13686488
-0.030632382 0.07337524 0.74800003 13620696
-0.029207621 0.07337524 0.74800003 13554645
-0.027745714 0.073277146 0.74700004 13489362
-0.026322858 0.073277146 0.74700004 13423060
-0.024900001 0.073277146 0.74700004 13357526
-0.023477143 0.073277146 0.74700004 13291734
-0.022054287 0.073277146 0.74700004 13291223
-0.020576192 0.073080957 0.74500006 13225684
-0.019208571 0.073277146 0.74700004 13160145
-0.017785715 0.073277146 0.74700004 13160145
-0.016362859 0.073277146 0.74700004 13028818
-0.014900001 0.073080957 0.74500006 12963286
-0.013480954 0.073080957 0.74500006 12898010
-0.012061905 0.073080957 0.74500006 12833242
-0.010642858 0.073080957 0.74500006 12699866
-0.0092238095 0.073080957 0.74500006 12632758
-0.0078047626 0.073080957 0.74500006 10726291
-0.0063857147 0.073080957 0.74500006 8751493
-0.0049666674 0.073080957 0.74500006 7631736
-0.0035476193 0.073080957 0.74500006 6453368
-0.0021285715 0.073080957 0.74500006 6518648
-0.00070952385 0.073080957 0.74500006 6584185
0.00070952385 0.073080957 0.74500006 6583930
0.0021285715 0.073080957 0.74500006 6583673
0.0035476193 0.073080957 0.74500006 6452344
0.0049666674 0.073080957 0.74500006 6320758
0.0063857147 0.073080957 0.74500006 6189172
0.0078047626 0.073080957 0.74500006 6122613
0.0092485715 0.073277146 0.74700004 5992054
0.010685714 0.07337524 0.74800003 5926773
0.012142858 0.073571436 0.75000006 5926772
0.013571429 0.073571436 0.75000006 5992307
0.015000001 0.073571436 0.75000006 5926514
0.016472382 0.073767617 0.75200003 5860978
0.017904762 0.073767617 0.75200003 5926258
0.019337144 0.073767617 0.75200003 5995409
0.020769523 0.073767617 0.75200003 7967920
0.022231428 0.073865719 0.75300002 9874095
0.023665715 0.073865719 0.75300002 9939119
0.0252 0.074160002 0.75600004 10003624
0.026640002 0.074160002 0.75600004 10068897
0.028080001 0.074160002 0.75600004 10134179
0.029598096 0.074356191 0.75800002 10199718
0.03112381 0.074552387 0.76000005 10199715
0.032614287 0.074650481 0.76100004 10198945
0.034063812 0.074650481 0.76100004 10132894
0.035606667 0.07484667 0.76300001 10067100
0.037157144 0.075042859 0.76500005 9936026
0.03871524 0.075239047 0.76700002 9935513
0.040228572 0.075337149 0.76800001 9869722
0.041800003 0.075533338 0.77000004 10001051
0.043379046 0.075729519 0.77200001 10066849
0.044907622 0.075827621 0.77300006 9935527
0.046500001 0.07602381 0.77500004 9738653
0.048100002 0.076219998 0.77700001 9607060
0.049707621 0.076416194 0.77900004 9475731
0.051388573 0.076710477 0.78200006 9343891
0.053148571 0.077102855 0.78600001 9277839
0.054854289 0.077397145 0.78900003 9146252
0.056499999 0.077593334 0.79100001 9080203
0.0583 0.077985719 0.79500002 8948874
0.059964765 0.078181908 0.79700005 8883080
0.061560001 0.078280002 0.79800004 8817031
0.063238099 0.078476191 0.80000001 8750983
0.064761907 0.078476191 0.80000001 8619911
0.06645143 0.078672379 0.80200005 8553347
0.067979053 0.078672379 0.80200005 8684416
0.069853343 0.079064764 0.80600005 8816255
0.07138858 0.079064764 0.80600005 8947326
0.072923817 0.079064764 0.80600005 9144190
-0.06656 0.076799996 0.76800001 13023185
-0.065097138 0.076799996 0.76800001 11383760
-0.063551433 0.076700002 0.76700002 12698575
-0.062090475 0.076700002 0.76700002 14082010
-0.06047143 0.076500006 0.76500005 14148325
-0.05886 0.076299995 0.76300001 14278372
-0.057256192 0.076100007 0.76100004 14278372
-0.05580667 0.076100007 0.76100004 14278370
-0.054142859 0.075800002 0.75800002 14278368
-0.052699048 0.075800002 0.75800002 14278370
-0.051120002 0.075600006 0.75600004 14278629
-0.049614292 0.075500011 0.75500005 14278116
-0.048048571 0.075300001 0.75300002 14278115
-0.046614286 0.075300001 0.75300002 14278113
-0.045120001 0.075200006 0.75200003 14147040
-0.043687619 0.075200006 0.75200003 14081247
-0.042142861 0.075000003 0.75000006 14081246
-0.04071429 0.075000003 0.75000006 14081245
-0.039285716 0.075000003 0.75000006 14015708
-0.037857145 0.075000003 0.75000006 13949404
-0.03633143 0.0748 0.74800003 13883613
-0.034906667 0.0748 0.74800003 13817820
-0.033437144 0.074700005 0.74700004 13752283
-0.032014288 0.074700005 0.74700004 13752026
-0.030632382 0.0748 0.74800003 13686489
-0.029207621 0.0748 0.74800003 13620696
-0.027745714 0.074700005 0.74700004 13554904
-0.026322858 0.074700005 0.74700004 13488855
-0.024900001 0.074700005 0.74700004 13357526
-0.023414288 0.074500002 0.74500006 13291477
-0.021995239 0.074500002 0.74500006 13291477
-0.020576192 0.074500002 0.74500006 13291219
-0.019157145 0.074500002 0.74500006 13225681
-0.017738096 0.074500002 0.74500006 13160145
-0.01631905 0.074500002 0.74500006 13029074
-0.014900001 0.074500002 0.74500006 12963540
-0.013480954 0.074500002 0.74500006 12898006
-0.012061905 0.074500002 0.74500006 12832468
-0.010642858 0.074500002 0.74500006 12765395
-0.0092238095 0.074500002 0.74500006 12764609
-0.0078047626 0.074500002 0.74500006 11518127
-0.0063857147 0.074500002 0.74500006 10330001
-0.0049666674 0.074500002 0.74500006 8353139
-0.0035476193 0.074500002 0.74500006 6386809
-0.0021285715 0.074500002 0.74500006 6452351
-0.00070952385 0.074500002 0.74500006 6583676
0.00070952385 0.074500002 0.74500006 6518393
0.0021285715 0.074500002 0.74500006 6518137
0.0035476193 0.074500002 0.74500006 6452600
0.0049666674 0.074500002 0.74500006 6386038
0.0063857147 0.074500002 0.74500006 6254196
0.0078047626 0.074500002 0.74500006 6123124
0.0092238095 0.074500002 0.74500006 5992053
0.010685714 0.0748 0.74800003 5926261
0.012142858 0.075000003 0.75000006 5926261
0.013571429 0.075000003 0.75000006 5926772
0.015000001 0.075000003 0.75000006 5795700
0.016472382 0.075200006 0.75200003 5664116
0.017904762 0.075200006 0.75200003 5728885
0.019337144 0.075200006 0.75200003 5796498
0.020769523 0.075200006 0.75200003 7703984
0.022231428 0.075300001 0.75300002 9610414
0.023665715 0.075300001 0.75300002 9743021
0.025166668 0.075500011 0.75500005 9938343
0.026640002 0.075600006 0.75600004 10003362
0.028154286 0.075800002 0.75800002 10134179
0.029676192 0.076000005 0.76000005 10134181
0.03112381 0.076000005 0.76000005 10199715
0.032614287 0.076100007 0.76100004 10198945
0.034153335 0.076299995 0.76300001 10198431
0.035700001 0.076500006 0.76500005 10067102
0.037157144 0.076500006 0.76500005 10001308
0.03871524 0.076700002 0.76700002 9935515
0.040228572 0.076799996 0.76800001 9869978
0.041800003 0.077000007 0.77000004 9935770
0.043379046 0.077200003 0.77200001 10001309
0.044907622 0.077300005 0.77300006 9870497
0.046500001 0.077500001 0.77500004 9803931
0.048100002 0.077699997 0.77700001 9672853
0.049707621 0.077900007 0.77900004 9541012
0.051388573 0.078200005 0.78200006 9409428
0.053148571 0.078599997 0.78600001 9343377
0.054854289 0.078900002 0.78900003 9211789
0.056499999 0.079099998 0.79100001 9145996
0.0583 0.079499997 0.79500002 9014666
0.059814285 0.079499997 0.79500002 8883079
0.061560001 0.079800002 0.79800004 8817285
0.063238099 0.079999998 0.80000001 8750980
0.064761907 0.079999998 0.80000001 8619908
0.066617139 0.080400005 0.80400002 8553089
0.068148568 0.080400005 0.80400002 8684670
0.069853343 0.080600001 0.80600005 8881534
0.07138858 0.080600001 0.80600005 9013117
0.072923817 0.080600001 0.80600005 9144189
-0.065097138 0.078262858 0.76800001 10727121
-0.063551433 0.078160949 0.76700002 12304080
-0.061928574 0.077957146 0.76500005 13885916
-0.06047143 0.077957146 0.76500005 14148072
-0.05886 0.077753328 0.76300001 14344422
-0.057256192 0.077549525 0.76100004 14278629
-0.055733338 0.077447623 0.76000005 14278370
-0.054142859 0.077243812 0.75800002 14212831
-0.052560002 0.077040002 0.75600004 14212833
-0.051120002 0.077040002 0.75600004 14278371
-0.049614292 0.0769381 0.75500005 14343907
-0.048176192 0.0769381 0.75500005 14278371
-0.046614286 0.076734282 0.75300002 14212834
-0.045120001 0.076632388 0.75200003 14147041
-0.043687619 0.076632388 0.75200003 14081248
-0.042142861 0.076428577 0.75000006 14081247
-0.04071429 0.076428577 0.75000006 14081246
-0.039180957 0.076224767 0.74800003 13949918
-0.03775619 0.076224767 0.74800003 13883613
-0.03633143 0.076224767 0.74800003 13883613
-0.034906667 0.076224767 0.74800003 13818077
-0.033481907 0.076224767 0.74800003 13752286
-0.032057144 0.076224767 0.74800003 13752028
-0.030714288 0.076428577 0.75000006 13686490
-0.029207621 0.076224767 0.74800003 13620956
-0.027782857 0.076224767 0.74800003 13554911
-0.026322858 0.076122858 0.74700004 13489370
-0.024900001 0.076122858 0.74700004 13423062
-0.023414288 0.075919047 0.74500006 13357013
-0.022054287 0.076122858 0.74700004 13291476
-0.020576192 0.075919047 0.74500006 13291731
-0.019157145 0.075919047 0.74500006 13225938
-0.017738096 0.075919047 0.74500006 13160146
-0.01631905 0.075919047 0.74500006 13029074
-0.014900001 0.075919047 0.74500006 12962770
-0.013480954 0.075919047 0.74500006 12897234
-0.012061905 0.075919047 0.74500006 12831951
-0.010642858 0.075919047 0.74500006 12766156
-0.0092238095 0.075919047 0.74500006 12700364
-0.0078047626 0.075919047 0.74500006 12043468
-0.0063857147 0.075919047 0.74500006 11449757
-0.0049666674 0.075919047 0.74500006 9144943
-0.0035476193 0.075919047 0.74500006 6781819
-0.0021285715 0.075919047 0.74500006 6648199
-0.00070952385 0.075919047 0.74500006 6452608
0.00070952385 0.075919047 0.74500006 6518137
0.0021285715 0.075919047 0.74500006 6583929
0.0035476193 0.075919047 0.74500006 6452345
0.0049666674 0.075919047 0.74500006 6320503
0.0063857147 0.075919047 0.74500006 6188661
0.0078047626 0.075919047 0.74500006 6123380
0.0092238095 0.075919047 0.74500006 6057332
0.010685714 0.076224767 0.74800003 5991797
0.012110476 0.076224767 0.74800003 5991798
0.013571429 0.076428577 0.75000006 5992310
0.015000001 0.076428577 0.75000006 5860982
0.016428573 0.076428577 0.75000006 5729655
0.017904762 0.076632388 0.75200003 5728888
0.019337144 0.076632388 0.75200003 5663124
0.020769523 0.076632388 0.75200003 7176881
0.022201905 0.076632388 0.75200003 8691630
0.023665715 0.076734282 0.75300002 9415595
0.025166668 0.0769381 0.75500005 10135207
0.026640002 0.077040002 0.75600004 10134435
0.028154286 0.077243812 0.75800002 10133668
0.029598096 0.077243812 0.75800002 10199461
0.03112381 0.077447623 0.76000005 10265251
0.032571428 0.077447623 0.76000005 10198945
0.034153335 0.077753328 0.76300001 10198688
0.035700001 0.077957146 0.76500005 10067104
0.037157144 0.077957146 0.76500005 9935774
0.038614288 0.077957146 0.76500005 9869981
0.040228572 0.078262858 0.76800001 9804443
0.041800003 0.078466676 0.77000004 9869977
0.043379046 0.078670479 0.77200001 9870234
0.044907622 0.078772388 0.77300006 9738651
0.046500001 0.078976192 0.77500004 9672600
0.048100002 0.079180002 0.77700001 9541270
0.049707621 0.079383813 0.77900004 9475478
0.051388573 0.079689525 0.78200006 9540502
0.053148571 0.080097146 0.78600001 9540242
0.054854289 0.080402859 0.78900003 9408655
0.056499999 0.080606669 0.79100001 9277325
0.058153339 0.08081048 0.79300004 9080203
0.059814285 0.08101429 0.79500002 8948615
0.061560001 0.081320003 0.79800004 8817283
0.063079998 0.081320003 0.79800004 8750978
0.064923815 0.081727624 0.80200005 8553858
0.06645143 0.081727624 0.80200005 8356479
0.068148568 0.081931427 0.80400002 8619133
0.069853343 0.082135238 0.80600005 8881533
0.07138858 0.082135238 0.80600005 9012861
0.072923817 0.082135238 0.80600005 9144189
-0.065266669 0.079933338 0.77000004 10137806
-0.063551433 0.079621911 0.76700002 11909580
-0.061928574 0.079414286 0.76500005 13755354
-0.06047143 0.079414286 0.76500005 14082536
-0.058705717 0.07899905 0.76100004 14475751
-0.057256192 0.07899905 0.76100004 14344678
-0.055733338 0.078895241 0.76000005 14278628
-0.054142859 0.078687623 0.75800002 14212833
-0.052560002 0.078480005 0.75600004 14212834
-0.051120002 0.078480005 0.75600004 14278371
-0.049680002 0.078480005 0.75600004 14409443
-0.048176192 0.078376196 0.75500005 14278628
-0.046614286 0.078168571 0.75300002 14212579
-0.045120001 0.078064762 0.75200003 14147041
-0.043687619 0.078064762 0.75200003 14146784
-0.042142861 0.077857152 0.75000006 14081248
-0.04071429 0.077857152 0.75000006 14081248
-0.039180957 0.077649526 0.74800003 13949920
-0.03775619 0.077649526 0.74800003 13884127
-0.03633143 0.077649526 0.74800003 13884126
-0.034906667 0.077649526 0.74800003 13883614
-0.033437144 0.077545717 0.74700004 13818078
-0.032057144 0.077649526 0.74800003 13752029
-0.030632382 0.077649526 0.74800003 13686491
-0.029207621 0.077649526 0.74800003 13686236
-0.027745714 0.077545717 0.74700004 13620700
-0.026322858 0.077545717 0.74700004 13554649
-0.024900001 0.077545717 0.74700004 13488855
-0.023414288 0.077338107 0.74500006 13422805
-0.021995239 0.077338107 0.74500006 13357268
-0.020576192 0.077338107 0.74500006 13357267
-0.019157145 0.077338107 0.74500006 13291730
-0.017738096 0.077338107 0.74500006 13225682
-0.01631905 0.077338107 0.74500006 13094610
-0.014900001 0.077338107 0.74500006 12962770
-0.013517143 0.077545717 0.74700004 12897490
-0.012094286 0.077545717 0.74700004 12831695
-0.010671429 0.077545717 0.74700004 12700621
-0.0092485715 0.077545717 0.74700004 12634828
-0.0078047626 0.077338107 0.74500006 12634572
-0.0063857147 0.077338107 0.74500006 12632494
-0.0049666674 0.077338107 0.74500006 9937039
-0.0035476193 0.077338107 0.74500006 7244934
-0.0021285715 0.077338107 0.74500006 6778749
-0.00070952385 0.077338107 0.74500006 6386295
0.00070952385 0.077338107 0.74500006 6518129
0.0021285715 0.077338107 0.74500006 6649463
0.0035476193 0.077338107 0.74500006 6452092
0.0049666674 0.077338107 0.74500006 6254712
0.0063857147 0.077338107 0.74500006 6188660
0.0078047626 0.077338107 0.74500006 6122864
0.0092485715 0.077545717 0.74700004 6057069
0.010685714 0.077649526 0.74800003 6057327
0.012142858 0.077857152 0.75000006 6057330
0.013571429 0.077857152 0.75000006 6057329
0.015000001 0.077857152 0.75000006 5926256
0.016428573 0.077857152 0.75000006 5860725
0.017904762 0.078064762 0.75200003 5729146
0.019337144 0.078064762 0.75200003 5597831
0.020769523 0.078064762 0.75200003 6650005
0.022231428 0.078168571 0.75300002 7771806
0.023665715 0.078168571 0.75300002 9022632
0.025166668 0.078376196 0.75500005 10331557
0.026640002 0.078480005 0.75600004 10265507
0.028154286 0.078687623 0.75800002 10199203
0.029676192 0.078895241 0.76000005 10264995
0.03112381 0.078895241 0.76000005 10330531
0.032699998 0.079206668 0.76300001 10264740
0.034242857 0.079414286 0.76500005 10263969
0.035700001 0.079414286 0.76500005 10067103
0.037157144 0.079414286 0.76500005 9935774
0.03871524 0.079621911 0.76700002 9869980
0.040228572 0.079725713 0.76800001 9804186
0.041800003 0.079933338 0.77000004 9803929
0.043379046 0.080140956 0.77200001 9803673
0.044907622 0.080244765 0.77300006 9672601
0.046500001 0.080452383 0.77500004 9541013
0.048100002 0.08066 0.77700001 9474706
0.049707621 0.080867618 0.77900004 9474963
0.051388573 0.081179053 0.78200006 9606293
0.053148571 0.081594288 0.78600001 9802901
0.054854289 0.081905723 0.78900003 9606293
0.056499999 0.082113333 0.79100001 9408400
0.058153339 0.082320958 0.79300004 9211275
0.059814285 0.082528569 0.79500002 9079433
0.061482862 0.082736202 0.79700005 8882822
0.063238099 0.083047621 0.80000001 8750724
0.064923815 0.083255246 0.80200005 8488065
0.066617139 0.083462857 0.80400002 8225920
0.068318099 0.083670482 0.80600005 8553598
0.069853343 0.083670482 0.80600005 8947071
0.071565717 0.0838781 0.80800003 9078401
0.073104762 0.0838781 0.80800003 9209471
-0.065266669 0.0814 0.77000004 9608139
-0.063634284 0.081188574 0.76800001 11711433
-0.062090475 0.081082858 0.76700002 13821657
-0.06047143 0.080871433 0.76500005 14148841
-0.05886 0.08066 0.76300001 14476008
-0.057256192 0.080448568 0.76100004 14410216
-0.055733338 0.080342866 0.76000005 14344422
-0.054142859 0.080131426 0.75800002 14344420
-0.052560002 0.079920009 0.75600004 14278883
-0.051120002 0.079920009 0.75600004 14344163
-0.049614292 0.079814292 0.75500005 14475236
-0.048176192 0.079814292 0.75500005 14344166
-0.046738099 0.079814292 0.75500005 14212580
-0.045180004 0.07960286 0.75300002 14212578
-0.043687619 0.079497144 0.75200003 14147297
-0.042142861 0.079285719 0.75000006 14081249
-0.04071429 0.079285719 0.75000006 14081249
-0.039285716 0.079285719 0.75000006 14015458
-0.037857145 0.079285719 0.75000006 13949920
-0.03633143 0.079074286 0.74800003 13884127
-0.034906667 0.079074286 0.74800003 13883615
-0.033437144 0.078968577 0.74700004 13818079
-0.032057144 0.079074286 0.74800003 13752030
-0.030714288 0.079285719 0.75000006 13686237
-0.029207621 0.079074286 0.74800003 13620699
-0.027745714 0.078968577 0.74700004 13555162
-0.026322858 0.078968577 0.74700004 13488857
-0.024900001 0.078968577 0.74700004 13423064
-0.023414288 0.078757152 0.74500006 13423062
-0.021995239 0.078757152 0.74500006 13357269
-0.020576192 0.078757152 0.74500006 13357011
-0.019157145 0.078757152 0.74500006 13225682
-0.017738096 0.078757152 0.74500006 13160146
-0.01631905 0.078757152 0.74500006 13094355
-0.014900001 0.078757152 0.74500006 13028562
-0.013517143 0.078968577 0.74700004 12963026
-0.012094286 0.078968577 0.74700004 12897232
-0.010671429 0.078968577 0.74700004 12831694
-0.0092485715 0.078968577 0.74700004 12766157
-0.0078047626 0.078757152 0.74500006 12765901
-0.0063857147 0.078757152 0.74500006 12832446
-0.0049666674 0.078757152 0.74500006 11055792
-0.0035476193 0.078757152 0.74500006 9346449
-0.0021285715 0.078757152 0.74500006 7764595
-0.00070952385 0.078757152 0.74500006 6188398
0.00070952385 0.078757152 0.74500006 6451818
0.0021285715 0.078757152 0.74500006 6649461
0.0035476193 0.078757152 0.74500006 6517632
0.0049666674 0.078757152 0.74500006 6319994
0.0063857147 0.078757152 0.74500006 6254196
0.0078047626 0.078757152 0.74500006 6188397
0.0092609525 0.079074286 0.74800003 6122854
0.010685714 0.079074286 0.74800003 6057322
0.012142858 0.079285719 0.75000006 6057326
0.013571429 0.079285719 0.75000006 6057324
0.015000001 0.079285719 0.75000006 5991787
0.016428573 0.079285719 0.75000006 5926259
0.017904762 0.079497144 0.75200003 5794940
0.019337144 0.079497144 0.75200003 5729147
0.020769523 0.079497144 0.75200003 6386554
0.022231428 0.07960286 0.75300002 6983311
0.023728572 0.079814292 0.75500005 8561573
0.025166668 0.079814292 0.75500005 10134692
0.026640002 0.079920009 0.75600004 10134180
0.028154286 0.080131426 0.75800002 10133666
0.029598096 0.080131426 0.75800002 10199201
0.03112381 0.080342866 0.76000005 10264996
0.032699998 0.08066 0.76300001 10264487
0.034153335 0.08066 0.76300001 10329507
0.035700001 0.080871433 0.76500005 10132639
0.037157144 0.080871433 0.76500005 10001309
0.03871524 0.081082858 0.76700002 9869980
0.040228572 0.081188574 0.76800001 9803930
0.041800003 0.0814 0.77000004 9738393
0.043379046 0.081611432 0.77200001 9738392
0.044907622 0.081717148 0.77300006 9606807
0.046500001 0.081928574 0.77500004 9540498
0.048100002 0.082139999 0.77700001 9474958
0.049707621 0.082351431 0.77900004 9409425
0.051388573 0.08266858 0.78200006 9540757
0.053148571 0.08309143 0.78600001 9606552
0.054784764 0.083302855 0.78800005 9474972
0.056499999 0.083620004 0.79100001 9343124
0.058153339 0.083831429 0.79300004 9145996
0.059814285 0.084042862 0.79500002 9013899
0.061482862 0.084254287 0.79700005 8882570
0.063079998 0.084360003 0.79800004 8684933
0.064923815 0.084782861 0.80200005 8553345
0.066617139 0.084994286 0.80400002 8356224
0.068148568 0.084994286 0.80400002 8619136
0.069853343 0.085205719 0.80600005 8947074
0.07138858 0.085205719 0.80600005 9078149
0.072923817 0.085205719 0.80600005 9274754
-0.065266669 0.082866669 0.77000004 9086665
-0.063634284 0.082651429 0.76800001 11447751
-0.062090475 0.082543813 0.76700002 13887193
-0.06047143 0.08232858 0.76500005 14149867
-0.05886 0.082113333 0.76300001 14475753
-0.057256192 0.081898101 0.76100004 14476007
-0.055733338 0.081790477 0.76000005 14475749
-0.054142859 0.081575237 0.75800002 14410212
-0.052560002 0.081359997 0.75600004 14409955
-0.051120002 0.081359997 0.75600004 14475490
-0.049614292 0.081252381 0.75500005 14540771
-0.048176192 0.081252381 0.75500005 14409701
-0.046738099 0.081252381 0.75500005 14278115
-0.045180004 0.081037149 0.75300002 14212578
-0.043687619 0.080929525 0.75200003 14212578
-0.042255241 0.080929525 0.75200003 14147042
-0.04071429 0.080714293 0.75000006 14081249
-0.039285716 0.080714293 0.75000006 14015457
-0.03775619 0.080499046 0.74800003 14015455
-0.03633143 0.080499046 0.74800003 13949662
-0.034906667 0.080499046 0.74800003 13949405
-0.033481907 0.080499046 0.74800003 13883613
-0.032057144 0.080499046 0.74800003 13817821
-0.030714288 0.080714293 0.75000006 13685981
-0.029207621 0.080499046 0.74800003 13620443
-0.027745714 0.080391429 0.74700004 13555162
-0.026322858 0.080391429 0.74700004 13489113
-0.024900001 0.080391429 0.74700004 13423064
-0.023414288 0.080176197 0.74500006 13423063
-0.022054287 0.080391429 0.74700004 13357525
-0.020576192 0.080176197 0.74500006 13357012
-0.019157145 0.080176197 0.74500006 13225683
-0.017738096 0.080176197 0.74500006 13094611
-0.01631905 0.080176197 0.74500006 13094355
-0.014900001 0.080176197 0.74500006 13094098
-0.013517143 0.080391429 0.74700004 13028562
-0.012110476 0.080499046 0.74800003 12962768
-0.010685714 0.080499046 0.74800003 12897230
-0.0092485715 0.080391429 0.74700004 12897229
-0.0078257145 0.080391429 0.74700004 12962763
-0.0063857147 0.080176197 0.74500006 13094086
-0.0049666674 0.080176197 0.74500006 12240065
-0.0035476193 0.080176197 0.74500006 11448992
-0.0021228571 0.07996095 0.74300003 8750463
-0.00070761907 0.07996095 0.74300003 6059887
0.00070761907 0.07996095 0.74300003 6385504
0.0021228571 0.07996095 0.74300003 6713709
0.0035476193 0.080176197 0.74500006 6583163
0.0049666674 0.080176197 0.74500006 6451832
0.0063857147 0.080176197 0.74500006 6320502
0.0078047626 0.080176197 0.74500006 6254449
0.0092485715 0.080391429 0.74700004 6188653
0.010685714 0.080499046 0.74800003 6123119
0.012142858 0.080714293 0.75000006 6057841
0.013571429 0.080714293 0.75000006 6057327
0.015000001 0.080714293 0.75000006 5991789
0.016428573 0.080714293 0.75000006 5991794
0.017857144 0.080714293 0.75000006 5926263
0.019285716 0.080714293 0.75000006 5926261
0.020769523 0.080929525 0.75200003 6057588
0.022231428 0.081037149 0.75300002 6258061
0.023665715 0.081037149 0.75300002 8100517
0.025166668 0.081252381 0.75500005 10003363
0.026710477 0.081575237 0.75800002 10003105
0.028228572 0.081790477 0.76000005 10068385
0.029598096 0.081575237 0.75800002 10133665
0.03112381 0.081790477 0.76000005 10264994
0.032699998 0.082113333 0.76300001 10330018
0.034242857 0.08232858 0.76500005 10395296
0.035700001 0.08232858 0.76500005 10198687
0.037157144 0.08232858 0.76500005 10066590
0.03871524 0.082543813 0.76700002 9935774
0.040228572 0.082651429 0.76800001 9803931
0.041800003 0.082866669 0.77000004 9738649
0.043379046 0.083081901 0.77200001 9738393
0.044907622 0.083189532 0.77300006 9606808
0.046500001 0.083404765 0.77500004 9540501
0.048100002 0.083620004 0.77700001 9474961
0.049707621 0.083835244 0.77900004 9409427
0.051388573 0.0841581 0.78200006 9409685
0.053148571 0.084588572 0.78600001 9474967
0.054784764 0.084803812 0.78800005 9343896
0.056357145 0.084911436 0.78900003 9277331
0.058006667 0.085126668 0.79100001 9146254
0.059663814 0.085341908 0.79300004 9013899
0.061482862 0.085772388 0.79700005 8816777
0.063079998 0.085880004 0.79800004 8685444
0.064761907 0.086095236 0.80000001 8617599
0.066617139 0.086525716 0.80400002 8552831
0.067979053 0.086310484 0.80200005 8750206
0.069506668 0.086310484 0.80200005 8947070
0.07138858 0.086740956 0.80600005 9143935
0.072923817 0.086740956 0.80600005 9406076
-0.065266669 0.084333338 0.77000004 8686023
-0.063634284 0.084114283 0.76800001 11119045
-0.062090475 0.08400476 0.76700002 13559513
-0.060629524 0.08400476 0.76700002 14018541
-0.05886 0.083566666 0.76300001 14541289
-0.057256192 0.083347626 0.76100004 14541286
-0.055733338 0.083238102 0.76000005 14541285
-0.054142859 0.083019048 0.75800002 14475492
-0.052560002 0.082800001 0.75600004 14409954
-0.051120002 0.082800001 0.75600004 14475489
-0.049614292 0.082690477 0.75500005 14474978
-0.048176192 0.082690477 0.75500005 14409444
-0.046614286 0.08247143 0.75300002 14278371
-0.045120001 0.082361907 0.75200003 14212835
-0.043687619 0.082361907 0.75200003 14212835
-0.042142861 0.082142867 0.75000006 14147043
-0.04071429 0.082142867 0.75000006 14081250
-0.039285716 0.082142867 0.75000006 14080993
-0.03775619 0.081923813 0.74800003 14015455
-0.03633143 0.081923813 0.74800003 14015197
-0.034906667 0.081923813 0.74800003 13949660
-0.033481907 0.081923813 0.74800003 13883612
-0.032057144 0.081923813 0.74800003 13818077
-0.030714288 0.082142867 0.75000006 13752286
-0.029207621 0.081923813 0.74800003 13686748
-0.027745714 0.081814289 0.74700004 13555418
-0.026358096 0.081923813 0.74800003 13489369
-0.024900001 0.081814289 0.74700004 13489113
-0.023414288 0.081595249 0.74500006 13488855
-0.022054287 0.081814289 0.74700004 13423062
-0.020576192 0.081595249 0.74500006 13357269
-0.019157145 0.081595249 0.74500006 13225685
-0.017738096 0.081595249 0.74500006 13160148
-0.01631905 0.081595249 0.74500006 13160148
-0.014900001 0.081595249 0.74500006 13094611
-0.013517143 0.081814289 0.74700004 13028562
-0.012094286 0.081814289 0.74700004 12962512
-0.010685714 0.081923813 0.74800003 12896975
-0.0092485715 0.081814289 0.74700004 12831436
-0.0078257145 0.081814289 0.74700004 12896970
-0.0063857147 0.081595249 0.74500006 12897230
-0.0049666674 0.081595249 0.74500006 12569042
-0.0035380954 0.081376195 0.74300003 12241071
-0.0021228571 0.081376195 0.74300003 10330764
-0.00070761907 0.081376195 0.74300003 8422001
0.00070952385 0.081595249 0.74500006 7304534
0.0021228571 0.081376195 0.74300003 6254438
0.0035476193 0.081595249 0.74500006 6451830
0.0049666674 0.081595249 0.74500006 6649975
0.0064028576 0.081814289 0.74700004 6452088
0.0078257145 0.081814289 0.74700004 6320246
0.0092609525 0.081923813 0.74800003 6254453
0.010714287 0.082142867 0.75000006 6188660
0.012142858 0.082142867 0.75000006 6123380
0.013571429 0.082142867 0.75000006 5991793
0.015040001 0.082361907 0.75200003 5926255
0.016472382 0.082361907 0.75200003 5860720
0.017904762 0.082361907 0.75200003 5926258
0.019337144 0.082361907 0.75200003 5926768
0.020769523 0.082361907 0.75200003 5926255
0.022231428 0.08247143 0.75300002 5926282
0.023665715 0.08247143 0.75300002 7638950
0.025166668 0.082690477 0.75500005 9348002
0.026710477 0.083019048 0.75800002 9806495
0.028154286 0.083019048 0.75800002 10199712
0.029598096 0.083019048 0.75800002 10264994
0.03112381 0.083238102 0.76000005 10264992
0.032699998 0.083566666 0.76300001 10264734
0.034242857 0.08378572 0.76500005 10264222
0.035700001 0.08378572 0.76500005 10132895
0.037157144 0.08378572 0.76500005 10066591
0.03871524 0.08400476 0.76700002 9935776
0.040228572 0.084114283 0.76800001 9804189
0.041800003 0.084333338 0.77000004 9804186
0.043379046 0.084552377 0.77200001 9804186
0.044907622 0.084661908 0.77300006 9607066
0.046500001 0.084880956 0.77500004 9475223
0.048100002 0.085100003 0.77700001 9409429
0.049707621 0.08531905 0.77900004 9343893
0.051388573 0.085647628 0.78200006 9344150
0.053148571 0.086085714 0.78600001 9409173
0.054784764 0.086304761 0.78800005 9278101
0.056357145 0.086414285 0.78900003 9211794
0.058006667 0.08663334 0.79100001 9080720
0.059663814 0.086852387 0.79300004 8948620
0.061328575 0.087071434 0.79500002 8817289
0.063079998 0.087400004 0.79800004 8686211
0.064761907 0.087619044 0.80000001 8552830
0.066617139 0.088057138 0.80400002 8422013
0.067979053 0.087838098 0.80200005 8684925
0.069506668 0.087838098 0.80200005 9013371
-0.063634284 0.085577145 0.76800001 10790595
-0.062171426 0.085577145 0.76800001 13296344
-0.060629524 0.085465722 0.76700002 13952750
-0.05886 0.085020006 0.76300001 14607082
-0.057256192 0.084797144 0.76100004 14606823
-0.055733338 0.084685721 0.76000005 14606822
-0.054142859 0.084462859 0.75800002 14541029
-0.052560002 0.084240004 0.75600004 14475492
-0.051120002 0.084240004 0.75600004 14475491
-0.049614292 0.084128574 0.75500005 14475492
-0.048176192 0.084128574 0.75500005 14410213
-0.046738099 0.084128574 0.75500005 14343652
-0.045180004 0.083905719 0.75300002 14278371
-0.043687619 0.083794288 0.75200003 14212578
-0.042142861 0.083571434 0.75000006 14147042
-0.04071429 0.083571434 0.75000006 14146785
-0.039285716 0.083571434 0.75000006 14080992
-0.037857145 0.083571434 0.75000006 14080991
-0.03633143 0.08334858 0.74800003 14015454
-0.034906667 0.08334858 0.74800003 14014941
-0.033481907 0.08334858 0.74800003 13949405
-0.032142859 0.083571434 0.75000006 13883615
-0.030714288 0.083571434 0.75000006 13818081
-0.029207621 0.08334858 0.74800003 13752286
-0.027782857 0.08334858 0.74800003 13621211
-0.026322858 0.083237141 0.74700004 13554906
-0.024900001 0.083237141 0.74700004 13554905
-0.023414288 0.083014295 0.74500006 13554391
-0.022054287 0.083237141 0.74700004 13423062
-0.020576192 0.083014295 0.74500006 13357269
-0.019157145 0.083014295 0.74500006 13291221
-0.017738096 0.083014295 0.74500006 13291221
-0.01631905 0.083014295 0.74500006 13225942
-0.014900001 0.083014295 0.74500006 13160148
-0.013517143 0.083237141 0.74700004 13094098
-0.012061905 0.083014295 0.74500006 13028305
-0.010671429 0.083237141 0.74700004 12896975
-0.0092485715 0.083237141 0.74700004 12831181
-0.0078047626 0.083014295 0.74500006 12765643
-0.0063857147 0.083014295 0.74500006 12765899
-0.0049666674 0.083014295 0.74500006 12897484
-0.0035476193 0.083014295 0.74500006 13028029
-0.0021285715 0.083014295 0.74500006 11911342
-0.00070952385 0.083014295 0.74500006 10788751
0.00070952385 0.083014295 0.74500006 8289393
0.0021285715 0.083014295 0.74500006 5797742
0.0035476193 0.083014295 0.74500006 6320747
0.0049666674 0.083014295 0.74500006 6845298
0.0064028576 0.083237141 0.74700004 6649209
0.0078257145 0.083237141 0.74700004 6452087
0.0092609525 0.08334858 0.74800003 6386292
0.010714287 0.083571434 0.75000006 6320243
0.012142858 0.083571434 0.75000006 6123379
0.013571429 0.083571434 0.75000006 5992050
0.015040001 0.083794288 0.75200003 5860977
0.016472382 0.083794288 0.75200003 5795441
0.017904762 0.083794288 0.75200003 5860978
0.019337144 0.083794288 0.75200003 5991792
0.020769523 0.083794288 0.75200003 5794925
0.022231428 0.083905719 0.75300002 5663875
0.023665715 0.083905719 0.75300002 7177626
0.0251 0.083905719 0.75300002 8756383
0.026710477 0.084462859 0.75800002 9545636
0.028228572 0.084685721 0.76000005 10396324
0.029598096 0.084462859 0.75800002 10331301
0.031164765 0.084797144 0.76100004 10330274
0.032699998 0.085020006 0.76300001 10265247
0.034242857 0.08524286 0.76500005 10198943
0.035700001 0.08524286 0.76500005 10132895
0.037157144 0.08524286 0.76500005 10067103
0.03871524 0.085465722 0.76700002 9935775
0.040228572 0.085577145 0.76800001 9804445
0.041800003 0.0858 0.77000004 9804443
0.043379046 0.086022861 0.77200001 9869466
0.044907622 0.086134292 0.77300006 9672857
0.046500001 0.086357147 0.77500004 9475222
0.048100002 0.086580001 0.77700001 9409684
0.049707621 0.086802863 0.77900004 9343894
0.051388573 0.087137155 0.78200006 9344151
0.053148571 0.087582856 0.78600001 9343638
0.054784764 0.087805718 0.78800005 9212565
0.056285717 0.087805718 0.78800005 9146515
0.058006667 0.088140003 0.79100001 9015441
0.059663814 0.088362865 0.79300004 8883085
0.061328575 0.088585712 0.79500002 8817801
0.063079998 0.088920005 0.79800004 8751492
0.064761907 0.089142852 0.80000001 8553599
0.06645143 0.089365721 0.80200005 8356734
0.067979053 0.089365721 0.80200005 8685438
0.069506668 0.089365721 0.80200005 9078653
-0.063800007 0.087266669 0.77000004 9804993
-0.062171426 0.08704 0.76800001 13164248
-0.060708571 0.08704 0.76800001 13951471
-0.05886 0.086473338 0.76300001 14738668
-0.057256192 0.086246669 0.76100004 14672873
-0.055733338 0.086133331 0.76000005 14607080
-0.054142859 0.085906669 0.75800002 14541287
-0.052560002 0.08568 0.75600004 14475750
-0.051120002 0.08568 0.75600004 14476006
-0.049614292 0.085566677 0.75500005 14476262
-0.048176192 0.085566677 0.75500005 14409959
-0.046738099 0.085566677 0.75500005 14343653
-0.045180004 0.085340001 0.75300002 14278116
-0.043687619 0.08522667 0.75200003 14212578
-0.042255241 0.08522667 0.75200003 14212577
-0.04071429 0.085000008 0.75000006 14147040
-0.039285716 0.085000008 0.75000006 14146784
-0.037857145 0.085000008 0.75000006 14146527
-0.03633143 0.084773332 0.74800003 14080991
-0.034906667 0.084773332 0.74800003 14014943
-0.033481907 0.084773332 0.74800003 13949407
-0.032142859 0.085000008 0.75000006 13883874
-0.030714288 0.085000008 0.75000006 13818085
-0.029207621 0.084773332 0.74800003 13752289
-0.027782857 0.084773332 0.74800003 13686749
-0.026322858 0.084660001 0.74700004 13620699
-0.024900001 0.084660001 0.74700004 13554905
-0.023477143 0.084660001 0.74700004 13554648
-0.022054287 0.084660001 0.74700004 13488855
-0.020576192 0.08443334 0.74500006 13423062
-0.019157145 0.08443334 0.74500006 13357525
-0.017738096 0.08443334 0.74500006 13291991
-0.01631905 0.08443334 0.74500006 13226201
-0.014900001 0.08443334 0.74500006 13225942
-0.013480954 0.08443334 0.74500006 13094355
-0.012061905 0.08443334 0.74500006 13028817
-0.010642858 0.08443334 0.74500006 12897488
-0.0092485715 0.084660001 0.74700004 12831950
-0.0078047626 0.08443334 0.74500006 12765644
-0.0063857147 0.08443334 0.74500006 12765641
-0.0049666674 0.08443334 0.74500006 12765895
-0.0035476193 0.08443334 0.74500006 12831948
-0.0021285715 0.08443334 0.74500006 12240337
-0.00070952385 0.08443334 0.74500006 11713710
0.00070952385 0.08443334 0.74500006 9934732
0.0021285715 0.08443334 0.74500006 8158326
0.003557143 0.084660001 0.74700004 7172705
0.0049800002 0.084660001 0.74700004 6254958
0.0064028576 0.084660001 0.74700004 6386555
0.007836191 0.084773332 0.74800003 6518135
0.0092609525 0.084773332 0.74800003 6451828
0.010714287 0.085000008 0.75000006 6320755
0.012142858 0.085000008 0.75000006 6189170
0.013571429 0.085000008 0.75000006 6057842
0.015000001 0.085000008 0.75000006 5992051
0.016472382 0.08522667 0.75200003 5926771
0.017904762 0.08522667 0.75200003 5926515
0.019337144 0.08522667 0.75200003 5991791
0.020797143 0.085340001 0.75300002 5925996
0.022231428 0.085340001 0.75300002 5860221
0.023665715 0.085340001 0.75300002 6781838
0.025166668 0.085566677 0.75500005 7706012
0.026710477 0.085906669 0.75800002 9020586
0.028154286 0.085906669 0.75800002 10331049
0.029598096 0.085906669 0.75800002 10331048
0.03112381 0.086133331 0.76000005 10264740
0.032614287 0.086246669 0.76100004 10199456
0.034153335 0.086473338 0.76300001 10199199
0.035700001 0.0867 0.76500005 10133407
0.037157144 0.0867 0.76500005 10067870
0.03871524 0.086926669 0.76700002 9870494
0.040228572 0.08704 0.76800001 9738909
0.041800003 0.087266669 0.77000004 9804445
0.043379046 0.087493338 0.77200001 9803674
0.044907622 0.087606676 0.77300006 9607064
0.046500001 0.087833337 0.77500004 9475478
0.048100002 0.088059999 0.77700001 9409684
0.049707621 0.088286668 0.77900004 9343894
0.051388573 0.088626675 0.78200006 9343897
0.053148571 0.089080006 0.78600001 9343639
0.054784764 0.089306667 0.78800005 9212310
0.056285717 0.089306667 0.78800005 9146772
0.058006667 0.089646667 0.79100001 9080723
0.059814285 0.090100005 0.79500002 8948878
0.061482862 0.090326667 0.79700005 8817545
0.063079998 0.090440005 0.79800004 8751236
0.064761907 0.090666667 0.80000001 8618880
0.06645143 0.090893336 0.80200005 8488064
0.067979053 0.090893336 0.80200005 8750976
0.069506668 0.090893336 0.80200005 9078399
-0.063800007 0.088733338 0.77000004 8884924
-0.062171426 0.088502854 0.76800001 13098709
-0.060708571 0.088502854 0.76800001 13955311
-0.059168573 0.088387616 0.76700002 14869739
-0.057256192 0.087696187 0.76100004 14738664
-0.055733338 0.087580957 0.76000005 14607591
-0.054142859 0.08735048 0.75800002 14542055
-0.052560002 0.087120004 0.75600004 14541798
-0.051120002 0.087120004 0.75600004 14541798
-0.049680002 0.087120004 0.75600004 14541542
-0.048176192 0.087004766 0.75500005 14475494
-0.046738099 0.087004766 0.75500005 14409700
-0.045180004 0.086774282 0.75300002 14343907
-0.043687619 0.086659051 0.75200003 14278112
-0.042255241 0.086659051 0.75200003 14212317
-0.04071429 0.086428575 0.75000006 14212574
-0.039285716 0.086428575 0.75000006 14212576
-0.037857145 0.086428575 0.75000006 14212063
-0.03633143 0.086198099 0.74800003 14080991
-0.034906667 0.086198099 0.74800003 14014942
-0.033481907 0.086198099 0.74800003 13949150
-0.032142859 0.086428575 0.75000006 13883616
-0.030632382 0.086198099 0.74800003 13818338
-0.029207621 0.086198099 0.74800003 13817824
-0.027745714 0.086082861 0.74700004 13752285
-0.026322858 0.086082861 0.74700004 13686235
-0.024900001 0.086082861 0.74700004 13620953
-0.023414288 0.085852385 0.74500006 13620440
-0.022054287 0.086082861 0.74700004 13554647
-0.020576192 0.085852385 0.74500006 13488598
-0.019157145 0.085852385 0.74500006 13423061
-0.017738096 0.085852385 0.74500006 13357526
-0.01631905 0.085852385 0.74500006 13292248
-0.014900001 0.085852385 0.74500006 13291221
-0.013480954 0.085852385 0.74500006 13160147
-0.012061905 0.085852385 0.74500006 13028818
-0.010642858 0.085852385 0.74500006 12897489
-0.0092238095 0.085852385 0.74500006 12831696
-0.0078047626 0.085852385 0.74500006 12765902
-0.0063857147 0.085852385 0.74500006 12765644
-0.0049666674 0.085852385 0.74500006 12700105
-0.0035476193 0.085852385 0.74500006 12700363
-0.0021285715 0.085852385 0.74500006 12635084
-0.00070952385 0.085852385 0.74500006 12632765
0.00070952385 0.085852385 0.74500006 11580333
0.0021285715 0.085852385 0.74500006 10525580
0.003557143 0.086082861 0.74700004 8090220
0.0049800002 0.086082861 0.74700004 5664363
0.006411429 0.086198099 0.74800003 6122346
0.007836191 0.086198099 0.74800003 6648430
0.0092609525 0.086198099 0.74800003 6517363
0.010714287 0.086428575 0.75000006 6386289
0.012142858 0.086428575 0.75000006 6255214
0.013571429 0.086428575 0.75000006 6189168
0.015000001 0.086428575 0.75000006 6123122
0.016472382 0.086659051 0.75200003 6057841
0.017904762 0.086659051 0.75200003 6057841
0.019362858 0.086774282 0.75300002 6057585
0.020797143 0.086774282 0.75300002 6057330
0.022231428 0.086774282 0.75300002 6056829
0.023728572 0.087004766 0.75500005 6386312
0.0252 0.087120004 0.75600004 6720152
0.026640002 0.087120004 0.75600004 8495529
0.028154286 0.08735048 0.75800002 10330535
0.029598096 0.08735048 0.75800002 10265253
0.03112381 0.087580957 0.76000005 10265250
0.032614287 0.087696187 0.76100004 10199712
0.034153335 0.087926663 0.76300001 10199455
0.035606667 0.087926663 0.76300001 10133918
0.037157144 0.088157147 0.76500005 10067870
0.03871524 0.088387616 0.76700002 9870750
0.04017619 0.088387616 0.76700002 9739164
0.041800003 0.088733338 0.77000004 9738907
0.043266669 0.088733338 0.77000004 9803929
0.044907622 0.089079052 0.77300006 9607064
0.046500001 0.089309521 0.77500004 9474966
0.048100002 0.089539997 0.77700001 9408660
0.049707621 0.089770481 0.77900004 9343635
0.051388573 0.090116195 0.78200006 9343890
0.053148571 0.090577148 0.78600001 9343379
0.054784764 0.090807624 0.78800005 9277589
0.056285717 0.090807624 0.78800005 9211795
0.058006667 0.091153331 0.79100001 9146001
0.059814285 0.091614284 0.79500002 9079693
0.061482862 0.091844767 0.79700005 8882825
0.063079998 0.091960005 0.79800004 8750976
0.064761907 0.092190482 0.80000001 8684152
0.066617139 0.092651434 0.80400002 8684413
0.068148568 0.092651434 0.80400002 8882051
0.069506668 0.092420958 0.80200005 9078656
-0.063634284 0.089965716 0.76800001 7898808
-0.062171426 0.089965716 0.76800001 12771027
-0.060629524 0.089848571 0.76700002 13820399
-0.059014291 0.089614294 0.76500005 14804459
-0.057256192 0.08914572 0.76100004 14673127
-0.05580667 0.08914572 0.76100004 14607591
-0.054285716 0.089028575 0.76000005 14607591
-0.052699048 0.088794284 0.75800002 14607590
-0.051120002 0.088560008 0.75600004 14541798
-0.049680002 0.088560008 0.75600004 14541286
-0.048176192 0.088442862 0.75500005 14475494
-0.046738099 0.088442862 0.75500005 14409956
-0.045180004 0.088208571 0.75300002 14409698
-0.043687619 0.088091433 0.75200003 14343902
-0.042255241 0.088091433 0.75200003 14343642
-0.04071429 0.08785715 0.75000006 14343645
-0.039285716 0.08785715 0.75000006 14278112
-0.037857145 0.08785715 0.75000006 14212319
-0.03633143 0.087622859 0.74800003 14146527
-0.034906667 0.087622859 0.74800003 14080734
-0.033481907 0.087622859 0.74800003 13949149
-0.032057144 0.087622859 0.74800003 13883614
-0.030632382 0.087622859 0.74800003 13883616
-0.029168572 0.087505721 0.74700004 13883615
-0.027745714 0.087505721 0.74700004 13752286
-0.026322858 0.087505721 0.74700004 13686236
-0.024833336 0.087271437 0.74500006 13620698
-0.023414288 0.087271437 0.74500006 13620697
-0.022054287 0.087505721 0.74700004 13489112
-0.020576192 0.087271437 0.74500006 13423063
-0.019157145 0.087271437 0.74500006 13357526
-0.017738096 0.087271437 0.74500006 13357270
-0.01631905 0.087271437 0.74500006 13291479
-0.014900001 0.087271437 0.74500006 13225685
-0.013480954 0.087271437 0.74500006 13160148
-0.012061905 0.087271437 0.74500006 13029075
-0.010642858 0.087271437 0.74500006 12963027
-0.0092238095 0.087271437 0.74500006 12896978
-0.0077838097 0.087037146 0.74300003 12831185
-0.0063857147 0.087271437 0.74500006 12830926
-0.0049666674 0.087271437 0.74500006 12765388
-0.0035476193 0.087271437 0.74500006 12699850
-0.0021228571 0.087037146 0.74300003 12634312
-0.00070761907 0.087037146 0.74300003 12569035
0.00070952385 0.087271437 0.74500006 12108495
0.0021285715 0.087271437 0.74500006 11647907
0.003557143 0.087505721 0.74700004 9870967
0.0049800002 0.087505721 0.74700004 8159848
0.0064028576 0.087505721 0.74700004 7239769
0.007836191 0.087622859 0.74800003 6319974
0.0092609525 0.087622859 0.74800003 6254195
0.010714287 0.08785715 0.75000006 6256751
0.012142858 0.08785715 0.75000006 6255211
0.013571429 0.08785715 0.75000006 6255470
0.015040001 0.088091433 0.75200003 6123121
0.016472382 0.088091433 0.75200003 5992304
0.017904762 0.088091433 0.75200003 5992303
0.019362858 0.088208571 0.75300002 5992563
0.020797143 0.088208571 0.75300002 5926520
0.022290478 0.088442862 0.75500005 5926013
0.023728572 0.088442862 0.75500005 6057602
0.0252 0.088560008 0.75600004 6193045
0.026710477 0.088794284 0.75800002 8231080
0.028154286 0.088794284 0.75800002 10267045
0.029598096 0.088794284 0.75800002 10200482
0.03112381 0.089028575 0.76000005 10199969
0.032614287 0.08914572 0.76100004 10199713
0.034153335 0.089379996 0.76300001 10199711
0.035606667 0.089379996 0.76300001 10133662
0.037157144 0.089614294 0.76500005 10067870
0.038614288 0.089614294 0.76500005 9936286
0.04017619 0.089848571 0.76700002 9804956
0.04169143 0.089965716 0.76800001 9804698
0.043266669 0.090200007 0.77000004 9804697
0.044849522 0.090434283 0.77200001 9672856
0.046380006 0.090551436 0.77300006 9474710
0.048100002 0.091019996 0.77700001 9343380
0.049707621 0.091254294 0.77900004 9212303
0.051388573 0.091605715 0.78200006 9277835
0.053148571 0.092074282 0.78600001 9343376
0.054784764 0.092308573 0.78800005 9277333
0.056285717 0.092308573 0.78800005 9277074
0.058006667 0.092659995 0.79100001 9145744
0.059663814 0.092894286 0.79300004 9079692
0.061482862 0.09336286 0.79700005 8882569
0.063079998 0.093480006 0.79800004 8685181
0.064761907 0.093714289 0.80000001 8618353
0.06645143 0.093948573 0.80200005 8487803
0.067979053 0.093948573 0.80200005 8750982
-0.063634284 0.09142857 0.76800001 6912950
-0.062171426 0.09142857 0.76800001 12507346
-0.060629524 0.091309525 0.76700002 13624303
-0.059168573 0.091309525 0.76700002 14804204
-0.057406668 0.090833329 0.76300001 14673386
-0.05580667 0.090595245 0.76100004 14607593
-0.054285716 0.0904762 0.76000005 14607592
-0.052699048 0.090238094 0.75800002 14673127
-0.051120002 0.090000004 0.75600004 14607591
-0.049680002 0.090000004 0.75600004 14607078
-0.048176192 0.089880958 0.75500005 14540774
-0.046614286 0.089642853 0.75300002 14475493
-0.045180004 0.089642853 0.75300002 14475748
-0.043687619 0.089523815 0.75200003 14475233
-0.042255241 0.089523815 0.75200003 14475230
-0.04082286 0.089523815 0.75200003 14474976
-0.039285716 0.089285724 0.75000006 14343907
-0.037857145 0.089285724 0.75000006 14212578
-0.036428574 0.089285724 0.75000006 14147041
-0.035000004 0.089285724 0.75000006 14146784
-0.033481907 0.089047618 0.74800003 14014687
-0.032057144 0.089047618 0.74800003 13949407
-0.030632382 0.089047618 0.74800003 13949664
-0.029207621 0.089047618 0.74800003 13949151
-0.027745714 0.08892858 0.74700004 13817823
-0.026322858 0.08892858 0.74700004 13686493
-0.024900001 0.08892858 0.74700004 13620955
-0.023477143 0.08892858 0.74700004 13620698
-0.022054287 0.08892858 0.74700004 13489113
-0.020576192 0.088690482 0.74500006 13423063
-0.019157145 0.088690482 0.74500006 13357526
-0.017738096 0.088690482 0.74500006 13357270
-0.016275238 0.088452376 0.74300003 13291478
-0.01486 0.088452376 0.74300003 13225684
-0.013444763 0.088452376 0.74300003 13160147
-0.012029524 0.088452376 0.74300003 13094610
-0.010614286 0.088452376 0.74300003 13028817
-0.0091990475 0.088452376 0.74300003 12962512
-0.0077838097 0.088452376 0.74300003 12962256
-0.0063685714 0.088452376 0.74300003 12962254
-0.0049533336 0.088452376 0.74300003 12831181
-0.0035380954 0.088452376 0.74300003 12699851
