# .PCD v0.7 - Point Cloud Data file format
VERSION 0.7
FIELDS x y z rgba
SIZE 4 4 4 4
TYPE F F F U
COUNT 1 1 1 1
WIDTH 1081
HEIGHT 1
VIEWPOINT 0 0 0 1 0 0 0
POINTS 1081
DATA ascii
0.030632382 0.056278098 0.74800003 5992048
0.032057144 0.056278098 0.74800003 6386030
0.033481907 0.056278098 0.74800003 6780020
0.034906667 0.056278098 0.74800003 6517115
0.036428574 0.056428574 0.75000006 6254186
0.03775619 0.056278098 0.74800003 5859929
0.039180957 0.056278098 0.74800003 5530976
-0.050376195 0.057471432 0.74500006 13555421
-0.048957143 0.057471432 0.74500006 13555422
-0.047410477 0.057317145 0.74300003 13620960
-0.045933336 0.057240006 0.74200004 13686494
-0.044399999 0.057085715 0.74000001 13752029
-0.042990476 0.057085715 0.74000001 13883615
-0.041524764 0.057008572 0.73900002 13884128
-0.040008575 0.056854289 0.73700005 13883871
-0.038552385 0.056777146 0.73600006 13883869
-0.037049524 0.056622859 0.73400003 13883869
-0.03555429 0.056468572 0.73200005 13883870
-0.034113333 0.056391429 0.73100001 13883867
-0.03272095 0.056391429 0.73100001 13818585
-0.03132857 0.056391429 0.73100001 13818583
-0.029854286 0.056237146 0.72900003 13620950
-0.028465716 0.056237146 0.72900003 13422804
-0.027077144 0.056237146 0.72900003 13225938
-0.025653334 0.056160003 0.72800004 13094096
-0.024266668 0.056160003 0.72800004 12963021
-0.022880001 0.056160003 0.72800004 12896972
-0.021493334 0.056160003 0.72800004 12699084
-0.020051429 0.056005713 0.72600001 12502473
-0.018668571 0.056005713 0.72600001 12436935
-0.017285714 0.056005713 0.72600001 12436422
-0.015880954 0.055928573 0.72500002 12304581
-0.01452 0.056005713 0.72600001 12238787
-0.013119048 0.055928573 0.72500002 12238786
-0.011738095 0.055928573 0.72500002 12238787
-0.010371429 0.056005713 0.72600001 12172997
-0.0090133343 0.056160003 0.72800004 12172225
-0.0076266672 0.056160003 0.72800004 12041406
-0.0062400005 0.056160003 0.72800004 11975354
-0.0048400001 0.056005713 0.72600001 11778486
-0.0034666669 0.056160003 0.72800004 11646900
-0.00208 0.056160003 0.72800004 11449779
-0.00069333339 0.056160003 0.72800004 11318194
0.00069333339 0.056160003 0.72800004 11186610
0.0020828571 0.056237146 0.72900003 11120817
0.0034714288 0.056237146 0.72900003 10989488
0.0048733335 0.056391429 0.73100001 10923695
0.0062657143 0.056391429 0.73100001 10792367
0.0076685725 0.056468572 0.73200005 10726318
0.0090628574 0.056468572 0.73200005 10660269
0.010457143 0.056468572 0.73200005 10593962
0.01185143 0.056468572 0.73200005 10528168
0.013281905 0.056622859 0.73400003 10462374
0.01468 0.056622859 0.73400003 10330788
0.016121905 0.056777146 0.73600006 10265249
0.01754762 0.056854289 0.73700005 10265246
0.018951431 0.056854289 0.73700005 10264986
0.020410476 0.057008572 0.73900002 10264982
0.021818096 0.057008572 0.73900002 10330522
0.023225715 0.057008572 0.73900002 9739678
0.024666665 0.057085715 0.74000001 9147523
0.026076192 0.057085715 0.74000001 7368807
0.027560001 0.057240006 0.74200004 5598060
0.029168572 0.057625718 0.74700004 5860465
0.030632382 0.057702858 0.74800003 6122351
0.032057144 0.057702858 0.74800003 6713965
0.033481907 0.057702858 0.74800003 7304305
0.034906667 0.057702858 0.74800003 6845557
0.036428574 0.057857145 0.75000006 6385514
0.037857145 0.057857145 0.75000006 5860192
0.039285716 0.057857145 0.75000006 5400422
-0.050240953 0.058732383 0.74300003 13555422
-0.048957143 0.058890481 0.74500006 13555424
-0.047410477 0.058732383 0.74300003 13620962
-0.045933336 0.058653336 0.74200004 13686752
-0.044399999 0.058495238 0.74000001 13752286
-0.042990476 0.058495238 0.74000001 13883872
-0.041524764 0.058416191 0.73900002 13883874
-0.040008575 0.058258101 0.73700005 13883872
-0.038552385 0.058179051 0.73600006 13883870
-0.037049524 0.058020953 0.73400003 13884126
-0.03555429 0.057862859 0.73200005 13883615
-0.034113333 0.057783809 0.73100001 13949148
-0.03272095 0.057783809 0.73100001 13884122
-0.03132857 0.057783809 0.73100001 13819096
-0.029936191 0.057783809 0.73100001 13554903
-0.028543809 0.057783809 0.73100001 13357268
-0.027077144 0.057625718 0.72900003 13225682
-0.025688572 0.057625718 0.72900003 13094351
-0.024300002 0.057625718 0.72900003 13028556
-0.022880001 0.057546668 0.72800004 12962507
-0.021493334 0.057546668 0.72800004 12765130
-0.020106668 0.057546668 0.72800004 12568265
-0.018668571 0.05738857 0.72600001 12502216
-0.017285714 0.05738857 0.72600001 12436423
-0.015902856 0.05738857 0.72600001 12304838
-0.01452 0.05738857 0.72600001 12239300
-0.013137143 0.05738857 0.72600001 12239042
-0.011754286 0.05738857 0.72600001 12238786
-0.010371429 0.05738857 0.72600001 12172994
-0.0090133343 0.057546668 0.72800004 12106688
-0.0076266672 0.057546668 0.72800004 12041150
-0.0062400005 0.057546668 0.72800004 11975609
-0.0048400001 0.05738857 0.72600001 11844021
-0.003457143 0.05738857 0.72600001 11712692
-0.00208 0.057546668 0.72800004 11515316
-0.00069333339 0.057546668 0.72800004 11318195
0.00069333339 0.057546668 0.72800004 11186611
0.0020828571 0.057625718 0.72900003 11120818
0.0034714288 0.057625718 0.72900003 10989490
0.0048733335 0.057783809 0.73100001 10923697
0.0062657143 0.057783809 0.73100001 10857905
0.0076685725 0.057862859 0.73200005 10726320
0.0090628574 0.057862859 0.73200005 10660271
0.010457143 0.057862859 0.73200005 10594219
0.01185143 0.057862859 0.73200005 10528423
0.013281905 0.058020953 0.73400003 10527910
0.01468 0.058020953 0.73400003 10396581
0.016121905 0.058179051 0.73600006 10330786
0.01752381 0.058179051 0.73600006 10265247
0.018951431 0.058258101 0.73700005 10264987
0.020410476 0.058416191 0.73900002 10199448
0.021818096 0.058416191 0.73900002 10199707
0.023225715 0.058416191 0.73900002 9805727
0.024633335 0.058416191 0.73900002 9476227
0.026076192 0.058495238 0.74000001 7566184
0.027560001 0.058653336 0.74200004 5663340
0.029168572 0.059048574 0.74700004 5859696
0.030632382 0.059127621 0.74800003 6056302
0.032142859 0.059285719 0.75000006 6385516
0.033481907 0.059127621 0.74800003 6714989
0.034906667 0.059127621 0.74800003 6451823
0.036428574 0.059285719 0.75000006 6254955
0.037857145 0.059285719 0.75000006 5925992
0.039285716 0.059285719 0.75000006 5597803
-0.050240953 0.060147621 0.74300003 13555934
-0.048957143 0.060309529 0.74500006 13555421
-0.047410477 0.060147621 0.74300003 13621212
-0.045995239 0.060147621 0.74300003 13686748
-0.044520002 0.06006667 0.74200004 13752541
-0.042990476 0.059904762 0.74000001 13883871
-0.041524764 0.059823811 0.73900002 13884129
-0.040117145 0.059823811 0.73900002 13949407
-0.038604766 0.05966191 0.73700005 13883870
-0.037049524 0.059419051 0.73400003 13883870
-0.03555429 0.059257146 0.73200005 13949150
-0.034113333 0.059176192 0.73100001 14014684
-0.03272095 0.059176192 0.73100001 13884123
-0.03132857 0.059176192 0.73100001 13818585
-0.029936191 0.059176192 0.73100001 13554392
-0.028543809 0.059176192 0.73100001 13357524
-0.027077144 0.059014291 0.72900003 13225425
-0.025688572 0.059014291 0.72900003 13159887
-0.024300002 0.059014291 0.72900003 13094349
-0.022880001 0.058933336 0.72800004 13027787
-0.021493334 0.058933336 0.72800004 12831178
-0.020106668 0.058933336 0.72800004 12633545
-0.018668571 0.058771428 0.72600001 12501704
-0.017285714 0.058771428 0.72600001 12436167
-0.015902856 0.058771428 0.72600001 12370631
-0.01452 0.058771428 0.72600001 12304836
-0.013137143 0.058771428 0.72600001 12239298
-0.011754286 0.058771428 0.72600001 12238785
-0.010371429 0.058771428 0.72600001 12173249
-0.0090133343 0.058933336 0.72800004 12106944
-0.0076266672 0.058933336 0.72800004 12041406
-0.0062400005 0.058933336 0.72800004 11975612
-0.0048400001 0.058771428 0.72600001 11844281
-0.0034666669 0.058933336 0.72800004 11778232
-0.00208 0.058933336 0.72800004 11581110
-0.00069333339 0.058933336 0.72800004 11383733
0.00069333339 0.058933336 0.72800004 11252405
0.0020828571 0.059014291 0.72900003 11120818
0.0034714288 0.059014291 0.72900003 11055280
0.0048733335 0.059176192 0.73100001 10989488
0.0062657143 0.059176192 0.73100001 10858160
0.0076580956 0.059176192 0.73100001 10791855
0.0090504764 0.059176192 0.73100001 10726062
0.010457143 0.059257146 0.73200005 10660010
0.01185143 0.059257146 0.73200005 10594214
0.013245715 0.059257146 0.73200005 10593701
0.01468 0.059419051 0.73400003 10462372
0.016121905 0.059580956 0.73600006 10396578
0.01752381 0.059580956 0.73600006 10330783
0.018951431 0.05966191 0.73700005 10264988
0.020410476 0.059823811 0.73900002 10133913
0.021818096 0.059823811 0.73900002 10068380
0.023225715 0.059823811 0.73900002 9937311
0.024666665 0.059904762 0.74000001 9803913
0.026076192 0.059904762 0.74000001 7763827
0.027597144 0.060147621 0.74300003 5794159
0.029090477 0.060309529 0.74500006 5925482
0.030632382 0.060552381 0.74800003 6056043
0.032057144 0.060552381 0.74800003 6122605
0.033481907 0.060552381 0.74800003 6188655
0.034906667 0.060552381 0.74800003 6123889
0.036428574 0.06071429 0.75000006 6123627
0.037857145 0.06071429 0.75000006 5926502
0.039285716 0.06071429 0.75000006 5794154
-0.048957143 0.061728574 0.74500006 13489882
-0.047410477 0.061562862 0.74300003 13621206
-0.045995239 0.061562862 0.74300003 13687001
-0.044520002 0.061480001 0.74200004 13752285
-0.042990476 0.061314281 0.74000001 13818590
-0.041524764 0.061231427 0.73900002 13884128
-0.040008575 0.061065719 0.73700005 13949919
-0.038604766 0.061065719 0.73700005 13884382
-0.037049524 0.060817145 0.73400003 13884381
-0.03565143 0.060817145 0.73400003 13884125
-0.034113333 0.060568571 0.73100001 13949404
-0.032765716 0.060651433 0.73200005 13883868
-0.03132857 0.060568571 0.73100001 13818074
-0.029936191 0.060568571 0.73100001 13620697
-0.028543809 0.060568571 0.73100001 13489109
-0.027077144 0.060402859 0.72900003 13291473
-0.025688572 0.060402859 0.72900003 13160143
-0.024300002 0.060402859 0.72900003 13094094
-0.022880001 0.060320001 0.72800004 12962252
-0.021522857 0.060402859 0.72900003 12765131
-0.020106668 0.060320001 0.72800004 12567754
-0.018720001 0.060320001 0.72800004 12501961
-0.017333334 0.060320001 0.72800004 12436168
-0.015946668 0.060320001 0.72800004 12370376
-0.014560001 0.060320001 0.72800004 12304837
-0.013173334 0.060320001 0.72800004 12239298
-0.011754286 0.060154289 0.72600001 12238785
-0.010371429 0.060154289 0.72600001 12172993
-0.0089885714 0.060154289 0.72600001 12107200
-0.0076266672 0.060320001 0.72800004 12041407
-0.0062400005 0.060320001 0.72800004 11975870
-0.0048400001 0.060154289 0.72600001 11844286
-0.003457143 0.060154289 0.72600001 11712699
-0.00208 0.060320001 0.72800004 11581113
-0.00069333339 0.060320001 0.72800004 11383736
0.00069333339 0.060320001 0.72800004 11252151
0.00208 0.060320001 0.72800004 11120819
0.0034714288 0.060402859 0.72900003 11055279
0.0048600002 0.060402859 0.72900003 11055535
0.0062485719 0.060402859 0.72900003 10923440
0.0076580956 0.060568571 0.73100001 10857390
0.0090504764 0.060568571 0.73100001 10726317
0.010442858 0.060568571 0.73100001 10660777
0.01185143 0.060651433 0.73200005 10594469
0.013245715 0.060651433 0.73200005 10528676
0.014640001 0.060651433 0.73200005 10462372
0.016078096 0.060817145 0.73400003 10462370
0.01752381 0.060982861 0.73600006 10330784
0.018951431 0.061065719 0.73700005 10265245
0.02035524 0.061065719 0.73700005 10133915
0.021818096 0.061231427 0.73900002 10068125
0.023257142 0.061314281 0.74000001 10002847
0.024666665 0.061314281 0.74000001 9935247
0.026146669 0.061480001 0.74200004 7896447
0.027597144 0.061562862 0.74300003 5924978
0.029168572 0.06189429 0.74700004 5990501
0.03059143 0.06189429 0.74700004 5990505
0.032057144 0.061977144 0.74800003 5991022
0.033571433 0.062142864 0.75000006 5991536
0.034906667 0.061977144 0.74800003 5991795
0.036428574 0.062142864 0.75000006 5992300
0.037857145 0.062142864 0.75000006 5860197
0.039285716 0.062142864 0.75000006 5728618
0.04071429 0.062142864 0.75000006 5529967
-0.049088575 0.063317142 0.74700004 13489883
-0.047410477 0.062978096 0.74300003 13621721
-0.045995239 0.062978096 0.74300003 13752540
-0.044399999 0.062723808 0.74000001 13752287
-0.042990476 0.062723808 0.74000001 13818336
-0.041524764 0.06263905 0.73900002 13884386
-0.040117145 0.06263905 0.73900002 13949919
-0.038604766 0.062469527 0.73700005 13884380
-0.03715048 0.062384766 0.73600006 13884381
-0.03555429 0.062045716 0.73200005 13884382
-0.034113333 0.06196095 0.73100001 13949406
-0.032765716 0.062045716 0.73200005 13883869
-0.03132857 0.06196095 0.73100001 13883611
-0.029936191 0.06196095 0.73100001 13752281
-0.028543809 0.06196095 0.73100001 13620693
-0.027077144 0.061791431 0.72900003 13423058
-0.025688572 0.061791431 0.72900003 13225424
-0.024300002 0.061791431 0.72900003 13094095
-0.022880001 0.061706673 0.72800004 12962764
-0.021493334 0.061706673 0.72800004 12764618
-0.020106668 0.061706673 0.72800004 12568009
-0.018720001 0.061706673 0.72800004 12502728
-0.017333334 0.061706673 0.72800004 12502215
-0.015946668 0.061706673 0.72800004 12370374
-0.014580001 0.061791431 0.72900003 12304836
-0.013173334 0.061706673 0.72800004 12304834
-0.011754286 0.061537139 0.72600001 12304321
-0.010371429 0.061537139 0.72600001 12238529
-0.0090133343 0.061706673 0.72800004 12172735
-0.0076266672 0.061706673 0.72800004 12041405
-0.0062228572 0.061537139 0.72600001 11975613
-0.0048400001 0.061537139 0.72600001 11844541
-0.003457143 0.061537139 0.72600001 11712699
-0.0020742856 0.061537139 0.72600001 11581368
-0.00069333339 0.061706673 0.72800004 11449783
0.00069333339 0.061706673 0.72800004 11317174
0.00208 0.061706673 0.72800004 11186098
0.0034666669 0.061706673 0.72800004 11120558
0.0048600002 0.061791431 0.72900003 11120559
0.0062657143 0.06196095 0.73100001 10988976
0.0076580956 0.06196095 0.73100001 10922927
0.0090504764 0.06196095 0.73100001 10791854
0.010457143 0.062045716 0.73200005 10660523
0.01185143 0.062045716 0.73200005 10529192
0.013245715 0.062045716 0.73200005 10462886
0.01468 0.062215243 0.73400003 10462627
0.016121905 0.062384766 0.73600006 10527905
0.01752381 0.062384766 0.73600006 10396575
0.018951431 0.062469527 0.73700005 10264990
0.020410476 0.06263905 0.73900002 10133917
0.021818096 0.06263905 0.73900002 10068382
0.023257142 0.062723808 0.74000001 10068640
0.024733335 0.062893331 0.74200004 10067600
0.026146669 0.062893331 0.74200004 8094849
0.02767143 0.063147627 0.74500006 6122609
0.029168572 0.063317142 0.74700004 6054241
0.030714288 0.063571438 0.75000006 5989222
0.03222857 0.063740954 0.75200003 5858666
0.033660952 0.063740954 0.75200003 5793643
0.035093337 0.063740954 0.75200003 5859948
0.036525715 0.063740954 0.75200003 5925225
0.037958097 0.063740954 0.75200003 5794150
0.039390475 0.063740954 0.75200003 5727593
0.04082286 0.063740954 0.75200003 5463916
-0.049088575 0.064740002 0.74700004 13490141
-0.047410477 0.064393342 0.74300003 13621212
-0.045995239 0.064393342 0.74300003 13752543
-0.044399999 0.064133339 0.74000001 13752546
-0.042932384 0.064046666 0.73900002 13818339
-0.041524764 0.064046666 0.73900002 13884132
-0.040117145 0.064046666 0.73900002 13949663
-0.038552385 0.063786671 0.73600006 13883866
-0.03715048 0.063786671 0.73600006 13883869
-0.03555429 0.063440003 0.73200005 13949664
-0.034113333 0.063353337 0.73100001 14014943
-0.032765716 0.063440003 0.73200005 13949407
-0.03132857 0.063353337 0.73100001 13883612
-0.029936191 0.063353337 0.73100001 13752281
-0.028543809 0.063353337 0.73100001 13621206
-0.027077144 0.063180007 0.72900003 13422803
-0.025688572 0.063180007 0.72900003 13225425
-0.024300002 0.063180007 0.72900003 13094352
-0.022880001 0.063093334 0.72800004 12963277
-0.021493334 0.063093334 0.72800004 12765898
-0.020051429 0.062920004 0.72600001 12634313
-0.018668571 0.062920004 0.72600001 12633800
-0.017285714 0.062920004 0.72600001 12568262
-0.015946668 0.063093334 0.72800004 12502468
-0.014580001 0.063180007 0.72900003 12371139
-0.013137143 0.062920004 0.72600001 12305090
-0.011754286 0.062920004 0.72600001 12304322
-0.010371429 0.062920004 0.72600001 12238530
-0.0090133343 0.063093334 0.72800004 12172735
-0.0076266672 0.063093334 0.72800004 12107452
-0.0062400005 0.063093334 0.72800004 12042940
-0.0048400001 0.062920004 0.72600001 11910077
-0.0034666669 0.063093334 0.72800004 11778490
-0.00208 0.063093334 0.72800004 11647160
-0.00069333339 0.063093334 0.72800004 11515831
0.00069333339 0.063093334 0.72800004 11383222
0.00208 0.063093334 0.72800004 11186354
0.0034714288 0.063180007 0.72900003 11120558
0.0048600002 0.063180007 0.72900003 11055023
0.0062657143 0.063353337 0.73100001 10988976
0.0076580956 0.063353337 0.73100001 10922927
0.0090628574 0.063440003 0.73200005 10791599
0.010457143 0.063440003 0.73200005 10660269
0.01185143 0.063440003 0.73200005 10594476
0.013245715 0.063440003 0.73200005 10528167
0.01468 0.063613333 0.73400003 10462627
0.016078096 0.063613333 0.73400003 10462625
0.01752381 0.063786671 0.73600006 10396575
0.018925715 0.063786671 0.73600006 10264991
0.02035524 0.063873336 0.73700005 10199455
0.021818096 0.064046666 0.73900002 10068896
0.023225715 0.064046666 0.73900002 10134433
0.024666665 0.064133339 0.74000001 10134418
0.026146669 0.064306669 0.74200004 8424068
0.027597144 0.064393342 0.74300003 6779249
0.029168572 0.064740002 0.74700004 6250334
0.030714288 0.065000005 0.75000006 5792354
0.03222857 0.065173343 0.75200003 5727591
0.033660952 0.065173343 0.75200003 5727846
0.035093337 0.065173343 0.75200003 5793382
0.036525715 0.065173343 0.75200003 5859174
0.038008571 0.065260001 0.75300002 5728103
0.039390475 0.065173343 0.75200003 5661288
0.04082286 0.065173343 0.75200003 5398378
-0.049088575 0.066162854 0.74700004 13555420
-0.04734667 0.065720007 0.74200004 13620956
-0.045995239 0.065808572 0.74300003 13752542
-0.044520002 0.065720007 0.74200004 13752544
-0.042990476 0.065542854 0.74000001 13818337
-0.041524764 0.065454289 0.73900002 13884130
-0.040117145 0.065454289 0.73900002 13949663
-0.038552385 0.065188579 0.73600006 13883869
-0.03715048 0.065188579 0.73600006 13883872
-0.03565143 0.065011427 0.73400003 13949923
-0.034113333 0.064745717 0.73100001 14080736
-0.032765716 0.064834289 0.73200005 13949406
-0.03132857 0.064745717 0.73100001 13883611
-0.029936191 0.064745717 0.73100001 13752536
-0.028543809 0.064745717 0.73100001 13620438
-0.027077144 0.064568572 0.72900003 13422804
-0.025688572 0.064568572 0.72900003 13225682
-0.024266668 0.064479999 0.72800004 13094352
-0.022880001 0.064479999 0.72800004 12963021
-0.021493334 0.064479999 0.72800004 12831690
-0.020051429 0.064302854 0.72600001 12765385
-0.018668571 0.064302854 0.72600001 12699592
-0.017285714 0.064302854 0.72600001 12699591
-0.015946668 0.064479999 0.72800004 12568518
-0.014580001 0.064568572 0.72900003 12501956
-0.013173334 0.064479999 0.72800004 12370883
-0.011754286 0.064302854 0.72600001 12304834
-0.010371429 0.064302854 0.72600001 12239298
-0.0090133343 0.064479999 0.72800004 12173503
-0.0076266672 0.064479999 0.72800004 12173501
-0.0062400005 0.064479999 0.72800004 12172733
-0.0048533333 0.064479999 0.72800004 12041149
-0.0034666669 0.064479999 0.72800004 11909562
-0.00208 0.064479999 0.72800004 11778743
-0.00069333339 0.064479999 0.72800004 11646902
0.00069333339 0.064479999 0.72800004 11449525
0.0020828571 0.064568572 0.72900003 11252145
0.0034714288 0.064568572 0.72900003 11120814
0.0048600002 0.064568572 0.72900003 11054766
0.0062657143 0.064745717 0.73100001 10988975
0.0076580956 0.064745717 0.73100001 10988462
0.0090628574 0.064834289 0.73200005 10857134
0.010457143 0.064834289 0.73200005 10725804
0.01185143 0.064834289 0.73200005 10659754
0.013281905 0.065011427 0.73400003 10593703
0.01468 0.065011427 0.73400003 10527908
0.016121905 0.065188579 0.73600006 10462114
0.01752381 0.065188579 0.73600006 10396576
0.018951431 0.065277152 0.73700005 10330527
0.02035524 0.065277152 0.73700005 10199455
0.021818096 0.065454289 0.73900002 10133917
0.023225715 0.065454289 0.73900002 10199451
0.024666665 0.065542854 0.74000001 10265491
0.026076192 0.065542854 0.74000001 8818828
0.027597144 0.065808572 0.74300003 7436918
0.029090477 0.065985717 0.74500006 6511969
0.030714288 0.066428579 0.75000006 5595748
0.03222857 0.066605717 0.75200003 5596776
0.033705715 0.066694282 0.75300002 5662311
0.03514 0.066694282 0.75300002 5728102
0.036574285 0.066694282 0.75300002 5793381
0.038008571 0.066694282 0.75300002 5662052
0.039390475 0.066605717 0.75200003 5595750
0.04082286 0.066605717 0.75200003 5398377
-0.04734667 0.067133337 0.74200004 13620956
-0.045933336 0.067133337 0.74200004 13752541
-0.044520002 0.067133337 0.74200004 13752798
-0.042932384 0.066861905 0.73900002 13818847
-0.041524764 0.066861905 0.73900002 13884384
-0.040008575 0.06668096 0.73700005 13949920
-0.038552385 0.066590481 0.73600006 13884128
-0.037049524 0.066409528 0.73400003 13884131
-0.03555429 0.066228576 0.73200005 14015462
-0.034113333 0.066138096 0.73100001 14147297
-0.032765716 0.066228576 0.73200005 14015197
-0.03132857 0.066138096 0.73100001 13949658
-0.029936191 0.066138096 0.73100001 13752280
-0.028543809 0.066138096 0.73100001 13554390
-0.027077144 0.065957144 0.72900003 13422805
-0.025688572 0.065957144 0.72900003 13226195
-0.024266668 0.065866672 0.72800004 13028305
-0.022880001 0.065866672 0.72800004 12896717
-0.021493334 0.065866672 0.72800004 12831178
-0.020051429 0.065685712 0.72600001 12765641
-0.018668571 0.065685712 0.72600001 12699849
-0.017285714 0.065685712 0.72600001 12634312
-0.015946668 0.065866672 0.72800004 12502472
-0.014580001 0.065957144 0.72900003 12436422
-0.013173334 0.065866672 0.72800004 12305092
-0.011754286 0.065685712 0.72600001 12239299
-0.010371429 0.065685712 0.72600001 12173507
-0.0090133343 0.065866672 0.72800004 12042176
-0.0076266672 0.065866672 0.72800004 12107710
-0.0062400005 0.065866672 0.72800004 12106941
-0.0048533333 0.065866672 0.72800004 12041149
-0.0034666669 0.065866672 0.72800004 11909562
-0.00208 0.065866672 0.72800004 11778487
-0.00069333339 0.065866672 0.72800004 11646902
0.00069333339 0.065866672 0.72800004 11449525
0.0020828571 0.065957144 0.72900003 11252401
0.0034714288 0.065957144 0.72900003 11120558
0.0048600002 0.065957144 0.72900003 11054510
0.0062657143 0.066138096 0.73100001 10988975
0.0076580956 0.066138096 0.73100001 10922926
0.0090628574 0.066228576 0.73200005 10791597
0.010457143 0.066228576 0.73200005 10660267
0.01185143 0.066228576 0.73200005 10593961
0.013281905 0.066409528 0.73400003 10593703
0.01468 0.066409528 0.73400003 10462373
0.016121905 0.066590481 0.73600006 10396579
0.01754762 0.06668096 0.73700005 10331042
0.018951431 0.06668096 0.73700005 10330784
0.02035524 0.06668096 0.73700005 10199455
0.021818096 0.066861905 0.73900002 10133146
0.023225715 0.066861905 0.73900002 10199190
0.024666665 0.066952385 0.74000001 10265749
0.026076192 0.066952385 0.74000001 9081748
0.027560001 0.067133337 0.74200004 7963516
0.029090477 0.067404769 0.74500006 6709348
0.030714288 0.067857146 0.75000006 5530215
0.03222857 0.068038099 0.75200003 5596522
0.033795241 0.068309531 0.75500005 5727592
0.035233337 0.068309531 0.75500005 5727847
0.03667143 0.068309531 0.75500005 5727844
0.038109526 0.068309531 0.75500005 5596258
0.039442856 0.068128571 0.75300002 5530469
0.040877145 0.068128571 0.75300002 5332840
0.042760953 0.068852387 0.76100004 5135460
0.044210479 0.068852387 0.76100004 6781536
-0.047410477 0.068639047 0.74300003 13620956
-0.045995239 0.068639047 0.74300003 13752540
-0.044520002 0.068546675 0.74200004 13818588
-0.042990476 0.068361901 0.74000001 13884125
-0.041524764 0.068269521 0.73900002 13884382
-0.040117145 0.068269521 0.73900002 13949919
-0.038552385 0.067992389 0.73600006 13949664
-0.037049524 0.067807622 0.73400003 13949666
-0.03555429 0.067622863 0.73200005 14081252
-0.034113333 0.067530476 0.73100001 14212321
-0.032765716 0.067622863 0.73200005 14081246
-0.03132857 0.067530476 0.73100001 14015708
-0.029936191 0.067530476 0.73100001 13752027
-0.028543809 0.067530476 0.73100001 13554392
-0.027077144 0.067345716 0.72900003 13423061
-0.025653334 0.067253336 0.72800004 13291731
-0.024266668 0.067253336 0.72800004 13027793
-0.022817142 0.067068577 0.72600001 12831182
-0.021434287 0.067068577 0.72600001 12765643
-0.020051429 0.067068577 0.72600001 12765385
-0.018668571 0.067068577 0.72600001 12634312
-0.017285714 0.067068577 0.72600001 12568519
-0.015902856 0.067068577 0.72600001 12436423
-0.014560001 0.067253336 0.72800004 12370629
-0.013173334 0.067253336 0.72800004 12305092
-0.011754286 0.067068577 0.72600001 12239299
-0.010371429 0.067068577 0.72600001 12107971
-0.0089885714 0.067068577 0.72600001 11976641
-0.0076057143 0.067068577 0.72600001 12041920
-0.0062228572 0.067068577 0.72600001 12106942
-0.0048400001 0.067068577 0.72600001 12041149
-0.0034666669 0.067253336 0.72800004 11975098
-0.00208 0.067253336 0.72800004 11844023
-0.00069333339 0.067253336 0.72800004 11712438
0.00069333339 0.067253336 0.72800004 11515317
0.0020828571 0.067345716 0.72900003 11317682
0.0034714288 0.067345716 0.72900003 11186096
0.0048600002 0.067345716 0.72900003 11054768
0.0062657143 0.067530476 0.73100001 10988976
0.0076580956 0.067530476 0.73100001 10923183
0.0090628574 0.067622863 0.73200005 10791854
0.010457143 0.067622863 0.73200005 10660012
0.01185143 0.067622863 0.73200005 10593961
0.013281905 0.067807622 0.73400003 10593703
0.01468 0.067807622 0.73400003 10462629
0.016121905 0.067992389 0.73600006 10396580
0.01754762 0.068084769 0.73700005 10331043
0.018951431 0.068084769 0.73700005 10330784
0.02035524 0.068084769 0.73700005 10264989
0.021818096 0.068269521 0.73900002 10198937
0.023225715 0.068269521 0.73900002 10198934
0.024666665 0.068361901 0.74000001 10264982
0.026076192 0.068361901 0.74000001 9344918
0.027560001 0.068546675 0.74200004 8489599
0.029012382 0.068639047 0.74300003 6972520
0.030714288 0.069285721 0.75000006 5530729
0.03222857 0.069470473 0.75200003 5662058
0.033795241 0.069747627 0.75500005 5793129
0.035233337 0.069747627 0.75500005 5727848
0.03667143 0.069747627 0.75500005 5661797
0.038109526 0.069747627 0.75500005 5596003
0.039442856 0.06956286 0.75300002 5530210
0.041148573 0.070024759 0.75800002 5333088
0.042760953 0.070301905 0.76100004 5135205
0.044210479 0.070301905 0.76100004 6716522
-0.049088575 0.070431434 0.74700004 13555419
-0.047538098 0.070242859 0.74500006 13621212
-0.045995239 0.070054293 0.74300003 13752539
-0.044520002 0.069960006 0.74200004 13818331
-0.042990476 0.069771431 0.74000001 13884124
-0.041524764 0.069677144 0.73900002 13949917
-0.040008575 0.069488578 0.73700005 14015454
-0.038552385 0.06939429 0.73600006 14015456
-0.037049524 0.069205716 0.73400003 14015457
-0.03555429 0.069017142 0.73200005 14146530
-0.034113333 0.068922862 0.73100001 14277856
-0.032765716 0.069017142 0.73200005 14146783
-0.03132857 0.068922862 0.73100001 14016222
-0.029936191 0.068922862 0.73100001 13817310
-0.028543809 0.068922862 0.73100001 13554650
-0.027077144 0.068734288 0.72900003 13423062
-0.025653334 0.068640009 0.72800004 13291732
-0.024266668 0.068640009 0.72800004 13093842
-0.022880001 0.068640009 0.72800004 12896719
-0.021434287 0.068451427 0.72600001 12831180
-0.020051429 0.068451427 0.72600001 12765385
-0.018668571 0.068451427 0.72600001 12634055
-0.017285714 0.068451427 0.72600001 12568263
-0.015946668 0.068640009 0.72800004 12501959
-0.014560001 0.068640009 0.72800004 12436165
-0.013137143 0.068451427 0.72600001 12370372
-0.011786667 0.068640009 0.72800004 12304835
-0.010371429 0.068451427 0.72600001 12173507
-0.0089885714 0.068451427 0.72600001 12042178
-0.0076057143 0.068451427 0.72600001 12041666
-0.0062228572 0.068451427 0.72600001 12107199
-0.0048400001 0.068451427 0.72600001 12041149
-0.003457143 0.068451427 0.72600001 11975354
-0.00208 0.068640009 0.72800004 11844023
-0.00069333339 0.068640009 0.72800004 11712438
0.00069333339 0.068640009 0.72800004 11515062
0.00208 0.068640009 0.72800004 11317684
0.0034714288 0.068734288 0.72900003 11186354
0.0048733335 0.068922862 0.73100001 11055026
0.0062657143 0.068922862 0.73100001 10989234
0.0076580956 0.068922862 0.73100001 10923441
0.0090628574 0.069017142 0.73200005 10726320
0.010457143 0.069017142 0.73200005 10594477
0.01188381 0.069205716 0.73400003 10594218
0.013281905 0.069205716 0.73400003 10528424
0.014720001 0.06939429 0.73600006 10462630
0.016121905 0.06939429 0.73600006 10331045
0.01754762 0.069488578 0.73700005 10331044
0.018951431 0.069488578 0.73700005 10331039
0.020410476 0.069677144 0.73900002 10264987
0.021818096 0.069677144 0.73900002 10199192
0.023225715 0.069677144 0.73900002 10198934
0.024666665 0.069771431 0.74000001 10198935
0.026076192 0.069771431 0.74000001 9673880
0.027560001 0.069960006 0.74200004 9146754
0.029012382 0.070054293 0.74300003 7368301
0.030714288 0.070714295 0.75000006 5594219
0.03222857 0.070902862 0.75200003 5726570
0.033795241 0.071185715 0.75500005 5793129
0.035233337 0.071185715 0.75500005 5727593
0.03667143 0.071185715 0.75500005 5596007
0.038109526 0.071185715 0.75500005 5530213
0.039547618 0.071185715 0.75500005 5464415
0.041148573 0.071468569 0.75800002 5267033
0.04259238 0.071468569 0.75800002 5069670
0.044036191 0.071468569 0.75800002 6650740
-0.049285717 0.072142862 0.75000006 13555678
-0.047538098 0.071661904 0.74500006 13687008
-0.046119049 0.071661904 0.74500006 13818078
-0.044520002 0.071373336 0.74200004 13883869
-0.042990476 0.071180947 0.74000001 13949662
-0.041524764 0.07108476 0.73900002 14015711
-0.040117145 0.07108476 0.73900002 14080992
-0.038552385 0.070796199 0.73600006 14081249
-0.037049524 0.07060381 0.73400003 14146529
-0.03555429 0.070411436 0.73200005 14278369
-0.034113333 0.070315242 0.73100001 14409184
-0.032765716 0.070411436 0.73200005 14212575
-0.03132857 0.070315242 0.73100001 14081502
-0.029936191 0.070315242 0.73100001 13817054
-0.028543809 0.070315242 0.73100001 13620186
-0.027077144 0.07012286 0.72900003 13488855
-0.025653334 0.070026673 0.72800004 13357268
-0.024266668 0.070026673 0.72800004 13160145
-0.022817142 0.069834292 0.72600001 13028046
-0.021434287 0.069834292 0.72600001 12896972
-0.020051429 0.069834292 0.72600001 12830922
-0.018668571 0.069834292 0.72600001 12699592
-0.017285714 0.069834292 0.72600001 12568262
-0.015902856 0.069834292 0.72600001 12501957
-0.014560001 0.070026673 0.72800004 12501956
-0.013137143 0.069834292 0.72600001 12436675
-0.011786667 0.070026673 0.72800004 12370371
-0.010371429 0.069834292 0.72600001 12239042
-0.0089885714 0.069834292 0.72600001 12172996
-0.0076057143 0.069834292 0.72600001 12106951
-0.0062400005 0.070026673 0.72800004 12106946
-0.0048533333 0.070026673 0.72800004 12041405
-0.003457143 0.069834292 0.72600001 11975354
-0.00208 0.070026673 0.72800004 11844279
-0.00069333339 0.070026673 0.72800004 11777974
0.00069333339 0.070026673 0.72800004 11515061
0.0020828571 0.07012286 0.72900003 11317940
0.0034714288 0.07012286 0.72900003 11186611
0.0048733335 0.070315242 0.73100001 11121074
0.0062657143 0.070315242 0.73100001 10990001
0.0076580956 0.070315242 0.73100001 10923184
0.0090628574 0.070411436 0.73200005 10726575
0.010457143 0.070411436 0.73200005 10594476
0.01188381 0.07060381 0.73400003 10528938
0.013318096 0.070796199 0.73600006 10528423
0.014720001 0.070796199 0.73600006 10397092
0.01614381 0.070892386 0.73700005 10331300
0.01754762 0.070892386 0.73700005 10331300
0.018951431 0.070892386 0.73700005 10330785
0.020410476 0.07108476 0.73900002 10265246
0.021818096 0.07108476 0.73900002 10264731
0.023225715 0.07108476 0.73900002 10198937
0.024666665 0.071180947 0.74000001 10133657
0.026076192 0.071180947 0.74000001 10003098
0.027560001 0.071373336 0.74200004 9868935
0.029012382 0.071469523 0.74300003 7764340
0.03059143 0.071854293 0.74700004 5726060
0.032142859 0.072142862 0.75000006 5791332
0.033705715 0.07243143 0.75300002 5858660
0.035233337 0.072623812 0.75500005 5727588
0.03667143 0.072623812 0.75500005 5596260
0.03816 0.072719999 0.75600004 5464677
0.0396 0.072719999 0.75600004 5399138
0.041040003 0.072719999 0.75600004 5201248
0.042480003 0.072719999 0.75600004 5069923
0.044036191 0.07291238 0.75800002 6650727
-0.050714288 0.073571436 0.75000006 13621472
-0.049088575 0.073277146 0.74700004 13555682
-0.047538098 0.073080957 0.74500006 13687012
-0.045995239 0.072884768 0.74300003 13818337
-0.044520002 0.072786666 0.74200004 13883871
-0.042990476 0.072590478 0.74000001 13949920
-0.041524764 0.072492383 0.73900002 13949922
-0.040117145 0.072492383 0.73900002 14015458
-0.038552385 0.0721981 0.73600006 14081250
-0.037049524 0.072001912 0.73400003 14146785
-0.03555429 0.071805716 0.73200005 14212833
-0.034113333 0.071707621 0.73100001 14278112
-0.032765716 0.071805716 0.73200005 14212576
-0.03137143 0.071805716 0.73200005 14146783
-0.029936191 0.071707621 0.73100001 13883614
-0.028543809 0.071707621 0.73100001 13620699
-0.027077144 0.071511433 0.72900003 13489112
-0.025688572 0.071511433 0.72900003 13291732
-0.024266668 0.071413331 0.72800004 13160144
-0.022817142 0.071217142 0.72600001 13028558
-0.021434287 0.071217142 0.72600001 12962508
-0.020051429 0.071217142 0.72600001 12830922
-0.018668571 0.071217142 0.72600001 12699593
-0.017285714 0.071217142 0.72600001 12634054
-0.015902856 0.071217142 0.72600001 12568260
-0.01452 0.071217142 0.72600001 12568003
-0.013173334 0.071413331 0.72800004 12567747
-0.011786667 0.071413331 0.72800004 12501442
-0.010371429 0.071217142 0.72600001 12370114
-0.0090133343 0.071413331 0.72800004 12238279
-0.0076266672 0.071413331 0.72800004 12172748
-0.0062400005 0.071413331 0.72800004 12107205
-0.0048533333 0.071413331 0.72800004 12041406
-0.0034666669 0.071413331 0.72800004 11975610
-0.00208 0.071413331 0.72800004 11844279
-0.00069333339 0.071413331 0.72800004 11778230
0.00069333339 0.071413331 0.72800004 11580853
0.0020828571 0.071511433 0.72900003 11383732
0.0034714288 0.071511433 0.72900003 11252660
0.0048733335 0.071707621 0.73100001 11121586
0.0062657143 0.071707621 0.73100001 10989489
0.0076580956 0.071707621 0.73100001 10857647
0.0090628574 0.071805716 0.73200005 10726574
0.010457143 0.071805716 0.73200005 10594732
0.01188381 0.072001912 0.73400003 10528682
0.013318096 0.0721981 0.73600006 10463142
0.014720001 0.0721981 0.73600006 10397091
0.01614381 0.072296195 0.73700005 10396836
0.01754762 0.072296195 0.73700005 10331045
0.018951431 0.072296195 0.73700005 10330787
0.020410476 0.072492383 0.73900002 10264993
0.021818096 0.072492383 0.73900002 10264734
0.023225715 0.072492383 0.73900002 10133660
0.024633335 0.072492383 0.73900002 10068380
0.026076192 0.072590478 0.74000001 10003101
0.027560001 0.072786666 0.74200004 10001548
0.029012382 0.072884768 0.74300003 7963003
0.030632382 0.07337524 0.74800003 5923692
0.032057144 0.07337524 0.74800003 5922398
0.033840001 0.074160002 0.75600004 5924190
0.03528 0.074160002 0.75600004 5727583
0.036720004 0.074160002 0.75600004 5596514
0.03816 0.074160002 0.75600004 5464934
0.039704762 0.074356191 0.75800002 5399398
0.041148573 0.074356191 0.75800002 5267559
0.04259238 0.074356191 0.75800002 5201504
-0.050849527 0.075200006 0.75200003 13687263
-0.049285717 0.075000003 0.75000006 13621216
-0.047665719 0.074700005 0.74700004 13687008
-0.046119049 0.074500002 0.74500006 13818335
-0.044580001 0.074299999 0.74300003 13883871
-0.042990476 0.074000001 0.74000001 13949920
-0.041580953 0.074000001 0.74000001 13950178
-0.040117145 0.073899999 0.73900002 14015714
-0.038552385 0.073600002 0.73600006 14081251
-0.037049524 0.073399998 0.73400003 14212578
-0.03555429 0.07320001 0.73200005 14212834
-0.034160003 0.07320001 0.73200005 14212577
-0.032765716 0.07320001 0.73200005 14212576
-0.03137143 0.07320001 0.73200005 14212319
-0.029936191 0.073099993 0.73100001 13949917
-0.028543809 0.073099993 0.73100001 13686235
-0.027151428 0.073099993 0.73100001 13489368
-0.025688572 0.072900005 0.72900003 13292244
-0.024266668 0.072800003 0.72800004 13160144
-0.022880001 0.072800003 0.72800004 13094094
-0.021434287 0.0726 0.72600001 12962508
-0.020106668 0.072800003 0.72800004 12896459
-0.018720001 0.072800003 0.72800004 12765385
-0.017285714 0.0726 0.72600001 12699592
-0.015902856 0.0726 0.72600001 12699591
-0.01452 0.0726 0.72600001 12699077
-0.013173334 0.072800003 0.72800004 12699076
-0.011786667 0.072800003 0.72800004 12698563
-0.010400001 0.072800003 0.72800004 12501442
-0.0090133343 0.072800003 0.72800004 12303812
-0.0076266672 0.072800003 0.72800004 12238790
-0.0062400005 0.072800003 0.72800004 12172737
-0.0048533333 0.072800003 0.72800004 12106941
-0.0034666669 0.072800003 0.72800004 12041146
-0.00208 0.072800003 0.72800004 11910071
-0.00069333339 0.072800003 0.72800004 11778230
0.00069333339 0.072800003 0.72800004 11646901
0.0020828571 0.072900005 0.72900003 11514805
0.0034809522 0.073099993 0.73100001 11318198
0.0048733335 0.073099993 0.73100001 11186355
0.0062657143 0.073099993 0.73100001 10989232
0.0076580956 0.073099993 0.73100001 10857902
0.0090504764 0.073099993 0.73100001 10726572
0.010457143 0.07320001 0.73200005 10660522
0.01188381 0.073399998 0.73400003 10528681
0.013318096 0.073600002 0.73600006 10462887
0.014720001 0.073600002 0.73600006 10462629
0.01614381 0.073700003 0.73700005 10462116
0.01754762 0.073700003 0.73700005 10396580
0.018951431 0.073700003 0.73700005 10330786
0.020410476 0.073899999 0.73900002 10264992
0.021818096 0.073899999 0.73900002 10264991
0.023225715 0.073899999 0.73900002 10133918
0.024666665 0.074000001 0.74000001 10002590
0.026076192 0.074000001 0.74000001 10068895
0.027560001 0.074200004 0.74200004 10198926
0.029012382 0.074299999 0.74300003 8161918
0.030632382 0.0748 0.74800003 6122861
0.032142859 0.075000003 0.75000006 6053724
0.033705715 0.075300001 0.75300002 5989215
0.035233337 0.075500011 0.75500005 5793121
0.03667143 0.075500011 0.75500005 5596259
0.03816 0.075600006 0.75600004 5465188
0.039704762 0.075800002 0.75800002 5399398
0.041148573 0.075800002 0.75800002 5333608
0.04259238 0.075800002 0.75800002 5332581
-0.052281909 0.076632388 0.75200003 13751255
-0.050849527 0.076632388 0.75200003 13687007
-0.049285717 0.076428577 0.75000006 13620958
-0.047665719 0.076122858 0.74700004 13752797
-0.046242859 0.076122858 0.74700004 13884126
-0.044580001 0.075715244 0.74300003 13949919
-0.043106668 0.075613335 0.74200004 14081249
-0.041524764 0.075307623 0.73900002 14081251
-0.040117145 0.075307623 0.73900002 14146787
-0.038552385 0.07500191 0.73600006 14212836
-0.037049524 0.0747981 0.73400003 14344420
-0.03555429 0.074594289 0.73200005 14344164
-0.034160003 0.074594289 0.73200005 14278370
-0.032765716 0.074594289 0.73200005 14212833
-0.03137143 0.074594289 0.73200005 14147295
-0.029936191 0.07449238 0.73100001 13949661
-0.028543809 0.07449238 0.73100001 13686235
-0.027151428 0.07449238 0.73100001 13554905
-0.025688572 0.074288577 0.72900003 13358292
-0.024266668 0.074186668 0.72800004 13225936
-0.022880001 0.074186668 0.72800004 13094094
-0.021493334 0.074186668 0.72800004 13028045
-0.020106668 0.074186668 0.72800004 12962251
-0.018720001 0.074186668 0.72800004 12830666
-0.017333334 0.074186668 0.72800004 12699338
-0.015946668 0.074186668 0.72800004 12633546
-0.014560001 0.074186668 0.72800004 12568007
-0.013173334 0.074186668 0.72800004 12568005
-0.011786667 0.074186668 0.72800004 12568004
-0.010400001 0.074186668 0.72800004 12370115
-0.0090133343 0.074186668 0.72800004 12238529
-0.0076266672 0.074186668 0.72800004 12107712
-0.0062400005 0.074186668 0.72800004 12041662
-0.0048533333 0.074186668 0.72800004 12041149
-0.0034666669 0.074186668 0.72800004 12040890
-0.00208 0.074186668 0.72800004 11909816
-0.00069428573 0.074288577 0.72900003 11778486
0.00069428573 0.074288577 0.72900003 11647157
0.0020885714 0.07449238 0.73100001 11515063
0.0034809522 0.07449238 0.73100001 11317433
0.0048800004 0.074594289 0.73200005 11185588
0.0062742857 0.074594289 0.73200005 11054512
0.0076685725 0.074594289 0.73200005 10923693
0.0090628574 0.074594289 0.73200005 10792619
0.010457143 0.074594289 0.73200005 10661545
0.01185143 0.074594289 0.73200005 10594728
0.013245715 0.074594289 0.73200005 10528423
0.014720001 0.07500191 0.73600006 10462887
0.016121905 0.07500191 0.73600006 10396581
0.01754762 0.075103819 0.73700005 10331044
0.018951431 0.075103819 0.73700005 10331042
0.02035524 0.075103819 0.73700005 10265248
0.021818096 0.075307623 0.73900002 10199712
0.023225715 0.075307623 0.73900002 10133921
0.024633335 0.075307623 0.73900002 10002593
0.026076192 0.075409524 0.74000001 10133921
0.027560001 0.075613335 0.74200004 10265233
0.029090477 0.075919047 0.74500006 8885377
0.030509528 0.075919047 0.74500006 7567470
0.032057144 0.076224767 0.74800003 6578267
0.033660952 0.076632388 0.75200003 5595743
0.03514 0.076734282 0.75300002 5595748
0.03667143 0.0769381 0.75500005 5596003
0.038109526 0.0769381 0.75500005 5464931
0.0396 0.077040002 0.75600004 5333094
0.041040003 0.077040002 0.75600004 5333097
-0.053714287 0.078064762 0.75200003 10601170
-0.052281909 0.078064762 0.75200003 13753304
-0.050714288 0.077857152 0.75000006 13687007
-0.049285717 0.077857152 0.75000006 13621214
-0.047729526 0.077649526 0.74800003 13753309
-0.046242859 0.077545717 0.74700004 13949918
-0.044700004 0.077338107 0.74500006 14081248
-0.043106668 0.077026673 0.74200004 14212321
-0.041580953 0.076819047 0.74000001 14212579
-0.040117145 0.076715238 0.73900002 14278371
-0.038552385 0.076403812 0.73600006 14409956
-0.037049524 0.076196194 0.73400003 14541028
-0.03555429 0.075988576 0.73200005 14475748
-0.034160003 0.075988576 0.73200005 14409442
-0.032765716 0.075988576 0.73200005 14278625
-0.03137143 0.075988576 0.73200005 14147039
-0.029936191 0.075884759 0.73100001 13949405
-0.028543809 0.075884759 0.73100001 13752027
-0.027077144 0.075677149 0.72900003 13620954
-0.025688572 0.075677149 0.72900003 13489109
-0.024266668 0.07557334 0.72800004 13291728
-0.022880001 0.07557334 0.72800004 13159630
-0.021434287 0.075365715 0.72600001 13093836
-0.020106668 0.07557334 0.72800004 13028043
-0.018720001 0.07557334 0.72800004 12830410
-0.017333334 0.07557334 0.72800004 12699337
-0.015946668 0.07557334 0.72800004 12568008
-0.014560001 0.07557334 0.72800004 12502471
-0.013173334 0.07557334 0.72800004 12436933
-0.011786667 0.07557334 0.72800004 12436677
-0.010400001 0.07557334 0.72800004 12304325
-0.0090133343 0.07557334 0.72800004 12173251
-0.0076266672 0.07557334 0.72800004 12042177
-0.0062400005 0.07557334 0.72800004 11976127
-0.0048533333 0.07557334 0.72800004 11975614
-0.0034666669 0.07557334 0.72800004 12040892
-0.00208 0.07557334 0.72800004 11909818
-0.00069428573 0.075677149 0.72900003 11778488
0.00069428573 0.075677149 0.72900003 11647414
0.0020885714 0.075884759 0.73100001 11515062
0.0034809522 0.075884759 0.73100001 11316919
0.0048800004 0.075988576 0.73200005 11185588
0.0062742857 0.075988576 0.73200005 11120048
0.0076685725 0.075988576 0.73200005 11054766
0.0090628574 0.075988576 0.73200005 10858156
0.010457143 0.075988576 0.73200005 10726570
0.01188381 0.076196194 0.73400003 10660777
0.013318096 0.076403812 0.73600006 10594216
0.014720001 0.076403812 0.73600006 10463144
0.01614381 0.076507628 0.73700005 10397095
0.01754762 0.076507628 0.73700005 10331301
0.018951431 0.076507628 0.73700005 10331299
0.020410476 0.076715238 0.73900002 10265761
0.021818096 0.076715238 0.73900002 10199716
0.023257142 0.076819047 0.74000001 10133927
0.024666665 0.076819047 0.74000001 10067876
0.026076192 0.076819047 0.74000001 10198945
0.027560001 0.077026673 0.74200004 10395287
0.029090477 0.077338107 0.74500006 9674381
0.030509528 0.077338107 0.74500006 9011833
0.032014288 0.077545717 0.74700004 7103077
0.033571433 0.077857152 0.75000006 5268069
0.035093337 0.078064762 0.75200003 5464677
0.036525715 0.078064762 0.75200003 5661283
0.038109526 0.078376196 0.75500005 5464930
0.0396 0.078480005 0.75600004 5333094
0.041040003 0.078480005 0.75600004 5267817
-0.053714287 0.079497144 0.75200003 10404309
-0.052281909 0.079497144 0.75200003 13690074
-0.050849527 0.079497144 0.75200003 13687519
-0.049285717 0.079285719 0.75000006 13687006
-0.047729526 0.079074286 0.74800003 13818846
-0.046242859 0.078968577 0.74700004 13949919
-0.044700004 0.078757152 0.74500006 14081249
-0.043106668 0.078440003 0.74200004 14278370
-0.041580953 0.078228571 0.74000001 14278628
-0.040117145 0.078122854 0.73900002 14344420
-0.038552385 0.07780572 0.73600006 14409700
-0.037049524 0.077594288 0.73400003 14475236
-0.03565143 0.077594288 0.73400003 14409700
-0.034160003 0.077382863 0.73200005 14344162
-0.032855239 0.077594288 0.73400003 14278625
-0.03137143 0.077382863 0.73200005 14146783
-0.029977145 0.077382863 0.73200005 13949406
-0.028543809 0.077277139 0.73100001 13752284
-0.027151428 0.077277139 0.73100001 13554907
-0.025688572 0.077065721 0.72900003 13423317
-0.024300002 0.077065721 0.72900003 13291472
-0.022880001 0.076960005 0.72800004 13159630
-0.021493334 0.076960005 0.72800004 13094092
-0.020106668 0.076960005 0.72800004 13028555
-0.018720001 0.076960005 0.72800004 12830923
-0.017333334 0.076960005 0.72800004 12699593
-0.015946668 0.076960005 0.72800004 12568519
-0.014560001 0.076960005 0.72800004 12502982
-0.013173334 0.076960005 0.72800004 12436678
-0.011786667 0.076960005 0.72800004 12370886
-0.010400001 0.076960005 0.72800004 12304839
-0.0090133343 0.076960005 0.72800004 12173508
-0.0076266672 0.076960005 0.72800004 12107714
-0.0062400005 0.076960005 0.72800004 12041665
-0.0048533333 0.076960005 0.72800004 12041664
-0.0034666669 0.076960005 0.72800004 12041662
-0.00208 0.076960005 0.72800004 11909821
-0.00069428573 0.077065721 0.72900003 11779002
0.00069428573 0.077065721 0.72900003 11647415
0.0020885714 0.077277139 0.73100001 11580854
0.0034809522 0.077277139 0.73100001 11383478
0.0048733335 0.077277139 0.73100001 11251891
0.0062742857 0.077382863 0.73200005 11120305
0.0076685725 0.077382863 0.73200005 11054767
0.0090628574 0.077382863 0.73200005 10923437
0.010457143 0.077382863 0.73200005 10791851
0.01188381 0.077594288 0.73400003 10660778
0.013318096 0.07780572 0.73600006 10594730
0.014720001 0.07780572 0.73600006 10528682
0.01614381 0.077911437 0.73700005 10462888
0.01754762 0.077911437 0.73700005 10396839
0.018951431 0.077911437 0.73700005 10331301
0.020410476 0.078122854 0.73900002 10265507
0.021818096 0.078122854 0.73900002 10265512
0.023225715 0.078122854 0.73900002 10199214
0.024666665 0.078228571 0.74000001 10133160
0.026076192 0.078228571 0.74000001 10263970
0.027560001 0.078440003 0.74200004 10394781
0.029012382 0.078545719 0.74300003 9936025
0.030509528 0.078757152 0.74500006 9473156
0.032014288 0.078968577 0.74700004 7368559
0.033571433 0.079285719 0.75000006 5332586
0.035000004 0.079285719 0.75000006 5464166
0.036428574 0.079285719 0.75000006 5595748
-0.052281909 0.080929525 0.75200003 13625049
-0.050714288 0.080714293 0.75000006 13688287
-0.049285717 0.080714293 0.75000006 13818079
-0.047729526 0.080499046 0.74800003 13884383
-0.046242859 0.080391429 0.74700004 14015456
-0.044700004 0.080176197 0.74500006 14146786
-0.043106668 0.079853341 0.74200004 14343907
-0.041580953 0.079638094 0.74000001 14344420
-0.040117145 0.079530478 0.73900002 14409956
-0.038552385 0.079207622 0.73600006 14410468
-0.037049524 0.078992382 0.73400003 14475492
-0.03565143 0.078992382 0.73400003 14409956
-0.034160003 0.078777142 0.73200005 14344163
-0.032855239 0.078992382 0.73400003 14278626
-0.03137143 0.078777142 0.73200005 14212576
-0.029977145 0.078777142 0.73200005 13949406
-0.028543809 0.078669526 0.73100001 13752284
-0.027077144 0.078454293 0.72900003 13554138
-0.025688572 0.078454293 0.72900003 13422805
-0.024300002 0.078454293 0.72900003 13291472
-0.022880001 0.07834667 0.72800004 13225423
-0.021493334 0.07834667 0.72800004 13094093
-0.020106668 0.07834667 0.72800004 13028300
-0.018720001 0.07834667 0.72800004 12896971
-0.017333334 0.07834667 0.72800004 12764873
-0.015946668 0.07834667 0.72800004 12633799
-0.014560001 0.07834667 0.72800004 12502471
-0.013191429 0.078454293 0.72900003 12436679
-0.011786667 0.07834667 0.72800004 12370886
-0.010400001 0.07834667 0.72800004 12305093
-0.0090133343 0.07834667 0.72800004 12239044
-0.0076266672 0.07834667 0.72800004 12173250
-0.0062400005 0.07834667 0.72800004 12107457
-0.0048533333 0.07834667 0.72800004 12041919
-0.0034666669 0.07834667 0.72800004 12041406
