# .PCD v0.7 - Point Cloud Data file format
VERSION 0.7
FIELDS x y z rgba
SIZE 4 4 4 4
TYPE F F F U
COUNT 1 1 1 1
WIDTH 1098
HEIGHT 1
VIEWPOINT 0 0 0 1 0 0 0
POINTS 1098
DATA ascii
0.024300002 0.063180007 0.72900003 10263970
0.025688572 0.063180007 0.72900003 10067106
0.027151428 0.063353337 0.73100001 9936030
0.028543809 0.063353337 0.73100001 9869979
0.029936191 0.063353337 0.73100001 9804438
0.03137143 0.063440003 0.73200005 9672850
0.032855239 0.063613333 0.73400003 9606290
0.034393337 0.063873336 0.73700005 9474706
0.03589429 0.064046666 0.73900002 9408911
0.037301905 0.064046666 0.73900002 9343117
0.038866669 0.064306669 0.74200004 9277323
0.040280003 0.064306669 0.74200004 9145994
0.04186191 0.064566672 0.74500006 9014924
0.043455239 0.064826667 0.74800003 8949390
0.044879999 0.064826667 0.74800003 8883853
0.046428576 0.065000005 0.75000006 9145741
0.047984764 0.065173343 0.75200003 9407884
0.049482856 0.065260001 0.75300002 9210763
0.051120002 0.065520003 0.75600004 9013896
0.052560002 0.065520003 0.75600004 8882566
0.054142859 0.065693334 0.75800002 8817029
0.055733338 0.065866672 0.76000005 8750725
0.057406668 0.066126667 0.76300001 8684674
0.059245713 0.06656 0.76800001 8619136
0.060866669 0.066733338 0.77000004 8553599
0.062495239 0.066906668 0.77200001 8421758
0.064379998 0.067340001 0.77700001 8290681
0.066114292 0.067600004 0.78000003 8093044
0.067773335 0.067773335 0.78200006 7961206
0.06944 0.067946665 0.78400004 8026745
0.071295246 0.068293341 0.78800005 8092281
0.072796196 0.068293341 0.78800005 8356730
-0.020714287 0.066428579 0.75000006 14081505
-0.019105716 0.065808572 0.74300003 13883618
-0.017619047 0.065542854 0.74000001 13752803
-0.016187619 0.065454289 0.73900002 14213092
-0.014740001 0.065277152 0.73700005 14671323
-0.013318096 0.065188579 0.73600006 12573907
-0.011916191 0.065188579 0.73600006 10461601
-0.010457143 0.064834289 0.73200005 9922160
-0.0090504764 0.064745717 0.73100001 9476260
-0.0076580956 0.064745717 0.73100001 11783127
-0.0062485719 0.064568572 0.72900003 14081496
-0.0048533333 0.064479999 0.72800004 13752025
-0.003457143 0.064302854 0.72600001 13423063
-0.0020742856 0.064302854 0.72600001 13357526
-0.00069142855 0.064302854 0.72600001 13291220
0.00069047621 0.064214289 0.72500002 13225682
0.0020714288 0.064214289 0.72500002 13159888
0.0034428574 0.064037152 0.72300005 13028814
0.0048333337 0.064214289 0.72500002 12897228
0.0062142857 0.064214289 0.72500002 12765642
0.0075952383 0.064214289 0.72500002 12633801
0.0089761904 0.064214289 0.72500002 12436679
0.010357142 0.064214289 0.72500002 12304838
0.011738095 0.064214289 0.72500002 12238789
0.013119048 0.064214289 0.72500002 12238516
0.014500001 0.064214289 0.72500002 10069155
0.015902856 0.064302854 0.72600001 7896445
0.017285714 0.064302854 0.72600001 5711448
0.018668571 0.064302854 0.72600001 3625590
0.020106668 0.064479999 0.72800004 6717333
0.021493334 0.064479999 0.72800004 9870750
0.022880001 0.064479999 0.72800004 10069159
0.024300002 0.064568572 0.72900003 10264484
0.025688572 0.064568572 0.72900003 10132897
0.027151428 0.064745717 0.73100001 10067102
0.028543809 0.064745717 0.73100001 9935770
0.029977145 0.064834289 0.73200005 9804438
0.031457145 0.065011427 0.73400003 9738898
0.032944765 0.065188579 0.73600006 9672339
0.034393337 0.065277152 0.73700005 9540244
0.03589429 0.065454289 0.73900002 9409168
0.037352383 0.065542854 0.74000001 9343629
0.038866669 0.065720007 0.74200004 9343116
0.040334288 0.065808572 0.74300003 9211786
0.041974287 0.066162854 0.74700004 9080459
0.043455239 0.066251434 0.74800003 8948621
0.044879999 0.066251434 0.74800003 8818063
0.046428576 0.066428579 0.75000006 9211538
0.047984764 0.066605717 0.75200003 9669774
0.049482856 0.066694282 0.75300002 9341578
0.051120002 0.066960007 0.75600004 9013896
0.052560002 0.066960007 0.75600004 8882822
0.054142859 0.067137145 0.75800002 8816774
0.055733338 0.06731429 0.76000005 8750470
0.057180956 0.06731429 0.76000005 8684675
0.059245713 0.068022862 0.76800001 8619137
0.060866669 0.0682 0.77000004 8618879
0.062495239 0.068377137 0.77200001 8421758
0.064214289 0.068642862 0.77500004 8290169
0.066029526 0.068997145 0.77900004 8158580
0.067773335 0.069262862 0.78200006 8026482
0.06944 0.06944 0.78400004 8090481
0.071295246 0.06979429 0.78800005 8157301
0.072796196 0.06979429 0.78800005 8488569
-0.019105716 0.067223817 0.74300003 13949923
-0.017619047 0.066952385 0.74000001 13818853
-0.016187619 0.066861905 0.73900002 14213352
-0.01478 0.066861905 0.73900002 14541520
-0.013336192 0.06668096 0.73700005 11649465
-0.011916191 0.066590481 0.73600006 8671069
-0.010457143 0.066228576 0.73200005 8477953
-0.0090504764 0.066138096 0.73100001 8219241
-0.0076580956 0.066138096 0.73100001 11190994
-0.0062485719 0.065957144 0.72900003 14081750
-0.0048533333 0.065866672 0.72800004 13752282
-0.0034666669 0.065866672 0.72800004 13488856
-0.0020742856 0.065685712 0.72600001 13423063
-0.00069142855 0.065685712 0.72600001 13357013
0.00069047621 0.065595239 0.72500002 13291475
0.0020714288 0.065595239 0.72500002 13225937
0.0034523809 0.065595239 0.72500002 13094607
0.0048333337 0.065595239 0.72500002 12962765
0.0062142857 0.065595239 0.72500002 12831436
0.0075952383 0.065595239 0.72500002 12699338
0.0089761904 0.065595239 0.72500002 12502217
0.010357142 0.065595239 0.72500002 12305354
0.011738095 0.065595239 0.72500002 12305099
0.013119048 0.065595239 0.72500002 12237485
0.014500001 0.065595239 0.72500002 9606800
0.015902856 0.065685712 0.72600001 6964811
0.017285714 0.065685712 0.72600001 4395783
0.018668571 0.065685712 0.72600001 1837379
0.020106668 0.065866672 0.72800004 5531520
0.021522857 0.065957144 0.72900003 9212309
0.022911429 0.065957144 0.72900003 9807275
0.024300002 0.065957144 0.72900003 10330534
0.025759049 0.066138096 0.73100001 10198433
0.027151428 0.066138096 0.73100001 10067101
0.028543809 0.066138096 0.73100001 9935770
0.029977145 0.066228576 0.73200005 9804438
0.031457145 0.066409528 0.73400003 9738643
0.032855239 0.066409528 0.73400003 9672852
0.034393337 0.06668096 0.73700005 9541270
0.03589429 0.066861905 0.73900002 9475218
0.037352383 0.066952385 0.74000001 9409422
0.038866669 0.067133337 0.74200004 9343372
0.040334288 0.067223817 0.74300003 9211787
0.041974287 0.067585714 0.74700004 9080459
0.043455239 0.067676194 0.74800003 9014668
0.044879999 0.067676194 0.74800003 8949138
0.046552382 0.068038099 0.75200003 9211544
0.047984764 0.068038099 0.75200003 9475217
0.049482856 0.068128571 0.75300002 9276554
0.051120002 0.068400003 0.75600004 9079688
0.052560002 0.068400003 0.75600004 8948359
0.054142859 0.068580955 0.75800002 8816775
0.055733338 0.068761908 0.76000005 8750728
0.057256192 0.068852387 0.76100004 8750213
0.059245713 0.069485709 0.76800001 8684674
0.060866669 0.069666669 0.77000004 8618624
0.062495239 0.069847621 0.77200001 8421758
0.064214289 0.070119046 0.77500004 8289657
0.066029526 0.070480958 0.77900004 8093045
0.067773335 0.07075239 0.78200006 7895407
0.06944 0.070933335 0.78400004 7959145
0.071295246 0.071295246 0.78800005 8091248
0.072796196 0.071295246 0.78800005 8488568
-0.01908 0.068546675 0.74200004 14015461
-0.017619047 0.068361901 0.74000001 13950183
-0.016187619 0.068269521 0.73900002 14213866
-0.01478 0.068269521 0.73900002 14475987
-0.013336192 0.068084769 0.73700005 10725052
-0.011932382 0.068084769 0.73700005 6973534
-0.010485714 0.067807622 0.73400003 6968321
-0.0090628574 0.067622863 0.73200005 7037550
-0.0076580956 0.067530476 0.73100001 10598875
-0.0062485719 0.067345716 0.72900003 14148826
-0.0048600002 0.067345716 0.72900003 13818329
-0.0034666669 0.067253336 0.72800004 13554392
-0.0020742856 0.067068577 0.72600001 13488855
-0.00069142855 0.067068577 0.72600001 13488597
0.00069142855 0.067068577 0.72600001 13357267
0.0020714288 0.066976197 0.72500002 13291473
0.0034523809 0.066976197 0.72500002 13160400
0.0048333337 0.066976197 0.72500002 13028046
0.0062142857 0.066976197 0.72500002 12897228
0.0075952383 0.066976197 0.72500002 12765130
0.0089761904 0.066976197 0.72500002 12568008
0.010357142 0.066976197 0.72500002 12371145
0.011738095 0.066976197 0.72500002 12305866
0.013119048 0.066976197 0.72500002 12303536
0.01452 0.067068577 0.72600001 9210005
0.015946668 0.067253336 0.72800004 6118476
0.017333334 0.067253336 0.72800004 3080452
0.018720001 0.067253336 0.72800004 75849
0.020134287 0.067345716 0.72900003 4345742
0.021522857 0.067345716 0.72900003 8626332
0.022974286 0.067530476 0.73100001 9545642
0.024366667 0.067530476 0.73100001 10461860
0.025759049 0.067530476 0.73100001 10264223
0.027151428 0.067530476 0.73100001 10132893
0.028543809 0.067530476 0.73100001 10001307
0.029977145 0.067622863 0.73200005 9869977
0.031457145 0.067807622 0.73400003 9804182
0.032944765 0.067992389 0.73600006 9738645
0.034393337 0.068084769 0.73700005 9607572
0.03589429 0.068269521 0.73900002 9541266
0.037453339 0.068546675 0.74200004 9409681
0.03891905 0.068639047 0.74300003 9343119
0.040334288 0.068639047 0.74300003 9211788
0.041974287 0.069008574 0.74700004 9145996
0.043455239 0.069100954 0.74800003 9080461
0.045000002 0.069285721 0.75000006 9080207
0.046552382 0.069470473 0.75200003 9146258
0.047984764 0.069470473 0.75200003 9277072
0.049482856 0.06956286 0.75300002 9211534
0.051120002 0.069839999 0.75600004 9145483
0.052560002 0.069839999 0.75600004 9014152
0.054142859 0.070024759 0.75800002 8882312
0.05580667 0.070301905 0.76100004 8816519
0.057406668 0.070486665 0.76300001 8816005
0.059245713 0.070948571 0.76800001 8684675
0.060866669 0.071133338 0.77000004 8618625
0.062495239 0.071318097 0.77200001 8487295
0.064048581 0.071410477 0.77300006 8355707
0.066029526 0.071964763 0.77900004 8027766
0.067600004 0.072057143 0.78000003 7764852
0.06944 0.072426669 0.78400004 7893618
0.070933335 0.072426669 0.78400004 8091253
0.072796196 0.072796196 0.78800005 8488825
-0.020631431 0.070431434 0.74700004 14146791
-0.01908 0.069960006 0.74200004 14081511
-0.017619047 0.069771431 0.74000001 14081769
-0.016187619 0.069677144 0.73900002 14279404
-0.014740001 0.069488578 0.73700005 14475989
-0.013336192 0.069488578 0.73700005 12436671
-0.011932382 0.069488578 0.73700005 10322272
-0.010485714 0.069205716 0.73400003 10185985
-0.0090628574 0.069017142 0.73200005 10050162
-0.0076580956 0.068922862 0.73100001 12111332
-0.0062485719 0.068734288 0.72900003 14150622
-0.0048533333 0.068640009 0.72800004 13883353
-0.0034666669 0.068640009 0.72800004 13554648
-0.00208 0.068640009 0.72800004 13489367
-0.00069142855 0.068451427 0.72600001 13489621
0.00069142855 0.068451427 0.72600001 13291220
0.0020742856 0.068451427 0.72600001 13160402
0.003457143 0.068451427 0.72600001 13094097
0.0048400001 0.068451427 0.72600001 12962511
0.0062228572 0.068451427 0.72600001 12831437
0.0076057143 0.068451427 0.72600001 12765386
0.0089885714 0.068451427 0.72600001 12568263
0.010371429 0.068451427 0.72600001 12370888
0.011738095 0.068357147 0.72500002 12370378
0.013119048 0.068357147 0.72500002 12369842
0.01452 0.068451427 0.72600001 10461595
0.015946668 0.068640009 0.72800004 8614734
0.017333334 0.068640009 0.72800004 7038977
0.018745715 0.068734288 0.72900003 5463374
0.020134287 0.068734288 0.72900003 7636636
0.021581903 0.068922862 0.73100001 9875362
0.022974286 0.068922862 0.73100001 10135209
0.024366667 0.068922862 0.73100001 10396579
0.025759049 0.068922862 0.73100001 10264478
0.027151428 0.068922862 0.73100001 10067613
0.028543809 0.068922862 0.73100001 10001565
0.029977145 0.069017142 0.73200005 9935515
0.031457145 0.069205716 0.73400003 9804442
0.032944765 0.06939429 0.73600006 9738902
0.034393337 0.069488578 0.73700005 9673106
0.03594286 0.069771431 0.74000001 9541779
0.037453339 0.069960006 0.74200004 9475221
0.03891905 0.070054293 0.74300003 9342865
0.040334288 0.070054293 0.74300003 9277326
0.041974287 0.070431434 0.74700004 9211278
0.043455239 0.070525713 0.74800003 9080206
0.045000002 0.070714295 0.75000006 9014669
0.046552382 0.070902862 0.75200003 9080205
0.048048571 0.070997149 0.75300002 9145744
0.049614292 0.071185715 0.75500005 9211283
0.051120002 0.071280003 0.75600004 9211278
0.052560002 0.071280003 0.75600004 9079690
0.054142859 0.071468569 0.75800002 8882568
0.05580667 0.071751431 0.76100004 8816775
0.057406668 0.071940005 0.76300001 8750726
0.059245713 0.072411425 0.76800001 8684677
0.060866669 0.0726 0.77000004 8618627
0.062495239 0.072788574 0.77200001 8487297
0.064048581 0.072882861 0.77300006 8355964
0.065859996 0.073260002 0.77700001 8093304
0.067513339 0.073448576 0.77900004 7896441
0.069085717 0.073542856 0.78000003 7958651
0.07057143 0.073542856 0.78000003 8025978
-0.022379048 0.07291238 0.75800002 14147561
-0.020852383 0.072623812 0.75500005 14212840
-0.019105716 0.071469523 0.74300003 14212840
-0.017619047 0.071180947 0.74000001 14278632
-0.016187619 0.07108476 0.73900002 14410473
-0.014740001 0.070892386 0.73700005 14541535
-0.013336192 0.070892386 0.73700005 14148310
-0.011932382 0.070892386 0.73700005 13749669
-0.010485714 0.07060381 0.73400003 13416565
-0.0090628574 0.070411436 0.73200005 13159852
-0.0076580956 0.070315242 0.73100001 13689571
-0.0062485719 0.07012286 0.72900003 14212319
-0.0048600002 0.07012286 0.72900003 13883099
-0.0034666669 0.070026673 0.72800004 13620697
-0.00208 0.070026673 0.72800004 13555160
-0.00069142855 0.069834292 0.72600001 13489621
0.00069142855 0.069834292 0.72600001 13290706
0.0020742856 0.069834292 0.72600001 13094865
0.003457143 0.069834292 0.72600001 13027279
0.0048400001 0.069834292 0.72600001 12962510
0.0062228572 0.069834292 0.72600001 12831436
0.0075952383 0.069738097 0.72500002 12765385
0.0089761904 0.069738097 0.72500002 12568519
0.010371429 0.069834292 0.72600001 12436934
0.011738095 0.069738097 0.72500002 12435654
0.013119048 0.069738097 0.72500002 12501433
0.01452 0.069834292 0.72600001 11778733
0.015946668 0.070026673 0.72800004 11119749
0.017333334 0.070026673 0.72800004 10985310
0.018745715 0.07012286 0.72900003 10922116
0.020134287 0.07012286 0.72900003 10990249
0.021522857 0.07012286 0.72900003 11120553
0.022911429 0.07012286 0.72900003 10725033
0.024300002 0.07012286 0.72900003 10396580
0.025759049 0.070315242 0.73100001 10199455
0.027151428 0.070315242 0.73100001 10067869
0.028543809 0.070315242 0.73100001 10001819
0.029977145 0.070411436 0.73200005 10001563
0.031457145 0.07060381 0.73400003 9870234
0.032944765 0.070796199 0.73600006 9804439
0.034393337 0.070892386 0.73700005 9673363
0.03594286 0.071180947 0.74000001 9607315
0.037453339 0.071373336 0.74200004 9475218
0.03891905 0.071469523 0.74300003 9408913
0.040334288 0.071469523 0.74300003 9342863
0.041974287 0.071854293 0.74700004 9277070
0.043397143 0.071854293 0.74700004 9145996
0.044879999 0.07195048 0.74800003 9014664
0.046552382 0.072335243 0.75200003 9014149
0.048048571 0.07243143 0.75300002 9080204
0.049614292 0.072623812 0.75500005 9212308
0.051120002 0.072719999 0.75600004 9342607
0.052699048 0.07291238 0.75800002 9145483
0.054142859 0.07291238 0.75800002 8948104
0.055953331 0.073393337 0.76300001 8817029
0.057557147 0.073585719 0.76500005 8750724
0.059245713 0.073874287 0.76800001 8684932
0.060866669 0.074066669 0.77000004 8618882
0.062495239 0.07425905 0.77200001 8487552
0.064048581 0.074355245 0.77300006 8355963
0.065859996 0.07474 0.77700001 8158839
0.067340001 0.07474 0.77700001 8027514
0.069085717 0.075028576 0.78000003 7958397
0.07057143 0.075028576 0.78000003 7960187
0.072057143 0.075028576 0.78000003 8489593
-0.025266668 0.074356191 0.75800002 14147045
-0.023822857 0.074356191 0.75800002 14082024
-0.022231428 0.073865719 0.75300002 14213100
-0.020797143 0.073865719 0.75300002 14278890
-0.019105716 0.072884768 0.74300003 14278889
-0.017619047 0.072590478 0.74000001 14344423
-0.016187619 0.072492383 0.73900002 14476006
-0.014740001 0.072296195 0.73700005 14608618
-0.013336192 0.072296195 0.73700005 14542574
-0.011916191 0.0721981 0.73600006 14480107
-0.010457143 0.071805716 0.73200005 14283241
-0.0090628574 0.071805716 0.73200005 14152165
-0.0076580956 0.071707621 0.73100001 14214370
-0.0062485719 0.071511433 0.72900003 14343903
-0.0048600002 0.071511433 0.72900003 14080733
-0.0034666669 0.071413331 0.72800004 13883099
-0.00208 0.071413331 0.72800004 13817561
-0.00069142855 0.071217142 0.72600001 13752021
0.00069142855 0.071217142 0.72600001 13554641
0.0020742856 0.071217142 0.72600001 13357263
0.003457143 0.071217142 0.72600001 13290958
0.0048400001 0.071217142 0.72600001 13159373
0.0062228572 0.071217142 0.72600001 13028044
0.0075952383 0.071119048 0.72500002 12962249
0.0089885714 0.071217142 0.72600001 12830919
0.010371429 0.071217142 0.72600001 12699845
0.011738095 0.071119048 0.72500002 12633795
0.013119048 0.071119048 0.72500002 12633281
0.01452 0.071217142 0.72600001 12174271
0.015946668 0.071413331 0.72800004 11715261
0.017333334 0.071413331 0.72800004 11584700
0.018720001 0.071413331 0.72800004 11454137
0.020134287 0.071511433 0.72900003 11252407
0.021522857 0.071511433 0.72900003 11055280
0.022911429 0.071511433 0.72900003 10725545
0.024300002 0.071511433 0.72900003 10462116
0.025688572 0.071511433 0.72900003 10264736
0.027151428 0.071707621 0.73100001 10068125
0.028543809 0.071707621 0.73100001 10067866
0.029977145 0.071805716 0.73200005 10002074
0.031457145 0.072001912 0.73400003 9936027
0.032944765 0.0721981 0.73600006 9804696
0.03448667 0.072492383 0.73900002 9738901
0.03594286 0.072590478 0.74000001 9673106
0.037453339 0.072786666 0.74200004 9541264
0.03891905 0.072884768 0.74300003 9474960
0.040442862 0.073080957 0.74500006 9408913
0.041974287 0.073277146 0.74700004 9342862
0.043397143 0.073277146 0.74700004 9211531
0.044879999 0.07337524 0.74800003 9080196
0.046552382 0.073767617 0.75200003 9014653
0.047984764 0.073767617 0.75200003 8883593
0.049614292 0.074061908 0.75500005 9146517
0.051120002 0.074160002 0.75600004 9342865
0.052699048 0.074356191 0.75800002 9145229
0.054285716 0.074552387 0.76000005 9013640
0.055953331 0.07484667 0.76300001 8882307
0.057557147 0.075042859 0.76500005 8750979
0.059400003 0.075533338 0.77000004 8685187
0.060866669 0.075533338 0.77000004 8619649
0.062495239 0.075729519 0.77200001 8487808
0.064048581 0.075827621 0.77300006 8356219
0.065859996 0.076219998 0.77700001 8159094
0.067513339 0.076416194 0.77900004 8027515
0.069085717 0.076514289 0.78000003 7827328
0.07075239 0.076710477 0.78200006 7632508
0.07224191 0.076710477 0.78200006 8358008
-0.026710477 0.075800002 0.75800002 14279138
-0.0252 0.075600006 0.75600004 14146783
-0.023728572 0.075500011 0.75500005 14081765
-0.022231428 0.075300001 0.75300002 14213611
-0.020769523 0.075200006 0.75200003 14409962
-0.019157145 0.074500002 0.74500006 14409962
-0.017666668 0.074200004 0.74200004 14410217
-0.016187619 0.073899999 0.73900002 14541800
-0.01478 0.073899999 0.73900002 14673388
-0.013336192 0.073700003 0.73700005 14936815
-0.011916191 0.073600002 0.73600006 15264236
-0.010457143 0.07320001 0.73200005 15198697
-0.0090628574 0.07320001 0.73200005 15132902
-0.0076580956 0.073099993 0.73100001 14804963
-0.0062657143 0.073099993 0.73100001 14474720
-0.0048600002 0.072900005 0.72900003 14278878
-0.0034666669 0.072800003 0.72800004 14147291
-0.00208 0.072800003 0.72800004 14081241
-0.00069142855 0.0726 0.72600001 14080727
0.00069142855 0.0726 0.72600001 13883604
0.0020742856 0.0726 0.72600001 13685458
0.003457143 0.0726 0.72600001 13554384
0.0048400001 0.0726 0.72600001 13422543
0.0062142857 0.072499998 0.72500002 13290958
0.0075952383 0.072499998 0.72500002 13159884
0.0089885714 0.0726 0.72600001 13028810
0.010371429 0.0726 0.72600001 12962248
0.011738095 0.072499998 0.72500002 12831174
0.013119048 0.072499998 0.72500002 12765636
0.01452 0.0726 0.72600001 12569026
0.015902856 0.0726 0.72600001 12371134
0.017285714 0.0726 0.72600001 12173499
0.018720001 0.072800003 0.72800004 11976888
0.020106668 0.072800003 0.72800004 11449014
0.021522857 0.072900005 0.72900003 10988975
0.022911429 0.072900005 0.72900003 10726057
0.024300002 0.072900005 0.72900003 10528422
0.025688572 0.072900005 0.72900003 10330274
0.027151428 0.073099993 0.73100001 10133663
0.02858286 0.07320001 0.73200005 10068125
0.029977145 0.07320001 0.73200005 10067613
0.03154286 0.073600002 0.73600006 9936285
0.032989528 0.073700003 0.73700005 9870234
0.03448667 0.073899999 0.73900002 9804695
0.03594286 0.074000001 0.74000001 9738645
0.037453339 0.074200004 0.74200004 9607315
0.03891905 0.074299999 0.74300003 9540753
0.040442862 0.074500002 0.74500006 9474960
0.041974287 0.074700005 0.74700004 9409164
0.043397143 0.074700005 0.74700004 9277833
0.044879999 0.0748 0.74800003 9211271
0.046552382 0.075200006 0.75200003 8948357
0.047984764 0.075200006 0.75200003 8752267
0.049614292 0.075500011 0.75500005 9081745
0.051120002 0.075600006 0.75600004 9408911
0.052699048 0.075800002 0.75800002 9210766
0.054285716 0.076000005 0.76000005 9079177
0.055953331 0.076299995 0.76300001 8882308
0.057557147 0.076500006 0.76500005 8751238
0.059245713 0.076799996 0.76800001 8685705
0.060866669 0.077000007 0.77000004 8619396
0.062495239 0.077200003 0.77200001 8488320
0.064214289 0.077500001 0.77500004 8422011
0.066029526 0.077900007 0.77900004 8225142
0.067513339 0.077900007 0.77900004 8027257
0.069262862 0.078200005 0.78200006 7696509
0.070933335 0.078400008 0.78400004 7369849
0.072426669 0.078400008 0.78400004 8291957
-0.02971524 0.077549525 0.76100004 11060165
-0.028228572 0.077447623 0.76000005 12704489
-0.026710477 0.077243812 0.75800002 14410465
-0.0252 0.077040002 0.75600004 14277850
-0.023728572 0.0769381 0.75500005 14145762
-0.022231428 0.076734282 0.75300002 14279146
-0.020797143 0.076734282 0.75300002 14410474
-0.019157145 0.075919047 0.74500006 14410219
-0.017666668 0.075613335 0.74200004 14410475
-0.016187619 0.075307623 0.73900002 14541547
-0.01478 0.075307623 0.73900002 14672878
-0.013336192 0.075103819 0.73700005 14936561
-0.011916191 0.07500191 0.73600006 15200493
-0.010485714 0.0747981 0.73400003 14347754
-0.0090628574 0.074594289 0.73200005 13560807
-0.0076580956 0.07449238 0.73100001 13296868
-0.0062657143 0.07449238 0.73100001 13098465
-0.0048600002 0.074288577 0.72900003 13032671
-0.0034666669 0.074186668 0.72800004 12966876
-0.00208 0.074186668 0.72800004 13032410
-0.00069142855 0.073982857 0.72600001 13032665
0.00069142855 0.073982857 0.72600001 12966104
0.0020742856 0.073982857 0.72600001 12834005
0.003457143 0.073982857 0.72600001 12833747
0.0048400001 0.073982857 0.72600001 12833489
0.0062228572 0.073982857 0.72600001 12702160
0.0076057143 0.073982857 0.72600001 12636622
0.0089885714 0.073982857 0.72600001 12570317
0.010371429 0.073982857 0.72600001 12569547
0.011754286 0.073982857 0.72600001 12504009
0.013137143 0.073982857 0.72600001 12438727
0.01452 0.073982857 0.72600001 12306885
0.015902856 0.073982857 0.72600001 12240832
0.017285714 0.073982857 0.72600001 12174011
0.018668571 0.073982857 0.72600001 12040888
0.020106668 0.074186668 0.72800004 11581109
0.021493334 0.074186668 0.72800004 11119279
0.022880001 0.074186668 0.72800004 10857130
0.024300002 0.074288577 0.72900003 10529447
0.025688572 0.074288577 0.72900003 10396325
0.027151428 0.07449238 0.73100001 10199202
0.028543809 0.07449238 0.73100001 10133664
0.029977145 0.074594289 0.73200005 10133408
0.03154286 0.07500191 0.73600006 10001824
0.032989528 0.075103819 0.73700005 9935772
0.034393337 0.075103819 0.73700005 9804697
0.03589429 0.075307623 0.73900002 9738904
0.037352383 0.075409524 0.74000001 9672855
0.03891905 0.075715244 0.74300003 9541267
0.040442862 0.075919047 0.74500006 9474959
0.04186191 0.075919047 0.74500006 9343627
0.043397143 0.076122858 0.74700004 9277576
0.044879999 0.076224767 0.74800003 9145994
0.046428576 0.076428577 0.75000006 9013901
0.048048571 0.076734282 0.75300002 8817805
0.049614292 0.0769381 0.75500005 9278606
0.051120002 0.077040002 0.75600004 9738126
0.052699048 0.077243812 0.75800002 9407119
0.054357145 0.077549525 0.76100004 9079178
0.055953331 0.077753328 0.76300001 8948102
0.057557147 0.077957146 0.76500005 8751498
0.059245713 0.078262858 0.76800001 8685711
0.060866669 0.078466676 0.77000004 8619400
0.062495239 0.078670479 0.77200001 8553857
0.064379998 0.079180002 0.77700001 8422267
0.065859996 0.079180002 0.77700001 8159350
0.067600004 0.079485722 0.78000003 7961720
0.069085717 0.079485722 0.78000003 7564410
0.070933335 0.079893336 0.78400004 7172982
0.072426669 0.079893336 0.78400004 8292210
-0.02971524 0.07899905 0.76100004 10929091
-0.028228572 0.078895241 0.76000005 12705002
-0.026710477 0.078687623 0.75800002 14540003
-0.0252 0.078480005 0.75600004 14343389
-0.023728572 0.078376196 0.75500005 14213091
-0.022231428 0.078168571 0.75300002 14279401
-0.020797143 0.078168571 0.75300002 14410218
-0.019208571 0.077545717 0.74700004 14409963
-0.017666668 0.077026673 0.74200004 14476011
-0.016187619 0.076715238 0.73900002 14541547
-0.01478 0.076715238 0.73900002 14673134
-0.013336192 0.076507628 0.73700005 14871024
-0.01188381 0.076196194 0.73400003 15134186
-0.010457143 0.075988576 0.73200005 13556707
-0.0090628574 0.075988576 0.73200005 11979220
-0.0076580956 0.075884759 0.73100001 11843781
-0.0062657143 0.075884759 0.73100001 11713224
-0.0048600002 0.075677149 0.72900003 11779275
-0.0034666669 0.07557334 0.72800004 11844553
-0.00208 0.07557334 0.72800004 11910088
-0.00069142855 0.075365715 0.72600001 12042184
0.00069142855 0.075365715 0.72600001 12043465
0.0020742856 0.075365715 0.72600001 12043721
0.003457143 0.075365715 0.72600001 12109512
0.0048400001 0.075365715 0.72600001 12240325
0.0062228572 0.075365715 0.72600001 12174531
0.0076057143 0.075365715 0.72600001 12108224
0.0089885714 0.075365715 0.72600001 12173246
0.010400001 0.07557334 0.72800004 12238526
0.011786667 0.07557334 0.72800004 12172990
0.013173334 0.07557334 0.72800004 12107454
0.014560001 0.07557334 0.72800004 12107455
0.015946668 0.07557334 0.72800004 12173760
0.017285714 0.075365715 0.72600001 12174784
0.018720001 0.07557334 0.72800004 12173246
0.020106668 0.07557334 0.72800004 11713211
0.021493334 0.07557334 0.72800004 11317169
0.022880001 0.07557334 0.72800004 10922152
0.024300002 0.075677149 0.72900003 10593959
0.025688572 0.075677149 0.72900003 10462630
0.027151428 0.075884759 0.73100001 10330531
0.02858286 0.075988576 0.73200005 10264993
0.029977145 0.075988576 0.73200005 10198687
0.03154286 0.076403812 0.73600006 10067614
0.032989528 0.076507628 0.73700005 10001563
0.03448667 0.076715238 0.73900002 9870232
0.03589429 0.076715238 0.73900002 9804441
0.037352383 0.076819047 0.74000001 9673113
0.038866669 0.077026673 0.74200004 9606550
0.040334288 0.077130474 0.74300003 9474962
0.04186191 0.077338107 0.74500006 9343118
0.043397143 0.077545717 0.74700004 9211786
0.044879999 0.077649526 0.74800003 9145997
0.046428576 0.077857152 0.75000006 9013903
0.047984764 0.078064762 0.75200003 8948628
0.049614292 0.078376196 0.75500005 9541017
0.051120002 0.078480005 0.75600004 10131604
0.052838098 0.078895241 0.76000005 9603472
0.054357145 0.07899905 0.76100004 9144714
0.055953331 0.079206668 0.76300001 8948101
0.057707619 0.079621911 0.76700002 8817031
0.059245713 0.079725713 0.76800001 8751241
0.060866669 0.079933338 0.77000004 8684933
0.062495239 0.080140956 0.77200001 8553858
0.064545713 0.080867618 0.77900004 8487548
0.066114292 0.080971435 0.78000003 8159350
0.067600004 0.080971435 0.78000003 7896437
0.069262862 0.081179053 0.78200006 7432308
0.07075239 0.081179053 0.78200006 7040373
0.072426669 0.08138667 0.78400004 8227191
-0.029676192 0.080342866 0.76000005 10732481
-0.028228572 0.080342866 0.76000005 12639980
-0.026710477 0.080131426 0.75800002 14541286
-0.0252 0.079920009 0.75600004 14409952
-0.023760002 0.079920009 0.75600004 14278884
-0.022231428 0.07960286 0.75300002 14344936
-0.020797143 0.07960286 0.75300002 14475753
-0.019234287 0.079074286 0.74800003 14475755
-0.017738096 0.078757152 0.74500006 14541547
-0.016209524 0.078228571 0.74000001 14672876
-0.01478 0.078122854 0.73900002 14804718
-0.013336192 0.077911437 0.73700005 14937072
-0.01188381 0.077594288 0.73400003 15002598
-0.010457143 0.077382863 0.73200005 12962013
-0.0090628574 0.077382863 0.73200005 10983362
-0.0076685725 0.077382863 0.73200005 11049895
-0.0062657143 0.077277139 0.73100001 11116463
-0.0048600002 0.077065721 0.72900003 10723767
-0.0034666669 0.076960005 0.72800004 10331318
-0.0020742856 0.076748572 0.72600001 10069174
-0.00069142855 0.076748572 0.72600001 9807032
0.00069142855 0.076748572 0.72600001 9807547
0.0020714288 0.076642863 0.72500002 9873596
0.0034523809 0.076642863 0.72500002 9938878
0.0048400001 0.076748572 0.72600001 10004154
0.0062228572 0.076748572 0.72600001 10136246
0.0076057143 0.076748572 0.72600001 10334131
0.0089885714 0.076748572 0.72600001 10399664
0.010371429 0.076748572 0.72600001 10465201
0.011754286 0.076748572 0.72600001 10333619
0.013173334 0.076960005 0.72800004 10202294
0.01452 0.076748572 0.72600001 9874362
0.015946668 0.076960005 0.72800004 9611968
0.017333334 0.076960005 0.72800004 10729670
0.018720001 0.076960005 0.72800004 11913156
0.020106668 0.076960005 0.72800004 11649474
0.021493334 0.076960005 0.72800004 11318452
0.022911429 0.077065721 0.72900003 10987686
0.024300002 0.077065721 0.72900003 10593958
0.025688572 0.077065721 0.72900003 10462375
0.027151428 0.077277139 0.73100001 10330788
0.028543809 0.077277139 0.73100001 10264738
0.029977145 0.077382863 0.73200005 10198687
0.03154286 0.07780572 0.73600006 10067613
0.032989528 0.077911437 0.73700005 10001818
0.03448667 0.078122854 0.73900002 9936024
0.03589429 0.078122854 0.73900002 9804442
0.037352383 0.078228571 0.74000001 9738396
0.038866669 0.078440003 0.74200004 9606553
0.040334288 0.078545719 0.74300003 9540502
0.04186191 0.078757152 0.74500006 9408401
0.043397143 0.078968577 0.74700004 9277325
0.044879999 0.079074286 0.74800003 9146255
0.046428576 0.079285719 0.75000006 9014162
0.047984764 0.079497144 0.75200003 8817307
0.049614292 0.079814292 0.75500005 9344677
0.051255237 0.080131426 0.75800002 9869979
0.052838098 0.080342866 0.76000005 9472913
0.054357145 0.080448568 0.76100004 9078922
0.055953331 0.08066 0.76300001 8948100
0.057557147 0.080871433 0.76500005 8817028
0.059168573 0.081082858 0.76700002 8685700
0.060866669 0.0814 0.77000004 8619651
0.062495239 0.081611432 0.77200001 8553603
0.064379998 0.082139999 0.77700001 8487549
0.066114292 0.08245714 0.78000003 8159607
0.067773335 0.08266858 0.78200006 7831410
0.06944 0.082879998 0.78400004 7365742
0.071114287 0.08309143 0.78600001 6973557
0.072796196 0.083302855 0.78800005 8227453
0.074297145 0.083302855 0.78800005 9472893
-0.029676192 0.081790477 0.76000005 10534854
-0.028228572 0.081790477 0.76000005 12574958
-0.026710477 0.081575237 0.75800002 14606568
-0.0252 0.081359997 0.75600004 14474978
-0.023760002 0.081359997 0.75600004 14410213
-0.022231428 0.081037149 0.75300002 14476008
-0.020797143 0.081037149 0.75300002 14541546
-0.019234287 0.080499046 0.74800003 14541547
-0.017738096 0.080176197 0.74500006 14607339
-0.016209524 0.079638094 0.74000001 14804204
-0.01478 0.079530478 0.73900002 15001326
-0.013336192 0.079315245 0.73700005 14937584
-0.01188381 0.078992382 0.73400003 14935770
-0.010485714 0.078992382 0.73400003 12433093
-0.0090876194 0.078992382 0.73400003 10000053
-0.0076685725 0.078777142 0.73200005 10264998
-0.0062657143 0.078669526 0.73100001 10527143
-0.0048600002 0.078454293 0.72900003 9675175
-0.0034666669 0.07834667 0.72800004 8818331
-0.00208 0.07834667 0.72800004 8223632
-0.00069142855 0.07813143 0.72600001 7635088
0.00069142855 0.07813143 0.72600001 7636625
0.0020714288 0.078023814 0.72500002 7699856
0.0034523809 0.078023814 0.72500002 7697807
0.0048333337 0.078023814 0.72500002 7765916
0.0062142857 0.078023814 0.72500002 8161961
0.0075952383 0.078023814 0.72500002 8620959
0.0089761904 0.078023814 0.72500002 8686998
0.010371429 0.07813143 0.72600001 8752023
0.011754286 0.07813143 0.72600001 8489624
0.013173334 0.07834667 0.72800004 8289173
0.014560001 0.07834667 0.72800004 7629971
0.015946668 0.07834667 0.72800004 7044005
0.017285714 0.07813143 0.72600001 9341623
0.018720001 0.07834667 0.72800004 11713213
0.020106668 0.07834667 0.72800004 11520195
0.021493334 0.07834667 0.72800004 11383988
0.022911429 0.078454293 0.72900003 10987684
0.024300002 0.078454293 0.72900003 10659494
0.025688572 0.078454293 0.72900003 10462120
0.027151428 0.078669526 0.73100001 10330789
0.028543809 0.078669526 0.73100001 10264482
0.029977145 0.078777142 0.73200005 10198688
0.03154286 0.079207622 0.73600006 10133150
0.032989528 0.079315245 0.73700005 10067612
0.03448667 0.079530478 0.73900002 9936537
0.03589429 0.079530478 0.73900002 9869978
0.037352383 0.079638094 0.74000001 9738139
0.038866669 0.079853341 0.74200004 9672088
0.040334288 0.07996095 0.74300003 9606038
0.04186191 0.080176197 0.74500006 9539987
0.043280955 0.080176197 0.74500006 9343119
0.044879999 0.080499046 0.74800003 9211792
0.046304762 0.080499046 0.74800003 8948880
0.047857147 0.080714293 0.75000006 8752277
0.049482856 0.081037149 0.75300002 9148571
0.051120002 0.081359997 0.75600004 9607573
0.052699048 0.081575237 0.75800002 9342607
0.054357145 0.081898101 0.76100004 9079690
0.055953331 0.082113333 0.76300001 8948358
0.057557147 0.08232858 0.76500005 8817029
0.059168573 0.082543813 0.76700002 8685956
0.060866669 0.082866669 0.77000004 8619651
0.062495239 0.083081901 0.77200001 8553347
0.064545713 0.083835244 0.77900004 8553085
0.066114292 0.08394286 0.78000003 8159864
0.067600004 0.08394286 0.78000003 7830900
0.069262862 0.0841581 0.78200006 7364976
0.071114287 0.084588572 0.78600001 6908536
0.072796196 0.084803812 0.78800005 8162432
0.074297145 0.084803812 0.78800005 9472895
-0.028228572 0.083238102 0.76000005 12575217
-0.026710477 0.083019048 0.75800002 14738411
-0.0252 0.082800001 0.75600004 14540517
-0.023760002 0.082800001 0.75600004 14344935
-0.022290478 0.082690477 0.75500005 14476009
-0.020769523 0.082361907 0.75200003 14541546
-0.019208571 0.081814289 0.74700004 14607340
-0.017738096 0.081595249 0.74500006 14673132
-0.016253335 0.081266664 0.74200004 14804460
-0.01478 0.080938093 0.73900002 14936046
-0.013372381 0.080938093 0.73900002 14871537
-0.011932382 0.080719054 0.73700005 14869199
-0.010514286 0.08060953 0.73600006 12367277
-0.0091123814 0.08060953 0.73600006 9934505
-0.0076685725 0.080171436 0.73200005 10264742
-0.0062657143 0.080061905 0.73100001 10594975
-0.0048600002 0.079842865 0.72900003 9345176
-0.0034666669 0.079733342 0.72800004 8090497
-0.00208 0.079733342 0.72800004 7628138
-0.00069142855 0.07951428 0.72600001 7166056
0.00069142855 0.07951428 0.72600001 6769511
0.0020714288 0.079404764 0.72500002 6372963
0.0034523809 0.079404764 0.72500002 6177632
0.0048333337 0.079404764 0.72500002 6047870
0.0062142857 0.079404764 0.72500002 7045276
0.0075952383 0.079404764 0.72500002 8028300
0.0089761904 0.079404764 0.72500002 7962492
0.010371429 0.07951428 0.72600001 7962492
0.011754286 0.07951428 0.72600001 7895933
0.013173334 0.079733342 0.72800004 7829620
0.014560001 0.079733342 0.72800004 5855084
0.017285714 0.07951428 0.72600001 7038632
0.018720001 0.079733342 0.72800004 10202550
0.020106668 0.079733342 0.72800004 10930885
0.021493334 0.079733342 0.72800004 11646388
0.022911429 0.079842865 0.72900003 11118755
0.024300002 0.079842865 0.72900003 10659494
0.025688572 0.079842865 0.72900003 10527657
0.027151428 0.080061905 0.73100001 10331046
0.02858286 0.080171436 0.73200005 10264995
0.029977145 0.080171436 0.73200005 10199201
0.03154286 0.08060953 0.73600006 10133408
0.032989528 0.080719054 0.73700005 10002333
0.03448667 0.080938093 0.73900002 9936283
0.03589429 0.080938093 0.73900002 9869978
0.037352383 0.081047617 0.74000001 9803930
0.038866669 0.081266664 0.74200004 9672344
0.040334288 0.081376195 0.74300003 9606295
0.04186191 0.081595249 0.74500006 9540244
0.043280955 0.081595249 0.74500006 9343122
0.044819999 0.081814289 0.74700004 9211792
0.046304762 0.081923813 0.74800003 9015183
0.047857147 0.082142867 0.75000006 8818576
0.049482856 0.08247143 0.75300002 9278865
0.051120002 0.082800001 0.75600004 9738383
0.052699048 0.083019048 0.75800002 9408142
0.054357145 0.083347626 0.76100004 9079947
0.055953331 0.083566666 0.76300001 8948616
0.057557147 0.08378572 0.76500005 8817542
0.059168573 0.08400476 0.76700002 8751493
0.060866669 0.084333338 0.77000004 8685188
0.062495239 0.084552377 0.77200001 8553603
0.064379998 0.085100003 0.77700001 8422014
0.066114292 0.085428573 0.78000003 8093818
0.067600004 0.085428573 0.78000003 7699574
0.069262862 0.085647628 0.78200006 7299698
0.071114287 0.086085714 0.78600001 6909307
0.072796196 0.086304761 0.78800005 8227460
0.074297145 0.086304761 0.78800005 9538433
-0.028228572 0.084685721 0.76000005 12575729
-0.026710477 0.084462859 0.75800002 14869483
-0.025266668 0.084462859 0.75800002 14606053
-0.023760002 0.084240004 0.75600004 14344167
-0.022231428 0.083905719 0.75300002 14475753
-0.020769523 0.083794288 0.75200003 14607339
-0.019208571 0.083237141 0.74700004 14673389
-0.017690476 0.082791425 0.74300003 14739181
-0.016209524 0.08245714 0.74000001 14804973
-0.01478 0.082345717 0.73900002 14870512
-0.013372381 0.082345717 0.73900002 14871283
-0.011932382 0.082122862 0.73700005 14870223
-0.010528572 0.082122862 0.73700005 12367276
-0.0091247624 0.082122862 0.73700005 9868199
-0.0077209529 0.082122862 0.73700005 10264482
-0.00069142855 0.080897145 0.72600001 6773598
0.00069142855 0.080897145 0.72600001 5921116
0.0020657144 0.08056286 0.72300005 5064526
0.0034428574 0.08056286 0.72300005 4659777
0.0048333337 0.080785714 0.72500002 4345437
0.0062142857 0.080785714 0.72500002 5863034
0.0075952383 0.080785714 0.72500002 7434868
0.0089761904 0.080785714 0.72500002 7302767
0.010371429 0.080897145 0.72600001 7172206
0.011754286 0.080897145 0.72600001 7303788
0.018797142 0.081454284 0.73100001 8760233
0.020134287 0.081231438 0.72900003 10341571
0.021522857 0.081231438 0.72900003 11909303
0.022974286 0.081454284 0.73100001 11315370
0.024366667 0.081454284 0.73100001 10724777
0.025759049 0.081454284 0.73100001 10527911
0.027151428 0.081454284 0.73100001 10396581
0.02858286 0.081565715 0.73200005 10331042
0.029977145 0.081565715 0.73200005 10264481
0.03154286 0.082011431 0.73600006 10133407
0.032989528 0.082122862 0.73700005 10002077
0.034393337 0.082122862 0.73700005 9936284
0.03589429 0.082345717 0.73900002 9935769
0.037301905 0.082345717 0.73900002 9804438
0.038866669 0.082680002 0.74200004 9738133
0.040334288 0.082791425 0.74300003 9606805
0.04186191 0.083014295 0.74500006 9540498
0.043280955 0.083014295 0.74500006 9408910
0.044819999 0.083237141 0.74700004 9277325
0.046304762 0.08334858 0.74800003 9080460
0.047984764 0.083794288 0.75200003 8949903
0.049482856 0.083905719 0.75300002 9409426
0.051120002 0.084240004 0.75600004 9934735
0.052699048 0.084462859 0.75800002 9539213
0.054357145 0.084797144 0.76100004 9145738
0.055953331 0.085020006 0.76300001 8948616
0.057557147 0.08524286 0.76500005 8817286
0.059168573 0.085465722 0.76700002 8751493
0.060866669 0.0858 0.77000004 8750723
0.06257619 0.086134292 0.77300006 8554113
0.064379998 0.086580001 0.77700001 8356733
0.066029526 0.086802863 0.77900004 7962233
0.067513339 0.086802863 0.77900004 7633264
0.069262862 0.087137155 0.78200006 7299943
0.071114287 0.087582856 0.78600001 6975861
0.072796196 0.087805718 0.78800005 8292740
0.074297145 0.087805718 0.78800005 9603201
-0.028228572 0.086133331 0.76000005 12641265
-0.026710477 0.085906669 0.75800002 14935275
-0.025266668 0.085906669 0.75800002 14606053
-0.023760002 0.08568 0.75600004 14343911
-0.022231428 0.085340001 0.75300002 14541546
-0.020769523 0.08522667 0.75200003 14739180
-0.019208571 0.084660001 0.74700004 14804975
-0.017690476 0.084206671 0.74300003 14805231
-0.016209524 0.083866663 0.74000001 14870511
-0.0148 0.083866663 0.74000001 14936050
-0.013372381 0.083753332 0.73900002 14936309
-0.011964763 0.083753332 0.73900002 15002320
-0.010557143 0.083753332 0.73900002 12367788
-0.0091495244 0.083753332 0.73900002 9736357
-0.0077419053 0.083753332 0.73900002 10132895
-0.0063342857 0.083753332 0.73900002 10527891
0.0020657144 0.081940003 0.72300005 5394489
0.0034428574 0.081940003 0.72300005 5067298
0.0048333337 0.082166664 0.72500002 4740157
0.0062142857 0.082166664 0.72500002 5001816
0.0075952383 0.082166664 0.72500002 5328989
0.0089761904 0.082166664 0.72500002 4475747
0.010357142 0.082166664 0.72500002 3688287
0.011754286 0.082280003 0.72600001 4541788
0.018797142 0.082846664 0.73100001 8825245
0.020134287 0.082620002 0.72900003 10341826
0.021493334 0.082506672 0.72800004 11844538
0.022911429 0.082620002 0.72900003 11315378
0.024300002 0.082620002 0.72900003 10724780
0.025759049 0.082846664 0.73100001 10593446
0.027151428 0.082846664 0.73100001 10462372
0.02858286 0.08296001 0.73200005 10396322
0.029977145 0.08296001 0.73200005 10330016
0.031457145 0.083186664 0.73400003 10198687
0.032944765 0.08341334 0.73600006 10067614
0.034393337 0.083526671 0.73700005 10001821
0.03589429 0.083753332 0.73900002 9936279
0.037301905 0.083753332 0.73900002 9804690
0.038866669 0.08409334 0.74200004 9738387
0.040334288 0.084206671 0.74300003 9672596
0.041749526 0.084206671 0.74300003 9541007
0.043280955 0.08443334 0.74500006 9409675
0.044819999 0.084660001 0.74700004 9278346
0.046304762 0.084773332 0.74800003 9079689
0.047857147 0.085000008 0.75000006 8882318
0.049482856 0.085340001 0.75300002 9343891
0.051052384 0.085566677 0.75500005 9803664
0.052699048 0.085906669 0.75800002 9474189
0.054357145 0.086246669 0.76100004 9211530
0.055953331 0.086473338 0.76300001 9014408
0.057557147 0.0867 0.76500005 8882311
0.059168573 0.086926669 0.76700002 8817030
0.060866669 0.087266669 0.77000004 8750978
0.06257619 0.087606676 0.77300006 8619647
0.064214289 0.087833337 0.77500004 8553852
0.066029526 0.088286668 0.77900004 7896185
0.067340001 0.088059999 0.77700001 7173994
0.068997145 0.088286668 0.77900004 7108188
0.070480958 0.088286668 0.77900004 7042672
0.071964763 0.088286668 0.77900004 8292740
0.074297145 0.089306667 0.78800005 9537666
-0.028228572 0.087580957 0.76000005 12707055
-0.026710477 0.08735048 0.75800002 15001065
-0.0252 0.087120004 0.75600004 14671588
-0.023728572 0.087004766 0.75500005 14409191
-0.022290478 0.087004766 0.75500005 14673130
-0.020769523 0.086659051 0.75200003 14936044
-0.019234287 0.086198099 0.74800003 14936559
-0.017738096 0.085852385 0.74500006 14936559
-0.016253335 0.08550667 0.74200004 14936560
-0.0148 0.085276194 0.74000001 15001843
-0.013372381 0.085160956 0.73900002 15068918
-0.011964763 0.085160956 0.73900002 15133396
-0.010557143 0.085160956 0.73900002 12368562
-0.0091495244 0.085160956 0.73900002 9669288
-0.0077523813 0.085276194 0.74000001 10067102
-0.0063428571 0.085276194 0.74000001 10462354
0.0075952383 0.083547622 0.72500002 3227708
0.0089761904 0.083547622 0.72500002 1705010
0.010357142 0.083547622 0.72500002 201531
0.018797142 0.084239051 0.73100001 8956319
0.020189524 0.084239051 0.73100001 10407620
0.021522857 0.084008574 0.72900003 11844283
0.022974286 0.084239051 0.73100001 11315379
0.024366667 0.084239051 0.73100001 10790574
0.025759049 0.084239051 0.73100001 10659241
0.027151428 0.084239051 0.73100001 10527654
0.02858286 0.084354289 0.73200005 10461604
0.029977145 0.084354289 0.73200005 10396066
0.031457145 0.084584765 0.73400003 10264993
0.032944765 0.084815241 0.73600006 10199199
0.034393337 0.084930487 0.73700005 10067869
0.035797145 0.084930487 0.73700005 9936280
0.037301905 0.085160956 0.73900002 9870483
0.038761906 0.085276194 0.74000001 9803924
0.040280003 0.08550667 0.74200004 9672852
0.041749526 0.085621901 0.74300003 9607057
0.043280955 0.085852385 0.74500006 9475726
0.044819999 0.086082861 0.74700004 9343886
0.046428576 0.086428575 0.75000006 9079182
0.047857147 0.086428575 0.75000006 8817813
0.049482856 0.086774282 0.75300002 9213085
0.051052384 0.087004766 0.75500005 9672598
0.052560002 0.087120004 0.75600004 9474959
0.054285716 0.087580957 0.76000005 9277068
0.055953331 0.087926663 0.76300001 9145738
0.057557147 0.088157147 0.76500005 9013384
0.059168573 0.088387616 0.76700002 8882567
0.060866669 0.088733338 0.77000004 8750979
0.062495239 0.088963814 0.77200001 8750975
0.064048581 0.089079052 0.77300006 8816508
0.065859996 0.089539997 0.77700001 7764601
0.067513339 0.089770481 0.77900004 6779758
0.069262862 0.090116195 0.78200006 6906211
0.07075239 0.090116195 0.78200006 7107955
0.07224191 0.090116195 0.78200006 8292996
-0.02971524 0.08914572 0.76100004 11056066
-0.028228572 0.089028575 0.76000005 12968429
-0.026710477 0.088794284 0.75800002 14936040
-0.0252 0.088560008 0.75600004 14671588
-0.023728572 0.088442862 0.75500005 14409191
-0.022231428 0.088208571 0.75300002 14673386
-0.020769523 0.088091433 0.75200003 14936301
-0.019234287 0.087622859 0.74800003 14936560
-0.017738096 0.087271437 0.74500006 15002096
-0.016253335 0.086920008 0.74200004 15002097
-0.0148 0.086685717 0.74000001 15067892
-0.013390477 0.086685717 0.74000001 15133431
-0.011964763 0.086568572 0.73900002 15198936
-0.010557143 0.086568572 0.73900002 12433337
-0.0091619045 0.086685717 0.74000001 9602475
-0.0077523813 0.086685717 0.74000001 10000541
-0.0063428571 0.086685717 0.74000001 10396817
0.018745715 0.085397147 0.72900003 9153185
0.020134287 0.085397147 0.72900003 10473158
0.021522857 0.085397147 0.72900003 11844029
0.022974286 0.08563143 0.73100001 11315380
0.024366667 0.08563143 0.73100001 10856368
0.025759049 0.08563143 0.73100001 10659244
0.027151428 0.08563143 0.73100001 10462121
0.02858286 0.085748576 0.73200005 10396071
0.029977145 0.085748576 0.73200005 10396069
0.031457145 0.085982859 0.73400003 10264995
0.032944765 0.08621715 0.73600006 10199456
0.034393337 0.086334296 0.73700005 10067614
0.035797145 0.086334296 0.73700005 9936281
0.037301905 0.086568572 0.73900002 9870229
0.038761906 0.086685717 0.74000001 9804181
0.040280003 0.086920008 0.74200004 9672597
0.041749526 0.087037146 0.74300003 9605779
0.043280955 0.087271437 0.74500006 9474962
0.044879999 0.087622859 0.74800003 9344147
0.046428576 0.08785715 0.75000006 9147028
0.047857147 0.08785715 0.75000006 8950173
0.049482856 0.088208571 0.75300002 9409447
0.051052384 0.088442862 0.75500005 9869212
0.052560002 0.088560008 0.75600004 9605777
0.054285716 0.089028575 0.76000005 9277326
0.05580667 0.08914572 0.76100004 9145484
0.057406668 0.089379996 0.76300001 9013642
0.059245713 0.089965716 0.76800001 8882312
0.060866669 0.090200007 0.77000004 8750468
0.062495239 0.090434283 0.77200001 8816512
0.064048581 0.090551436 0.77300006 8882813
0.065859996 0.091019996 0.77700001 7698298
0.067340001 0.091019996 0.77700001 6582386
0.068997145 0.091254294 0.77900004 6840426
0.070480958 0.091254294 0.77900004 7107959
0.071964763 0.091254294 0.77900004 8293252
-0.02971524 0.090595245 0.76100004 11645634
-0.028228572 0.0904762 0.76000005 13295339
-0.026710477 0.090238094 0.75800002 14933735
-0.025266668 0.090238094 0.75800002 14671588
-0.023728572 0.089880958 0.75500005 14409703
-0.022290478 0.089880958 0.75500005 14673642
-0.020659048 0.089047618 0.74800003 14936301
-0.019208571 0.08892858 0.74700004 15002096
-0.017690476 0.088452376 0.74300003 15067889
-0.016209524 0.08809524 0.74000001 15068146
-0.0148 0.08809524 0.74000001 15133941
-0.013372381 0.087976187 0.73900002 15201273
-0.011964763 0.087976187 0.73900002 15330775
-0.010557143 0.087976187 0.73900002 12432822
-0.0091495244 0.087976187 0.73900002 9603493
-0.0077733337 0.088333338 0.74200004 9999509
-0.0063600005 0.088333338 0.74200004 10392206
-0.0049666674 0.088690482 0.74500006 8884359
-0.0035857144 0.089642853 0.75300002 7370351
-0.0021514287 0.089642853 0.75300002 6707542
-0.00071714289 0.089642853 0.75300002 6119770
0.018745715 0.086785719 0.72900003 9418672
0.020134287 0.086785719 0.72900003 10604233
0.021522857 0.086785719 0.72900003 11843262
0.022911429 0.086785719 0.72900003 11381170
0.024366667 0.08702381 0.73100001 10921903
0.025759049 0.08702381 0.73100001 10659501
0.027151428 0.08702381 0.73100001 10396586
0.02858286 0.087142862 0.73200005 10396328
0.029977145 0.087142862 0.73200005 10395813
0.031457145 0.087380953 0.73400003 10264483
