# .PCD v0.7 - Point Cloud Data file format
VERSION 0.7
FIELDS x y z rgba
SIZE 4 4 4 4
TYPE F F F U
COUNT 1 1 1 1
WIDTH 1089
HEIGHT 1
VIEWPOINT 0 0 0 1 0 0 0
POINTS 1089
DATA ascii
-0.069853343 0.0053733336 0.80600005 13093593
-0.068318099 0.0053733336 0.80600005 12896723
-0.066782854 0.0053733336 0.80600005 12831182
-0.065247618 0.0053733336 0.80600005 12700365
-0.063712381 0.0053733336 0.80600005 12765901
-0.062331434 0.0053866669 0.80800003 12831426
-0.060792383 0.0053866669 0.80800003 11452343
-0.059253335 0.0053866669 0.80800003 10128998
-0.057714287 0.0053866669 0.80800003 5982230
-0.034242857 0.0051000006 0.76500005 4129104
-0.032699998 0.0050866669 0.76300001 6190740
-0.03132857 0.0051000006 0.76500005 10737625
-0.029793333 0.0050866669 0.76300001 15202021
-0.028339999 0.0050866669 0.76300001 14871537
-0.026816191 0.0050733336 0.76100004 14541291
-0.025333336 0.0050666668 0.76000005 14343654
-0.023822857 0.0050533335 0.75800002 14146530
-0.02232 0.0050400002 0.75600004 14015454
-0.020852383 0.0050333338 0.75500005 13884640
-0.019362858 0.00502 0.75300002 13950179
-0.017904762 0.0050133336 0.75200003 13950179
-0.016472382 0.0050133336 0.75200003 14015459
-0.015000001 0.0050000004 0.75000006 14146534
-0.013571429 0.0050000004 0.75000006 14015466
-0.012110476 0.0049866666 0.74800003 13950181
-0.010685714 0.0049866666 0.74800003 13884128
-0.0092485715 0.0049800002 0.74700004 13884128
-0.0078047626 0.0049666674 0.74500006 13818336
-0.0063857147 0.0049666674 0.74500006 13752799
-0.0049666674 0.0049666674 0.74500006 13818334
-0.0035380954 0.0049533336 0.74300003 13884122
-0.0021228571 0.0049533336 0.74300003 13620694
-0.00070761907 0.0049533336 0.74300003 13423061
0.00070761907 0.0049533336 0.74300003 12894421
0.0021200001 0.0049466668 0.74200004 12369619
0.0035238096 0.0049333335 0.74000001 12767442
0.0049333335 0.0049333335 0.74000001 13226963
0.0063428571 0.0049333335 0.74000001 13292245
0.0077419053 0.0049266671 0.73900002 13291730
0.0091495244 0.0049266671 0.73900002 13357263
0.010557143 0.0049266671 0.73900002 13358545
0.011964763 0.0049266671 0.73900002 12505812
0.013372381 0.0049266671 0.73900002 11647403
0.01478 0.0049266671 0.73900002 9010562
0.016187619 0.0049266671 0.73900002 6387085
0.017595239 0.0049266671 0.73900002 7308440
0.018951431 0.0049133338 0.73700005 8227481
0.02035524 0.0049133338 0.73700005 8032154
0.02175905 0.0049133338 0.73700005 7900299
0.023162859 0.0049133338 0.73700005 7568253
0.024566669 0.0049133338 0.73700005 7239806
0.025970478 0.0049133338 0.73700005 7174527
0.027374288 0.0049133338 0.73700005 7108989
0.028778099 0.0049133338 0.73700005 7043452
0.030181907 0.0049133338 0.73700005 7043446
0.031671431 0.0049266671 0.73900002 7043697
0.03307905 0.0049266671 0.73900002 7043960
0.03448667 0.0049266671 0.73900002 6912639
0.03589429 0.0049266671 0.73900002 6846845
0.037301905 0.0049266671 0.73900002 6978427
0.038709525 0.0049266671 0.73900002 7175291
0.04017143 0.0049333335 0.74000001 7175547
0.041693337 0.0049466668 0.74200004 7241338
0.043106668 0.0049466668 0.74200004 7240569
0.044520002 0.0049466668 0.74200004 7309459
0.045995239 0.0049533336 0.74300003 9020590
0.047410477 0.0049533336 0.74300003 10726832
0.048760001 0.0049466668 0.74200004 10660531
0.050173335 0.0049466668 0.74200004 10593453
0.051586669 0.0049466668 0.74200004 10462120
0.052999999 0.0049466668 0.74200004 10396583
0.05448667 0.0049533336 0.74300003 10265510
0.055901907 0.0049533336 0.74300003 10199971
0.057317145 0.0049533336 0.74300003 10134176
0.058890481 0.0049666674 0.74500006 10133919
0.060309529 0.0049666674 0.74500006 10002334
0.061728574 0.0049666674 0.74500006 9936027
0.063317142 0.0049800002 0.74700004 9870232
0.064826667 0.0049866666 0.74800003 9738645
0.066251434 0.0049866666 0.74800003 9607059
0.067857146 0.0050000004 0.75000006 9475728
0.069470473 0.0050133336 0.75200003 9409678
0.070902862 0.0050133336 0.75200003 9277580
0.07243143 0.00502 0.75300002 9211531
0.074061908 0.0050333338 0.75500005 9079685
0.075500011 0.0050333338 0.75500005 8948352
0.077243812 0.0050533335 0.75800002 8750722
0.078687623 0.0050533335 0.75800002 8553348
0.080342866 0.0050666668 0.76000005 8355454
0.081898101 0.0050733336 0.76100004 8224121
0.08378572 0.0051000006 0.76500005 8092537
0.085577145 0.0051199999 0.76800001 7697274
0.087493338 0.0051466669 0.77200001 7236722
0.088733338 0.0051333336 0.77000004 8553322
0.090434283 0.0051466669 0.77200001 9801335
0.092023812 0.0051533333 0.77300006 9935236
0.093375236 0.0051466669 0.77200001 10067083
0.09496858 0.0051533333 0.77300006 10197651
0.096440956 0.0051533333 0.77300006 10262938
-0.084500946 0.0069771428 0.81400001 1379921
-0.082950473 0.0069771428 0.81400001 4656756
-0.081 0.0069428575 0.81000006 7971248
-0.079457149 0.0069428575 0.81000006 11198189
-0.07791429 0.0069428575 0.81000006 14474472
-0.076182857 0.0069257147 0.80800003 14080739
-0.074459054 0.0069085718 0.80600005 13752032
-0.072923817 0.0069085718 0.80600005 13554909
-0.07138858 0.0069085718 0.80600005 13423579
-0.069853343 0.0069085718 0.80600005 13159897
-0.068318099 0.0069085718 0.80600005 12962772
-0.066782854 0.0069085718 0.80600005 12831439
-0.065247618 0.0069085718 0.80600005 12765646
-0.063712381 0.0069085718 0.80600005 12830925
-0.062331434 0.0069257147 0.80800003 12896964
-0.060641907 0.0069085718 0.80600005 11649467
-0.059253335 0.0069257147 0.80800003 10392679
-0.057714287 0.0069257147 0.80800003 5850132
-0.034242857 0.0065571428 0.76500005 4391526
-0.032699998 0.00654 0.76300001 7046820
-0.031246668 0.00654 0.76300001 11198690
-0.029793333 0.00654 0.76300001 15333355
-0.028265715 0.0065228576 0.76100004 14871027
-0.026816191 0.0065228576 0.76100004 14409965
-0.025333336 0.0065142862 0.76000005 14278119
-0.023822857 0.0064971428 0.75800002 14146790
-0.02232 0.0064800004 0.75600004 14015717
-0.020852383 0.006471429 0.75500005 13884644
-0.019362858 0.0064542862 0.75300002 13950180
-0.017904762 0.0064457143 0.75200003 14015714
-0.016428573 0.0064285719 0.75000006 14146785
-0.015000001 0.0064285719 0.75000006 14277859
-0.013571429 0.0064285719 0.75000006 14146788
-0.012110476 0.006411429 0.74800003 14015457
-0.010671429 0.0064028576 0.74700004 13949919
-0.0092485715 0.0064028576 0.74700004 13884127
-0.0078047626 0.0063857147 0.74500006 13818335
-0.0063857147 0.0063857147 0.74500006 13752798
-0.0049666674 0.0063857147 0.74500006 13752797
-0.0035380954 0.0063685714 0.74300003 13752539
-0.0021228571 0.0063685714 0.74300003 13555929
-0.00070761907 0.0063685714 0.74300003 13357781
0.00070666667 0.0063600005 0.74200004 12959697
0.0021200001 0.0063600005 0.74200004 12566737
0.0035238096 0.0063428571 0.74000001 12898770
0.0049333335 0.0063428571 0.74000001 13292500
0.0063342857 0.0063342857 0.73900002 13292501
0.0077419053 0.0063342857 0.73900002 13291731
0.0091495244 0.0063342857 0.73900002 13357777
0.010557143 0.0063342857 0.73900002 13489359
0.011964763 0.0063342857 0.73900002 12374989
0.013372381 0.0063342857 0.73900002 11317159
0.01478 0.0063342857 0.73900002 8877697
0.016187619 0.0063342857 0.73900002 6453131
0.017595239 0.0063342857 0.73900002 7439510
0.019002859 0.0063342857 0.73900002 8423579
0.02035524 0.0063171433 0.73700005 8163232
0.02175905 0.0063171433 0.73700005 7900045
0.023162859 0.0063171433 0.73700005 7568251
0.024566669 0.0063171433 0.73700005 7240062
0.025970478 0.0063171433 0.73700005 7174786
0.027374288 0.0063171433 0.73700005 7108991
0.028778099 0.0063171433 0.73700005 7043453
0.030181907 0.0063171433 0.73700005 7043450
0.031585716 0.0063171433 0.73700005 6978422
0.03307905 0.0063342857 0.73900002 6978171
0.03448667 0.0063342857 0.73900002 6912641
0.03589429 0.0063342857 0.73900002 6912638
0.037301905 0.0063342857 0.73900002 7043964
0.038709525 0.0063342857 0.73900002 7175293
0.04017143 0.0063428571 0.74000001 7175805
0.041580953 0.0063428571 0.74000001 7240829
0.042990476 0.0063428571 0.74000001 7306109
0.044520002 0.0063600005 0.74200004 7442327
0.045995239 0.0063685714 0.74300003 9086897
0.04734667 0.0063600005 0.74200004 10792367
0.048760001 0.0063600005 0.74200004 10725806
0.050173335 0.0063600005 0.74200004 10724778
0.051586669 0.0063600005 0.74200004 10527654
0.052999999 0.0063600005 0.74200004 10396582
0.05448667 0.0063685714 0.74300003 10265509
0.055901907 0.0063685714 0.74300003 10199972
0.057317145 0.0063685714 0.74300003 10134434
0.058732383 0.0063685714 0.74300003 10133665
0.060309529 0.0063857147 0.74500006 10067872
0.061728574 0.0063857147 0.74500006 10001820
0.063317142 0.0064028576 0.74700004 9870489
0.064826667 0.006411429 0.74800003 9804183
0.066251434 0.006411429 0.74800003 9607573
0.067857146 0.0064285719 0.75000006 9475473
0.069285721 0.0064285719 0.75000006 9409678
0.070902862 0.0064457143 0.75200003 9343371
0.072335243 0.0064457143 0.75200003 9211528
0.073865719 0.0064542862 0.75300002 9079685
0.075300001 0.0064542862 0.75300002 8882819
0.077040002 0.0064800004 0.75600004 8750722
0.078687623 0.0064971428 0.75800002 8553090
0.080342866 0.0065142862 0.76000005 8355708
0.082113333 0.00654 0.76300001 8224118
0.08378572 0.0065571428 0.76500005 8092529
0.085577145 0.0065828571 0.76800001 7501164
0.087266669 0.0066000004 0.77000004 6975086
0.088502854 0.0065828571 0.76800001 8158321
0.090434283 0.0066171428 0.77200001 9407608
0.092023812 0.0066257147 0.77300006 9607040
0.093375236 0.0066171428 0.77200001 9803400
0.09484572 0.0066171428 0.77200001 9868688
0.096440956 0.0066257147 0.77300006 9999765
-0.082950473 0.0085276198 0.81400001 5515644
-0.081200004 0.0085066669 0.81200004 8100788
-0.079457149 0.0084857149 0.81000006 11263212
-0.07791429 0.0084857149 0.81000006 14476518
-0.076182857 0.008464762 0.80800003 14146272
-0.074459054 0.00844381 0.80600005 13817822
-0.072923817 0.00844381 0.80600005 13686492
-0.07138858 0.00844381 0.80600005 13489882
-0.069853343 0.00844381 0.80600005 13225689
-0.068318099 0.00844381 0.80600005 12963284
-0.066782854 0.00844381 0.80600005 12897744
-0.065247618 0.00844381 0.80600005 12832207
-0.063712381 0.00844381 0.80600005 12897486
-0.062177144 0.00844381 0.80600005 12962758
-0.060641907 0.00844381 0.80600005 11846847
-0.05910667 0.00844381 0.80600005 10722153
-0.057571433 0.00844381 0.80600005 6048275
-0.032699998 0.007993333 0.76300001 7706292
-0.031246668 0.007993333 0.76300001 11461868
-0.029793333 0.007993333 0.76300001 15268081
-0.028265715 0.0079723811 0.76100004 14804982
-0.026780955 0.0079619056 0.76000005 14344175
-0.025333336 0.0079619056 0.76000005 14212584
-0.023822857 0.0079409527 0.75800002 14147050
-0.02232 0.0079199998 0.75600004 14015724
-0.020852383 0.0079095243 0.75500005 13950184
-0.019362858 0.0078885714 0.75300002 13949925
-0.017904762 0.0078780958 0.75200003 13949922
-0.016472382 0.0078780958 0.75200003 14015712
-0.015000001 0.0078571439 0.75000006 14146783
-0.013571429 0.0078571439 0.75000006 14015711
-0.012110476 0.007836191 0.74800003 13949918
-0.010671429 0.0078257145 0.74700004 13884126
-0.0092485715 0.0078257145 0.74700004 13818590
-0.0078047626 0.0078047626 0.74500006 13752542
-0.0063857147 0.0078047626 0.74500006 13752541
-0.0049666674 0.0078047626 0.74500006 13687004
-0.0035380954 0.0077838097 0.74300003 13688028
-0.0021228571 0.0077838097 0.74300003 13489884
-0.00070761907 0.0077838097 0.74300003 13292500
0.00070761907 0.0077838097 0.74300003 12894413
0.0021200001 0.0077733337 0.74200004 12567504
0.0035238096 0.0077523813 0.74000001 12898771
0.0049333335 0.0077523813 0.74000001 13226964
0.0063342857 0.0077419053 0.73900002 13226710
0.0077419053 0.0077419053 0.73900002 13226197
0.0091495244 0.0077419053 0.73900002 13357524
0.010557143 0.0077419053 0.73900002 13424333
0.011964763 0.0077419053 0.73900002 12177350
0.013372381 0.0077419053 0.73900002 10921635
0.01478 0.0077419053 0.73900002 8614272
0.016187619 0.0077419053 0.73900002 6322570
0.017595239 0.0077419053 0.73900002 7242901
0.019002859 0.0077419053 0.73900002 8226717
0.02035524 0.0077209529 0.73700005 7966886
0.02175905 0.0077209529 0.73700005 7768719
0.023162859 0.0077209529 0.73700005 7502713
0.024566669 0.0077209529 0.73700005 7240063
0.025970478 0.0077209529 0.73700005 7174789
0.027374288 0.0077209529 0.73700005 7109250
0.028778099 0.0077209529 0.73700005 7043455
0.030181907 0.0077209529 0.73700005 7043453
0.031585716 0.0077209529 0.73700005 6912380
0.032989528 0.0077209529 0.73700005 6847103
0.034393337 0.0077209529 0.73700005 6912643
0.03589429 0.0077419053 0.73900002 6978176
0.037301905 0.0077419053 0.73900002 7043966
0.038709525 0.0077419053 0.73900002 7175551
0.040117145 0.0077419053 0.73900002 7044480
0.041580953 0.0077523813 0.74000001 6912641
0.042990476 0.0077523813 0.74000001 7240578
0.044399999 0.0077523813 0.74000001 7575195
0.045809526 0.0077523813 0.74000001 9152948
0.04734667 0.0077733337 0.74200004 10726831
0.048760001 0.0077733337 0.74200004 10660266
0.050038096 0.0077523813 0.74000001 10593959
0.051586669 0.0077733337 0.74200004 10527653
0.052999999 0.0077733337 0.74200004 10462373
0.05448667 0.0077838097 0.74300003 10330789
0.055901907 0.0077838097 0.74300003 10199717
0.057317145 0.0077838097 0.74300003 10133925
0.058732383 0.0077838097 0.74300003 10068131
0.060147621 0.0077838097 0.74300003 10002338
0.061728574 0.0078047626 0.74500006 9936542
0.063147627 0.0078047626 0.74500006 9870491
0.064740002 0.0078257145 0.74700004 9804185
0.066251434 0.007836191 0.74800003 9672855
0.067676194 0.007836191 0.74800003 9541010
0.069285721 0.0078571439 0.75000006 9409678
0.070714295 0.0078571439 0.75000006 9278090
0.072335243 0.0078780958 0.75200003 9145990
0.073767617 0.0078780958 0.75200003 9079942
0.075300001 0.0078885714 0.75300002 8882822
0.077040002 0.0079199998 0.75600004 8750723
0.078480005 0.0079199998 0.75600004 8553344
0.080342866 0.0079619056 0.76000005 8355962
0.082113333 0.007993333 0.76300001 8224372
0.083566666 0.007993333 0.76300001 8092777
0.085465722 0.0080352379 0.76700002 7697503
0.086926669 0.0080352379 0.76700002 7369067
0.088502854 0.0080457143 0.76800001 8422776
0.089965716 0.0080457143 0.76800001 9472890
0.091904759 0.0080876192 0.77200001 9606525
0.093375236 0.0080876192 0.77200001 9672581
0.09484572 0.0080876192 0.77200001 9737358
-0.082950473 0.010078095 0.81400001 6374526
-0.081 0.010028572 0.81000006 8297141
-0.079457149 0.010028572 0.81000006 11394028
-0.077721909 0.01000381 0.80800003 14475237
-0.076182857 0.01000381 0.80800003 14211807
-0.074459054 0.0099790478 0.80600005 13949149
-0.072923817 0.0099790478 0.80600005 13752539
-0.07138858 0.0099790478 0.80600005 13620954
-0.069853343 0.0099790478 0.80600005 13291481
-0.068318099 0.0099790478 0.80600005 13029077
-0.066782854 0.0099790478 0.80600005 12963536
-0.065247618 0.0099790478 0.80600005 12963536
-0.063712381 0.0099790478 0.80600005 12963792
-0.062177144 0.0099790478 0.80600005 13028809
-0.060641907 0.0099790478 0.80600005 12044482
-0.05910667 0.0099790478 0.80600005 11117426
-0.057571433 0.0099790478 0.80600005 6246434
-0.032699998 0.0094466675 0.76300001 8365755
-0.031246668 0.0094466675 0.76300001 11790577
-0.029793333 0.0094466675 0.76300001 15263472
-0.028265715 0.0094219055 0.76100004 14804463
-0.026816191 0.0094219055 0.76100004 14344171
-0.025333336 0.0094095245 0.76000005 14212839
-0.023822857 0.0093847616 0.75800002 14147048
-0.02232 0.0093600005 0.75600004 14081513
-0.020852383 0.0093476195 0.75500005 14081255
-0.019414287 0.0093476195 0.75500005 13949926
-0.017928572 0.0093228575 0.75300002 13884387
-0.016472382 0.0093104765 0.75200003 13950177
-0.015000001 0.0092857154 0.75000006 14081247
-0.013571429 0.0092857154 0.75000006 13950173
-0.012110476 0.0092609525 0.74800003 13884126
-0.010671429 0.0092485715 0.74700004 13818334
-0.0092485715 0.0092485715 0.74700004 13818077
-0.0078047626 0.0092238095 0.74500006 13752539
-0.0063857147 0.0092238095 0.74500006 13752539
-0.0049666674 0.0092238095 0.74500006 13687003
-0.0035380954 0.0091990475 0.74300003 13620955
-0.0021228571 0.0091990475 0.74300003 13423835
-0.00070761907 0.0091990475 0.74300003 13226449
0.00070666667 0.0091866674 0.74200004 12894919
0.0021200001 0.0091866674 0.74200004 12568013
0.0035238096 0.0091619045 0.74000001 12898771
0.0049333335 0.0091619045 0.74000001 13226453
0.0063342857 0.0091495244 0.73900002 13226455
0.0077419053 0.0091495244 0.73900002 13226455
0.0091495244 0.0091495244 0.73900002 13291990
0.010557143 0.0091495244 0.73900002 13424075
0.011964763 0.0091495244 0.73900002 11979968
0.013372381 0.0091495244 0.73900002 10593184
0.01478 0.0091495244 0.73900002 8416383
0.016187619 0.0091495244 0.73900002 6256776
0.01754762 0.0091247624 0.73700005 7111824
0.018951431 0.0091247624 0.73700005 8030866
0.02035524 0.0091247624 0.73700005 7836052
0.02175905 0.0091247624 0.73700005 7635848
0.023162859 0.0091247624 0.73700005 7437436
0.024566669 0.0091247624 0.73700005 7306110
0.025970478 0.0091247624 0.73700005 7240319
0.027374288 0.0091247624 0.73700005 7174782
0.028778099 0.0091247624 0.73700005 7108990
0.030181907 0.0091247624 0.73700005 7043452
0.031585716 0.0091247624 0.73700005 6912123
0.03307905 0.0091495244 0.73900002 6781308
0.03448667 0.0091495244 0.73900002 6912638
0.03589429 0.0091495244 0.73900002 7043965
0.037301905 0.0091495244 0.73900002 7109757
0.038709525 0.0091495244 0.73900002 7175552
0.040117145 0.0091495244 0.73900002 6913411
0.041580953 0.0091619045 0.74000001 6650501
0.042990476 0.0091619045 0.74000001 7175303
0.044399999 0.0091619045 0.74000001 7706012
0.045809526 0.0091619045 0.74000001 9153458
0.047219049 0.0091619045 0.74000001 10660784
0.048628572 0.0091619045 0.74000001 10594734
0.050038096 0.0091619045 0.74000001 10528425
0.051447619 0.0091619045 0.74000001 10527908
0.052999999 0.0091866674 0.74200004 10527652
0.05448667 0.0091990475 0.74300003 10330788
0.055901907 0.0091990475 0.74300003 10199716
0.057317145 0.0091990475 0.74300003 10133925
0.058732383 0.0091990475 0.74300003 10068133
0.060309529 0.0092238095 0.74500006 10002341
0.061728574 0.0092238095 0.74500006 9936544
0.063147627 0.0092238095 0.74500006 9870492
0.064740002 0.0092485715 0.74700004 9804186
0.066251434 0.0092609525 0.74800003 9672855
0.067676194 0.0092609525 0.74800003 9606547
0.069285721 0.0092857154 0.75000006 9409935
0.070714295 0.0092857154 0.75000006 9277835
0.072335243 0.0093104765 0.75200003 9146247
0.073865719 0.0093228575 0.75300002 9079941
0.075300001 0.0093228575 0.75300002 8883075
0.077040002 0.0093600005 0.75600004 8750720
0.078687623 0.0093847616 0.75800002 8553854
0.080342866 0.0094095245 0.76000005 8421241
0.08232858 0.0094714295 0.76500005 8290165
0.08400476 0.0094961906 0.76700002 8158064
0.085465722 0.0094961906 0.76700002 7959404
0.086926669 0.0094961906 0.76700002 7763059
0.088502854 0.0095085716 0.76800001 8687226
0.090200007 0.0095333336 0.77000004 9605245
0.091666676 0.0095333336 0.77000004 9606016
0.093375236 0.0095580956 0.77200001 9606022
0.09484572 0.0095580956 0.77200001 9671820
-0.08274667 0.0116 0.81200004 4924289
-0.081 0.011571429 0.81000006 6789814
-0.07926096 0.011542858 0.80800003 10671852
-0.077721909 0.011542858 0.80800003 14476261
-0.076182857 0.011542858 0.80800003 14146527
-0.074459054 0.011514287 0.80600005 13883869
-0.072923817 0.011514287 0.80600005 13752539
-0.071211427 0.011485714 0.80400002 13621210
-0.069853343 0.011514287 0.80600005 13423066
-0.068318099 0.011514287 0.80600005 13160661
-0.066782854 0.011514287 0.80600005 13094865
-0.065085717 0.011485714 0.80400002 13094866
-0.063712381 0.011514287 0.80600005 13094867
-0.062177144 0.011514287 0.80600005 13094860
-0.060641907 0.011514287 0.80600005 12372934
-0.05910667 0.011514287 0.80600005 11643771
-0.057571433 0.011514287 0.80600005 6840113
-0.034153335 0.010899999 0.76300001 5127824
-0.032699998 0.010899999 0.76300001 9549763
-0.031246668 0.010899999 0.76300001 12381687
-0.029793333 0.010899999 0.76300001 15199728
-0.028265715 0.010871429 0.76100004 14738665
-0.026780955 0.010857143 0.76000005 14344424
-0.025266668 0.010828571 0.75800002 14212839
-0.023760002 0.0108 0.75600004 14146791
-0.02232 0.0108 0.75600004 14081255
-0.020852383 0.010785715 0.75500005 14015719
-0.019414287 0.010785715 0.75500005 13949927
-0.017928572 0.010757143 0.75300002 13884389
-0.016472382 0.010742858 0.75200003 13950179
-0.015000001 0.010714287 0.75000006 14015967
-0.013571429 0.010714287 0.75000006 13949916
-0.012094286 0.010671429 0.74700004 13949149
-0.010642858 0.010642858 0.74500006 13818079
-0.0092238095 0.010642858 0.74500006 13752540
-0.0078047626 0.010642858 0.74500006 13752537
-0.0063857147 0.010642858 0.74500006 13752538
-0.0049533336 0.010614286 0.74300003 13686747
-0.0035380954 0.010614286 0.74300003 13620186
-0.0021228571 0.010614286 0.74300003 13358042
-0.00070761907 0.010614286 0.74300003 13160654
0.00070666667 0.010600001 0.74200004 12961218
0.0021200001 0.010600001 0.74200004 12765131
0.0035238096 0.010571429 0.74000001 12964308
0.0049333335 0.010571429 0.74000001 13226710
0.0063342857 0.010557143 0.73900002 13226457
0.0077419053 0.010557143 0.73900002 13226457
0.0091495244 0.010557143 0.73900002 13292249
0.010557143 0.010557143 0.73900002 13424074
0.011964763 0.010557143 0.73900002 11848123
0.013372381 0.010557143 0.73900002 10264733
0.01478 0.010557143 0.73900002 8351615
0.016187619 0.010557143 0.73900002 6387845
0.017595239 0.010557143 0.73900002 7111308
0.019002859 0.010557143 0.73900002 7835271
0.020410476 0.010557143 0.73900002 7637635
0.021818096 0.010557143 0.73900002 7437697
0.023225715 0.010557143 0.73900002 7306368
0.024566669 0.010528572 0.73700005 7240829
0.025970478 0.010528572 0.73700005 7175034
0.027374288 0.010528572 0.73700005 7109499
0.028778099 0.010528572 0.73700005 7043709
0.030181907 0.010528572 0.73700005 7043707
0.031585716 0.010528572 0.73700005 6912378
0.032989528 0.010528572 0.73700005 6846842
0.03448667 0.010557143 0.73900002 6912634
0.03589429 0.010557143 0.73900002 7044475
0.037301905 0.010557143 0.73900002 7109756
0.038709525 0.010557143 0.73900002 7175553
0.040117145 0.010557143 0.73900002 7109766
0.041580953 0.010571429 0.74000001 6978185
0.042932384 0.010557143 0.73900002 7438221
0.044340003 0.010557143 0.73900002 7902622
0.045809526 0.010571429 0.74000001 9285040
0.047219049 0.010571429 0.74000001 10660785
0.048628572 0.010571429 0.74000001 10594226
0.050038096 0.010571429 0.74000001 10463147
0.051447619 0.010571429 0.74000001 10462372
0.052999999 0.010600001 0.74200004 10461860
0.05448667 0.010614286 0.74300003 10330788
0.055901907 0.010614286 0.74300003 10199716
0.057317145 0.010614286 0.74300003 10133925
0.058732383 0.010614286 0.74300003 10068390
0.060309529 0.010642858 0.74500006 10002600
0.061728574 0.010642858 0.74500006 9936547
0.063147627 0.010642858 0.74500006 9804702
0.064740002 0.010671429 0.74700004 9738651
0.066251434 0.010685714 0.74800003 9607064
0.067676194 0.010685714 0.74800003 9541012
0.069285721 0.010714287 0.75000006 9343889
0.070714295 0.010714287 0.75000006 9212300
0.072335243 0.010742858 0.75200003 9146248
0.073865719 0.010757143 0.75300002 9080196
0.075300001 0.010757143 0.75300002 8882816
0.077040002 0.0108 0.75600004 8750974
0.078895241 0.010857143 0.76000005 8553340
0.080448568 0.010871429 0.76100004 8421241
0.08232858 0.010928571 0.76500005 8158838
0.08400476 0.010957143 0.76700002 7961464
0.085465722 0.010957143 0.76700002 7828346
0.08704 0.010971429 0.76800001 7763835
0.088502854 0.010971429 0.76800001 8687228
0.089965716 0.010971429 0.76800001 9671552
0.091666676 0.011 0.77000004 9671556
0.093133338 0.011 0.77000004 9606535
0.09484572 0.011028571 0.77200001 9671562
-0.082339048 0.013081905 0.80800003 3473998
-0.080600001 0.013049524 0.80600005 5342877
-0.079064764 0.013049524 0.80600005 9949676
-0.077529527 0.013049524 0.80600005 14543079
-0.07599429 0.013049524 0.80600005 14147043
-0.074459054 0.013049524 0.80600005 13817824
-0.072923817 0.013049524 0.80600005 13752797
-0.07138858 0.013049524 0.80600005 13686235
-0.069853343 0.013049524 0.80600005 13489370
-0.068318099 0.013049524 0.80600005 13357270
-0.066617139 0.013017143 0.80400002 13291731
-0.065085717 0.013017143 0.80400002 13225938
-0.063712381 0.013049524 0.80600005 13225681
-0.062177144 0.013049524 0.80600005 13225679
-0.060641907 0.013049524 0.80600005 12701390
-0.05910667 0.013049524 0.80600005 12170630
-0.057571433 0.013049524 0.80600005 7368510
-0.034153335 0.012353334 0.76300001 5460128
-0.032614287 0.012320952 0.76100004 10734028
-0.031246668 0.012353334 0.76300001 12907257
-0.029793333 0.012353334 0.76300001 15133681
-0.028265715 0.012320952 0.76100004 14738409
-0.026780955 0.012304762 0.76000005 14409959
-0.025266668 0.012272381 0.75800002 14278630
-0.023760002 0.012240001 0.75600004 14147046
-0.02232 0.012240001 0.75600004 14015973
-0.020880001 0.012240001 0.75600004 13950180
-0.019414287 0.01222381 0.75500005 13884387
-0.017928572 0.012191429 0.75300002 13884387
-0.016472382 0.012175239 0.75200003 13884643
-0.015000001 0.012142858 0.75000006 13949921
-0.013571429 0.012142858 0.75000006 13949663
-0.012110476 0.012110476 0.74800003 14014944
-0.010671429 0.012094286 0.74700004 13883874
-0.0092485715 0.012094286 0.74700004 13752543
-0.0078047626 0.012061905 0.74500006 13752284
-0.0063857147 0.012061905 0.74500006 13752028
-0.0049533336 0.012029524 0.74300003 13686491
-0.0035380954 0.012029524 0.74300003 13685978
-0.0021228571 0.012029524 0.74300003 13358041
-0.00070761907 0.012029524 0.74300003 13094097
0.00070666667 0.012013334 0.74200004 13027530
0.0021200001 0.012013334 0.74200004 12962767
0.0035333335 0.012013334 0.74200004 13095637
0.0049333335 0.011980952 0.74000001 13292248
0.0063342857 0.011964763 0.73900002 13226971
0.0077419053 0.011964763 0.73900002 13226970
0.0091495244 0.011964763 0.73900002 13292506
0.010557143 0.011964763 0.73900002 13424073
0.011964763 0.011964763 0.73900002 11716280
0.013372381 0.011964763 0.73900002 9999768
0.01478 0.011964763 0.73900002 8287097
0.016187619 0.011964763 0.73900002 6584448
0.017595239 0.011964763 0.73900002 7111047
0.019002859 0.011964763 0.73900002 7635587
0.020410476 0.011964763 0.73900002 7439488
0.021818096 0.011964763 0.73900002 7240829
0.023225715 0.011964763 0.73900002 7240570
0.024566669 0.011932382 0.73700005 7240825
0.025970478 0.011932382 0.73700005 7109753
0.027374288 0.011932382 0.73700005 7043961
0.028778099 0.011932382 0.73700005 7043962
0.030181907 0.011932382 0.73700005 7043703
0.031585716 0.011932382 0.73700005 6978163
0.032989528 0.011932382 0.73700005 6977910
0.034393337 0.011932382 0.73700005 6978426
0.03589429 0.011964763 0.73900002 7043962
0.037301905 0.011964763 0.73900002 7109755
0.038709525 0.011964763 0.73900002 7240832
0.040117145 0.011964763 0.73900002 7306373
0.041580953 0.011980952 0.74000001 7371142
0.042932384 0.011964763 0.73900002 7766919
0.044340003 0.011964763 0.73900002 8165530
0.045747619 0.011964763 0.73900002 9416622
0.047219049 0.011980952 0.74000001 10726317
0.048562858 0.011964763 0.73900002 10593965
0.049970478 0.011964763 0.73900002 10462631
0.051447619 0.011980952 0.74000001 10462626
0.052999999 0.012013334 0.74200004 10462113
0.054413334 0.012013334 0.74200004 10330785
0.055826671 0.012013334 0.74200004 10265249
0.057317145 0.012029524 0.74300003 10199714
0.058732383 0.012029524 0.74300003 10133922
0.060309529 0.012061905 0.74500006 10002851
0.061728574 0.012061905 0.74500006 9936287
0.063147627 0.012061905 0.74500006 9804700
0.064740002 0.012094286 0.74700004 9738394
0.066251434 0.012110476 0.74800003 9606808
0.067676194 0.012110476 0.74800003 9475221
0.069285721 0.012142858 0.75000006 9343633
0.070714295 0.012142858 0.75000006 9212301
0.072335243 0.012175239 0.75200003 9146250
0.073767617 0.012175239 0.75200003 9079941
0.075300001 0.012191429 0.75300002 8882817
0.077040002 0.012240001 0.75600004 8750973
0.078895241 0.012304762 0.76000005 8553082
0.080342866 0.012304762 0.76000005 8421239
0.082113333 0.012353334 0.76300001 8093044
0.08378572 0.012385715 0.76500005 7764851
0.08524286 0.012385715 0.76500005 7763059
0.08704 0.012434285 0.76800001 7763578
0.088387616 0.012418096 0.76700002 8752769
0.089848571 0.012418096 0.76700002 9802626
0.091309525 0.012418096 0.76700002 9737092
0.093133338 0.012466667 0.77000004 9671301
-0.080800004 0.014620952 0.80800003 4748164
-0.079064764 0.014584763 0.80600005 9620205
-0.077529527 0.014584763 0.80600005 14544362
-0.07599429 0.014584763 0.80600005 14147559
-0.074459054 0.014584763 0.80600005 13752035
-0.072923817 0.014584763 0.80600005 13686239
-0.07138858 0.014584763 0.80600005 13620444
-0.069853343 0.014584763 0.80600005 13489114
-0.068148568 0.014548571 0.80400002 13357528
-0.066617139 0.014548571 0.80400002 13291990
-0.065085717 0.014548571 0.80400002 13226451
-0.063712381 0.014584763 0.80600005 13226192
-0.062177144 0.014584763 0.80600005 13160403
-0.060641907 0.014584763 0.80600005 12897494
-0.05910667 0.014584763 0.80600005 12631952
-0.057571433 0.014584763 0.80600005 8159051
-0.035513334 0.013770477 0.76100004 328817
-0.034063812 0.013770477 0.76100004 6122928
-0.032614287 0.013770477 0.76100004 11918293
-0.031246668 0.013806666 0.76300001 13497083
-0.029793333 0.013806666 0.76300001 15133426
-0.028265715 0.013770477 0.76100004 14738153
-0.026780955 0.013752381 0.76000005 14344423
-0.025266668 0.013716191 0.75800002 14278374
-0.023760002 0.01368 0.75600004 14147301
-0.02232 0.01368 0.75600004 14015716
-0.020880001 0.01368 0.75600004 13950177
-0.019414287 0.013661906 0.75500005 13949919
-0.017928572 0.013625714 0.75300002 13950177
-0.016472382 0.01360762 0.75200003 13950179
-0.015000001 0.013571429 0.75000006 13949922
-0.013571429 0.013571429 0.75000006 13884130
-0.012094286 0.013517143 0.74700004 13884131
-0.010671429 0.013517143 0.74700004 13818341
-0.0092485715 0.013517143 0.74700004 13752546
-0.0078047626 0.013480954 0.74500006 13752288
-0.0063857147 0.013480954 0.74500006 13752030
-0.0049533336 0.013444763 0.74300003 13752540
-0.0035380954 0.013444763 0.74300003 13818842
-0.0021228571 0.013444763 0.74300003 13291480
-0.00070761907 0.013444763 0.74300003 12831189
0.00070666667 0.013426667 0.74200004 12962514
0.0021200001 0.013426667 0.74200004 13094868
0.0035238096 0.013390477 0.74000001 13160918
0.0049333335 0.013390477 0.74000001 13292250
0.0063342857 0.013372381 0.73900002 13292254
0.0077419053 0.013372381 0.73900002 13292252
0.0091495244 0.013372381 0.73900002 13358043
0.010557143 0.013372381 0.73900002 13358536
0.011964763 0.013372381 0.73900002 11452341
0.013372381 0.013372381 0.73900002 9472660
0.01478 0.013372381 0.73900002 8024435
0.016187619 0.013372381 0.73900002 6584698
0.017595239 0.013372381 0.73900002 6978434
0.019002859 0.013372381 0.73900002 7372416
0.020410476 0.013372381 0.73900002 7240830
0.021818096 0.013372381 0.73900002 7175033
0.023225715 0.013372381 0.73900002 7175028
0.024566669 0.013336192 0.73700005 7240822
0.025970478 0.013336192 0.73700005 7109752
0.027374288 0.013336192 0.73700005 7043960
0.028778099 0.013336192 0.73700005 7043960
0.030181907 0.013336192 0.73700005 6977906
0.031585716 0.013336192 0.73700005 6977901
0.032989528 0.013336192 0.73700005 6977907
0.034393337 0.013336192 0.73700005 6978170
0.035797145 0.013336192 0.73700005 7043962
0.037301905 0.013372381 0.73900002 7109755
0.038709525 0.013372381 0.73900002 7241344
0.040117145 0.013372381 0.73900002 7109509
0.041524764 0.013372381 0.73900002 7043203
0.042932384 0.013372381 0.73900002 7701634
0.044340003 0.013372381 0.73900002 8363159
0.045747619 0.013372381 0.73900002 9547692
0.047155239 0.013372381 0.73900002 10726570
0.048562858 0.013372381 0.73900002 10593960
0.050038096 0.013390477 0.74000001 10528164
0.051586669 0.013426667 0.74200004 10462625
0.052999999 0.013426667 0.74200004 10396831
0.05448667 0.013444763 0.74300003 10330782
0.055901907 0.013444763 0.74300003 10264991
0.057317145 0.013444763 0.74300003 10133920
0.058732383 0.013444763 0.74300003 10068639
0.060147621 0.013444763 0.74300003 10002590
0.061728574 0.013480954 0.74500006 9870748
0.063147627 0.013480954 0.74500006 9804699
0.064740002 0.013517143 0.74700004 9738394
0.066162854 0.013517143 0.74700004 9606809
0.067676194 0.013535239 0.74800003 9540757
0.069285721 0.013571429 0.75000006 9409426
0.070714295 0.013571429 0.75000006 9277839
0.072335243 0.01360762 0.75200003 9145996
0.073767617 0.01360762 0.75200003 9014407
0.075500011 0.013661906 0.75500005 8882818
0.077243812 0.013716191 0.75800002 8750973
0.078895241 0.013752381 0.76000005 8553592
0.080448568 0.013770477 0.76100004 8421493
0.082113333 0.013806666 0.76300001 8158579
0.08378572 0.013842857 0.76500005 7961711
0.08524286 0.013842857 0.76500005 7959916
0.086926669 0.013879048 0.76700002 8025465
0.088387616 0.013879048 0.76700002 8884615
0.089965716 0.013897142 0.76800001 9737349
0.09142857 0.013897142 0.76800001 9802628
-0.080600001 0.01612 0.80600005 4218491
-0.079064764 0.01612 0.80600005 9356252
-0.077529527 0.01612 0.80600005 14543585
-0.07599429 0.01612 0.80600005 14148070
-0.074459054 0.01612 0.80600005 13753058
-0.072923817 0.01612 0.80600005 13686494
-0.07138858 0.01612 0.80600005 13620445
-0.069853343 0.01612 0.80600005 13489116
-0.068148568 0.016080001 0.80400002 13423578
-0.066617139 0.016080001 0.80400002 13358040
-0.065085717 0.016080001 0.80400002 13292757
-0.063554287 0.016080001 0.80400002 13227474
-0.062177144 0.01612 0.80600005 13160917
-0.060641907 0.01612 0.80600005 13159383
-0.05910667 0.01612 0.80600005 13158808
-0.057571433 0.01612 0.80600005 8884313
-0.035606667 0.015260001 0.76300001 393833
-0.034063812 0.01522 0.76100004 6720172
-0.032614287 0.01522 0.76100004 13100756
-0.031246668 0.015260001 0.76300001 14087164
-0.029793333 0.015260001 0.76300001 15133171
-0.028265715 0.01522 0.76100004 14738153
-0.026780955 0.015200001 0.76000005 14344167
-0.025266668 0.01516 0.75800002 14278374
-0.023760002 0.015120002 0.75600004 14212581
-0.02232 0.015120002 0.75600004 14081252
-0.020880001 0.015120002 0.75600004 13949923
-0.019414287 0.015100001 0.75500005 13949923
-0.017928572 0.01506 0.75300002 14015715
-0.016428573 0.015000001 0.75000006 14015715
-0.015000001 0.015000001 0.75000006 14015458
-0.013571429 0.015000001 0.75000006 13884129
-0.012094286 0.014940001 0.74700004 13753057
-0.010671429 0.014940001 0.74700004 13752800
-0.0092485715 0.014940001 0.74700004 13818080
-0.0078047626 0.014900001 0.74500006 13752288
-0.0063857147 0.014900001 0.74500006 13752287
-0.0049533336 0.01486 0.74300003 13884383
-0.0035380954 0.01486 0.74300003 14015193
-0.0021228571 0.01486 0.74300003 13290708
-0.00070761907 0.01486 0.74300003 12569811
0.00070666667 0.01484 0.74200004 12897490
0.0021200001 0.01484 0.74200004 13225940
0.0035238096 0.0148 0.74000001 13226198
0.0049333335 0.0148 0.74000001 13292248
0.0063342857 0.01478 0.73900002 13357787
0.0077419053 0.01478 0.73900002 13423323
0.0091495244 0.01478 0.73900002 13358043
0.010557143 0.01478 0.73900002 13358023
0.011964763 0.01478 0.73900002 11188660
0.013372381 0.01478 0.73900002 9012625
0.01478 0.01478 0.73900002 7762031
0.016187619 0.01478 0.73900002 6584436
0.017595239 0.01478 0.73900002 6847097
0.019002859 0.01478 0.73900002 7109243
0.02035524 0.014740001 0.73700005 7109245
0.021818096 0.01478 0.73900002 7175034
0.023225715 0.01478 0.73900002 7175031
0.024566669 0.014740001 0.73700005 7240569
0.025970478 0.014740001 0.73700005 7175291
0.027374288 0.014740001 0.73700005 7109498
0.028778099 0.014740001 0.73700005 7043961
0.030181907 0.014740001 0.73700005 6978165
0.031585716 0.014740001 0.73700005 6977905
0.032989528 0.014740001 0.73700005 6977909
0.034393337 0.014740001 0.73700005 7043450
0.035797145 0.014740001 0.73700005 7109242
0.037301905 0.01478 0.73900002 7175291
0.038709525 0.01478 0.73900002 7241344
0.040117145 0.01478 0.73900002 6978437
0.041524764 0.01478 0.73900002 6780805
0.042932384 0.01478 0.73900002 7701893
0.044340003 0.01478 0.73900002 8625817
0.045747619 0.01478 0.73900002 9678765
0.047155239 0.01478 0.73900002 10726569
0.048562858 0.01478 0.73900002 10659493
0.049970478 0.01478 0.73900002 10659235
0.051447619 0.0148 0.74000001 10528162
0.052999999 0.01484 0.74200004 10396579
0.05448667 0.01486 0.74300003 10331043
0.055901907 0.01486 0.74300003 10264994
0.057317145 0.01486 0.74300003 10133921
0.058732383 0.01486 0.74300003 10068128
0.060309529 0.014900001 0.74500006 9937055
0.061728574 0.014900001 0.74500006 9870493
0.063147627 0.014900001 0.74500006 9804700
0.064740002 0.014940001 0.74700004 9738393
0.066162854 0.014940001 0.74700004 9672599
0.067676194 0.01496 0.74800003 9606293
0.069285721 0.015000001 0.75000006 9475476
0.070714295 0.015000001 0.75000006 9343120
0.072335243 0.015040001 0.75200003 9145997
0.073865719 0.01506 0.75300002 8948615
0.075500011 0.015100001 0.75500005 8817281
0.077243812 0.01516 0.75800002 8750972
0.078895241 0.015200001 0.76000005 8619640
0.080448568 0.01522 0.76100004 8486775
0.082113333 0.015260001 0.76300001 8289909
0.08378572 0.0153 0.76500005 8157807
0.08524286 0.0153 0.76500005 8222313
0.086926669 0.01534 0.76700002 8353399
0.088502854 0.015360001 0.76800001 9016710
0.089965716 0.015360001 0.76800001 9737607
0.09142857 0.015360001 0.76800001 9868681
-0.080600001 0.01765524 0.80600005 2640242
-0.079064764 0.01765524 0.80600005 8502220
-0.077529527 0.01765524 0.80600005 14346457
-0.07599429 0.01765524 0.80600005 14083046
-0.074459054 0.01765524 0.80600005 13885410
-0.072742864 0.017611429 0.80400002 13751774
-0.071211427 0.017611429 0.80400002 13555934
-0.069679998 0.017611429 0.80400002 13555422
-0.068148568 0.017611429 0.80400002 13554908
-0.066617139 0.017611429 0.80400002 13489627
-0.065085717 0.017611429 0.80400002 13424344
-0.063554287 0.017611429 0.80400002 13358293
-0.062022857 0.017611429 0.80400002 13358039
-0.060641907 0.01765524 0.80600005 13423577
-0.05910667 0.01765524 0.80600005 13489056
-0.057571433 0.01765524 0.80600005 9871464
-0.035513334 0.016669523 0.76100004 328034
-0.034063812 0.016669523 0.76100004 7117736
-0.032614287 0.016669523 0.76100004 13955795
-0.031246668 0.016713332 0.76300001 14480126
-0.029793333 0.016713332 0.76300001 15002100
-0.028265715 0.016669523 0.76100004 14672618
-0.026780955 0.01664762 0.76000005 14344168
-0.025266668 0.016603809 0.75800002 14278374
-0.023760002 0.016559999 0.75600004 14212581
-0.02232 0.016559999 0.75600004 14081252
-0.020852383 0.016538097 0.75500005 14015461
-0.019362858 0.016494285 0.75300002 14015463
-0.017904762 0.016472382 0.75200003 14015717
-0.016428573 0.016428573 0.75000006 14015716
-0.015000001 0.016428573 0.75000006 14015714
-0.013571429 0.016428573 0.75000006 13884129
-0.012094286 0.016362859 0.74700004 13818590
-0.010671429 0.016362859 0.74700004 13752796
-0.0092485715 0.016362859 0.74700004 13752542
-0.0078047626 0.01631905 0.74500006 13752544
-0.0063857147 0.01631905 0.74500006 13752545
-0.0049533336 0.016275238 0.74300003 13818850
-0.0035380954 0.016275238 0.74300003 13884121
-0.0021228571 0.016275238 0.74300003 13290961
-0.00070761907 0.016275238 0.74300003 12765905
0.00070666667 0.016253335 0.74200004 13028306
0.0021200001 0.016253335 0.74200004 13291476
0.0035238096 0.016209524 0.74000001 13291990
0.0049333335 0.016209524 0.74000001 13292247
0.0063342857 0.016187619 0.73900002 13292248
0.0077419053 0.016187619 0.73900002 13291993
0.0091495244 0.016187619 0.73900002 13292507
0.010557143 0.016187619 0.73900002 13357767
0.011932382 0.01614381 0.73700005 10991540
0.013336192 0.01614381 0.73700005 8618383
0.014740001 0.01614381 0.73700005 7630699
0.01614381 0.01614381 0.73700005 6649710
0.01754762 0.01614381 0.73700005 6847089
0.019002859 0.016187619 0.73900002 7043447
0.02035524 0.01614381 0.73700005 7043709
0.021818096 0.016187619 0.73900002 7109499
0.023162859 0.01614381 0.73700005 7175034
0.024566669 0.01614381 0.73700005 7175036
0.025970478 0.01614381 0.73700005 7109759
0.027374288 0.01614381 0.73700005 7044220
0.028778099 0.01614381 0.73700005 6978426
0.030181907 0.01614381 0.73700005 6912888
0.031585716 0.01614381 0.73700005 6912630
0.032989528 0.01614381 0.73700005 6912376
0.034393337 0.01614381 0.73700005 6977914
0.03589429 0.016187619 0.73900002 7109242
0.037301905 0.016187619 0.73900002 7175291
0.038709525 0.016187619 0.73900002 7306880
0.040117145 0.016187619 0.73900002 6978437
0.041524764 0.016187619 0.73900002 6715271
0.042932384 0.016187619 0.73900002 7702153
0.044340003 0.016187619 0.73900002 8757659
0.045747619 0.016187619 0.73900002 9744302
0.047155239 0.016187619 0.73900002 10726568
0.048562858 0.016187619 0.73900002 10659746
0.049970478 0.016187619 0.73900002 10594211
0.051447619 0.016209524 0.74000001 10462372
0.052999999 0.016253335 0.74200004 10396582
0.05448667 0.016275238 0.74300003 10330793
0.055901907 0.016275238 0.74300003 10264998
0.057317145 0.016275238 0.74300003 10133667
0.058732383 0.016275238 0.74300003 10067874
0.060309529 0.01631905 0.74500006 10002337
0.061728574 0.01631905 0.74500006 9870495
0.063147627 0.01631905 0.74500006 9804445
0.064566672 0.01631905 0.74500006 9738393
0.066162854 0.016362859 0.74700004 9672597
0.067676194 0.016384762 0.74800003 9541013
0.069285721 0.016428573 0.75000006 9409686
0.070714295 0.016428573 0.75000006 9277586
0.072335243 0.016472382 0.75200003 9145998
0.073865719 0.016494285 0.75300002 8948615
0.075500011 0.016538097 0.75500005 8882816
0.077243812 0.016603809 0.75800002 8816764
0.078895241 0.01664762 0.76000005 8619129
0.080448568 0.016669523 0.76100004 8421240
0.082113333 0.016713332 0.76300001 8224120
0.08378572 0.016757144 0.76500005 8092015
0.085465722 0.016800953 0.76700002 7894631
0.08704 0.016822856 0.76800001 7698294
0.088733338 0.016866667 0.77000004 8160901
0.090434283 0.016910477 0.77200001 8623754
0.091904759 0.016910477 0.77200001 8754831
-0.080400005 0.019142857 0.80400002 1124720
-0.078868575 0.019142857 0.80400002 7648203
-0.077529527 0.019190477 0.80600005 14149850
-0.07599429 0.019190477 0.80600005 14086889
-0.074274287 0.019142857 0.80400002 14081252
-0.072742864 0.019142857 0.80400002 13817055
-0.071211427 0.019142857 0.80400002 13555423
-0.069679998 0.019142857 0.80400002 13621471
-0.068148568 0.019142857 0.80400002 13686748
-0.066617139 0.019142857 0.80400002 13620954
-0.065085717 0.019142857 0.80400002 13555160
-0.063554287 0.019142857 0.80400002 13554902
-0.062022857 0.019142857 0.80400002 13554648
-0.060491432 0.019142857 0.80400002 13686491
-0.058960002 0.019142857 0.80400002 13816745
-0.057428572 0.019142857 0.80400002 10924407
-0.035606667 0.018166667 0.76300001 269424
-0.034063812 0.018119048 0.76100004 7515577
-0.032614287 0.018119048 0.76100004 14809306
-0.031246668 0.018166667 0.76300001 14807546
-0.029793333 0.018166667 0.76300001 14870514
-0.028228572 0.01809524 0.76000005 14607082
-0.026710477 0.01804762 0.75800002 14344168
-0.0252 0.018000001 0.75600004 14278630
-0.023760002 0.018000001 0.75600004 14212837
-0.02232 0.018000001 0.75600004 14147044
-0.020852383 0.017976193 0.75500005 14081252
-0.019362858 0.017928572 0.75300002 14015460
-0.017904762 0.017904762 0.75200003 14015715
-0.016428573 0.017857144 0.75000006 14015971
-0.015000001 0.017857144 0.75000006 14015714
-0.013571429 0.017857144 0.75000006 13949921
-0.012110476 0.017809525 0.74800003 13884383
-0.010671429 0.017785715 0.74700004 13818846
-0.0092485715 0.017785715 0.74700004 13752799
-0.0078047626 0.017738096 0.74500006 13752544
-0.0063857147 0.017738096 0.74500006 13752801
-0.0049533336 0.017690476 0.74300003 13753314
-0.0035380954 0.017690476 0.74300003 13753051
-0.0021200001 0.017666668 0.74200004 13356756
-0.00070666667 0.017666668 0.74200004 13028306
0.00070666667 0.017666668 0.74200004 13159120
0.0021142857 0.017619047 0.74000001 13357523
0.0035238096 0.017619047 0.74000001 13292246
0.0049266671 0.017595239 0.73900002 13292246
0.0063342857 0.017595239 0.73900002 13226711
0.0077419053 0.017595239 0.73900002 13160921
0.0091495244 0.017595239 0.73900002 13226971
0.010557143 0.017595239 0.73900002 13357764
0.011932382 0.01754762 0.73700005 10794670
0.013336192 0.01754762 0.73700005 8288908
0.014740001 0.01754762 0.73700005 7499627
0.01614381 0.01754762 0.73700005 6715504
0.01754762 0.01754762 0.73700005 6847349
0.018951431 0.01754762 0.73700005 6978424
0.02035524 0.01754762 0.73700005 7043963
0.021818096 0.017595239 0.73900002 7109498
0.023225715 0.017595239 0.73900002 7109498
0.024633335 0.017595239 0.73900002 7175034
0.025970478 0.01754762 0.73700005 7044219
0.027374288 0.01754762 0.73700005 6978426
0.028778099 0.01754762 0.73700005 6912633
0.030181907 0.01754762 0.73700005 6912632
0.031585716 0.01754762 0.73700005 6912888
0.032989528 0.01754762 0.73700005 6912633
0.034393337 0.01754762 0.73700005 6978171
0.03589429 0.017595239 0.73900002 7109243
0.037301905 0.017595239 0.73900002 7240827
0.038709525 0.017595239 0.73900002 7371645
0.040117145 0.017595239 0.73900002 6978432
0.041524764 0.017595239 0.73900002 6649736
0.042932384 0.017595239 0.73900002 7768208
0.044340003 0.017595239 0.73900002 8954530
0.045747619 0.017595239 0.73900002 9810100
0.047155239 0.017595239 0.73900002 10726573
0.048562858 0.017595239 0.73900002 10594725
0.049970478 0.017595239 0.73900002 10528421
0.051447619 0.017619047 0.74000001 10462373
0.052999999 0.017666668 0.74200004 10396325
0.05448667 0.017690476 0.74300003 10330534
0.055901907 0.017690476 0.74300003 10264996
0.057317145 0.017690476 0.74300003 10198947
0.058732383 0.017690476 0.74300003 10133409
0.060309529 0.017738096 0.74500006 10002080
0.061728574 0.017738096 0.74500006 9936031
0.063147627 0.017738096 0.74500006 9869982
0.064566672 0.017738096 0.74500006 9804442
0.066162854 0.017785715 0.74700004 9673365
0.067676194 0.017809525 0.74800003 9541012
0.069285721 0.017857144 0.75000006 9409683
0.070714295 0.017857144 0.75000006 9277584
0.072335243 0.017904762 0.75200003 9146254
0.073767617 0.017904762 0.75200003 9014153
0.075500011 0.017976193 0.75500005 8948612
0.077243812 0.01804762 0.75800002 8881536
0.078895241 0.01809524 0.76000005 8618876
0.080448568 0.018119048 0.76100004 8421241
0.08232858 0.018214287 0.76500005 8223862
0.08378572 0.018214287 0.76500005 8026480
0.085465722 0.018261906 0.76700002 7566954
0.08704 0.018285714 0.76800001 7107694
0.088733338 0.018333334 0.77000004 7302770
0.090434283 0.018380953 0.77200001 7499380
0.091904759 0.018380953 0.77200001 7695991
-0.078868575 0.020674286 0.80400002 7119562
-0.077337146 0.020674286 0.80400002 13363419
-0.075805716 0.020674286 0.80400002 13692397
-0.074274287 0.020674286 0.80400002 14014951
-0.072742864 0.020674286 0.80400002 13817313
-0.071211427 0.020674286 0.80400002 13620192
-0.069679998 0.020674286 0.80400002 13687520
-0.068148568 0.020674286 0.80400002 13818589
-0.066617139 0.020674286 0.80400002 13753050
-0.065085717 0.020674286 0.80400002 13753049
-0.063554287 0.020674286 0.80400002 13686488
-0.062022857 0.020674286 0.80400002 13620186
-0.060641907 0.020725716 0.80600005 13751261
-0.05910667 0.020725716 0.80600005 13948081
-0.057571433 0.020725716 0.80600005 11715206
-0.036962859 0.019568572 0.76100004 3290930
-0.035606667 0.019619999 0.76300001 2963582
-0.034063812 0.019568572 0.76100004 9027787
-0.032614287 0.019568572 0.76100004 15138529
-0.031164765 0.019568572 0.76100004 14938103
-0.029793333 0.019619999 0.76300001 14739185
-0.028228572 0.019542858 0.76000005 14541547
-0.026710477 0.019491429 0.75800002 14344169
-0.0252 0.019440001 0.75600004 14278631
-0.023760002 0.019440001 0.75600004 14213093
-0.022290478 0.019414287 0.75500005 14147300
-0.020852383 0.019414287 0.75500005 14081506
-0.019362858 0.019362858 0.75300002 14081249
-0.017904762 0.019337144 0.75200003 14081250
-0.016428573 0.019285716 0.75000006 14015971
-0.015000001 0.019285716 0.75000006 14015970
-0.013535239 0.019234287 0.74800003 14015714
-0.012094286 0.019208571 0.74700004 13950177
-0.010671429 0.019208571 0.74700004 13884384
-0.0092238095 0.019157145 0.74500006 13818848
-0.0078047626 0.019157145 0.74500006 13818592
-0.0063857147 0.019157145 0.74500006 13753057
-0.0049533336 0.019105716 0.74300003 13753315
-0.0035380954 0.019105716 0.74300003 13753309
-0.0021200001 0.01908 0.74200004 13356759
-0.00070666667 0.01908 0.74200004 13028562
0.00070666667 0.01908 0.74200004 13225678
0.0021142857 0.019028571 0.74000001 13423570
0.0035238096 0.019028571 0.74000001 13357782
0.0049266671 0.019002859 0.73900002 13291990
