# .PCD v0.7 - Point Cloud Data file format
VERSION 0.7
FIELDS x y z rgba
SIZE 4 4 4 4
TYPE F F F U
COUNT 1 1 1 1
WIDTH 1074
HEIGHT 1
VIEWPOINT 0 0 0 1 0 0 0
POINTS 1074
DATA ascii
0.023320002 -0.027560001 0.74200004 8950670
0.024766667 -0.027597144 0.74300003 6252676
0.026181906 -0.027597144 0.74300003 6780026
0.027597144 -0.027597144 0.74300003 7371386
0.029012382 -0.027597144 0.74300003 7306106
0.03042762 -0.027597144 0.74300003 7240313
0.031842858 -0.027597144 0.74300003 7240056
0.033258095 -0.027597144 0.74300003 7240056
0.034673333 -0.027597144 0.74300003 7240311
0.036088571 -0.027597144 0.74300003 7240056
0.037503812 -0.027597144 0.74300003 7108728
0.03891905 -0.027597144 0.74300003 7043190
0.040334288 -0.027597144 0.74300003 7043188
0.041749526 -0.027597144 0.74300003 7043184
0.043280955 -0.02767143 0.74500006 6977644
0.044700004 -0.02767143 0.74500006 6978160
0.046119049 -0.02767143 0.74500006 6978164
0.047410477 -0.027597144 0.74300003 6977652
0.048825715 -0.027597144 0.74300003 7173749
0.050376195 -0.02767143 0.74500006 7374479
0.051795244 -0.02767143 0.74500006 8889769
0.053214289 -0.02767143 0.74500006 10397353
0.054780003 -0.027745714 0.74700004 10265514
0.056278098 -0.027782857 0.74800003 10199461
0.057857145 -0.027857145 0.75000006 10133665
0.059285719 -0.027857145 0.75000006 10133156
0.06071429 -0.027857145 0.75000006 10067111
0.062308576 -0.027931429 0.75200003 10067105
0.063740954 -0.027931429 0.75200003 9936028
0.065173343 -0.027931429 0.75200003 9869467
0.066605717 -0.027931429 0.75200003 9672602
0.068038099 -0.027931429 0.75200003 9540758
0.06956286 -0.027968572 0.75300002 9409682
0.071185715 -0.028042858 0.75500005 9343377
0.072719999 -0.028080001 0.75600004 9211536
0.074160002 -0.028080001 0.75600004 9079435
0.075800002 -0.028154286 0.75800002 8882310
0.077447623 -0.028228572 0.76000005 8750980
0.079206668 -0.028339999 0.76300001 8619137
0.080871433 -0.028414287 0.76500005 8486782
0.082543813 -0.028488571 0.76700002 8289659
0.08400476 -0.028488571 0.76700002 8092023
0.085577145 -0.028525714 0.76800001 7960691
0.087266669 -0.0286 0.77000004 7894127
0.088733338 -0.0286 0.77000004 7893867
0.090200007 -0.0286 0.77000004 7959911
0.091904759 -0.028674286 0.77200001 7961187
0.093496196 -0.028711431 0.77300006 8029062
0.09496858 -0.028711431 0.77300006 9607848
0.096440956 -0.028711431 0.77300006 11255222
-0.079457149 -0.028542859 0.81000006 8569034
-0.07791429 -0.028542859 0.81000006 14743255
-0.076371431 -0.028542859 0.81000006 14016996
-0.07482858 -0.028542859 0.81000006 13291233
-0.073104762 -0.028472383 0.80800003 13160159
-0.071565717 -0.028472383 0.80800003 13029330
-0.070026666 -0.028472383 0.80800003 12632774
-0.068657145 -0.028542859 0.81000006 12238276
-0.067114294 -0.028542859 0.81000006 12107203
-0.065733336 -0.028613335 0.81200004 12041928
-0.06418667 -0.028613335 0.81200004 11975885
-0.062640004 -0.028613335 0.81200004 11909829
-0.061093334 -0.028613335 0.81200004 11975357
-0.059693333 -0.02868381 0.81400001 12041920
-0.058142856 -0.02868381 0.81400001 11386307
-0.056592382 -0.02868381 0.81400001 10790543
-0.055041905 -0.02868381 0.81400001 6316636
-0.032871429 -0.02702762 0.76700002 1123182
-0.031410474 -0.02702762 0.76700002 7516883
-0.029949524 -0.02702762 0.76700002 13888225
-0.028414287 -0.026957145 0.76500005 14149360
-0.026886668 -0.026886668 0.76300001 14410222
-0.025433334 -0.026886668 0.76300001 14212845
-0.023917144 -0.026816191 0.76100004 14081513
-0.022438096 -0.026780955 0.76000005 14015717
-0.020935237 -0.026710477 0.75800002 13950179
-0.019491429 -0.026710477 0.75800002 13950178
-0.018000001 -0.026640002 0.75600004 13950177
-0.016538097 -0.026604762 0.75500005 13884129
-0.01506 -0.026534285 0.75300002 13818335
-0.01360762 -0.026499048 0.75200003 13752798
-0.012175239 -0.026499048 0.75200003 13752798
-0.010714287 -0.026428573 0.75000006 13686494
-0.0092857154 -0.026428573 0.75000006 13686754
-0.0078571439 -0.026428573 0.75000006 13621222
-0.0064285719 -0.026428573 0.75000006 13621473
-0.0049866666 -0.026358096 0.74800003 13555420
-0.0035619049 -0.026358096 0.74800003 13555161
-0.0021342859 -0.026322858 0.74700004 13489367
-0.00071142858 -0.026322858 0.74700004 13423574
0.00070952385 -0.026252383 0.74500006 13292501
0.0021285715 -0.026252383 0.74500006 13226963
0.0035476193 -0.026252383 0.74500006 13095377
0.0049533336 -0.026181906 0.74300003 12964047
0.0063685714 -0.026181906 0.74300003 12435149
0.0077838097 -0.026181906 0.74300003 11844812
0.0091866674 -0.026146669 0.74200004 12239820
0.010600001 -0.026146669 0.74200004 12699597
0.012013334 -0.026146669 0.74200004 12700110
0.013426667 -0.026146669 0.74200004 12765907
0.01484 -0.026146669 0.74200004 12765656
0.016253335 -0.026146669 0.74200004 12699858
0.017666668 -0.026146669 0.74200004 12765388
0.01908 -0.026146669 0.74200004 12831961
0.020493334 -0.026146669 0.74200004 11518694
0.021906666 -0.026146669 0.74200004 10135469
0.023320002 -0.026146669 0.74200004 8290677
0.024733335 -0.026146669 0.74200004 6451069
0.026181906 -0.026181906 0.74300003 6846341
0.027597144 -0.026181906 0.74300003 7306112
0.029012382 -0.026181906 0.74300003 7240571
0.03042762 -0.026181906 0.74300003 7240313
0.031842858 -0.026181906 0.74300003 7174776
0.033258095 -0.026181906 0.74300003 7175031
0.034626666 -0.026146669 0.74200004 7174774
0.036088571 -0.026181906 0.74300003 7174774
0.037503812 -0.026181906 0.74300003 7108983
0.038866669 -0.026146669 0.74200004 6977652
0.040334288 -0.026181906 0.74300003 7043186
0.041749526 -0.026181906 0.74300003 7043440
0.043164764 -0.026181906 0.74300003 6977902
0.044700004 -0.026252383 0.74500006 6978161
0.045995239 -0.026181906 0.74300003 6846836
0.047410477 -0.026181906 0.74300003 6780280
0.048825715 -0.026181906 0.74300003 7437436
0.050376195 -0.026252383 0.74500006 8097684
0.051795244 -0.026252383 0.74500006 9217708
0.053214289 -0.026252383 0.74500006 10397358
0.054633338 -0.026252383 0.74500006 10265264
0.056202862 -0.026322858 0.74700004 10199466
0.057702858 -0.026358096 0.74800003 10198948
0.059127621 -0.026358096 0.74800003 10133160
0.06071429 -0.026428573 0.75000006 10067373
0.062142864 -0.026428573 0.75000006 10001829
0.063571438 -0.026428573 0.75000006 9870237
0.065173343 -0.026499048 0.75200003 9804187
0.066605717 -0.026499048 0.75200003 9672601
0.068038099 -0.026499048 0.75200003 9540758
0.06956286 -0.026534285 0.75300002 9409428
0.070997149 -0.026534285 0.75300002 9342866
0.072719999 -0.026640002 0.75600004 9145744
0.074160002 -0.026640002 0.75600004 9013643
0.075800002 -0.026710477 0.75800002 8882311
0.077447623 -0.026780955 0.76000005 8751235
0.07899905 -0.026816191 0.76100004 8619135
0.080871433 -0.026957145 0.76500005 8420990
0.082543813 -0.02702762 0.76700002 8223869
0.08400476 -0.02702762 0.76700002 8091768
0.085577145 -0.027062858 0.76800001 7894900
0.087266669 -0.027133334 0.77000004 7697263
0.088733338 -0.027133334 0.77000004 7697003
0.090200007 -0.027133334 0.77000004 7698027
0.091904759 -0.027203809 0.77200001 7697772
0.093496196 -0.027239049 0.77300006 7767431
0.09496858 -0.027239049 0.77300006 9542306
0.096440956 -0.027239049 0.77300006 11320751
-0.081200004 -0.027066668 0.81200004 3883635
-0.079653338 -0.027066668 0.81200004 9423828
-0.07791429 -0.027000003 0.81000006 14939354
-0.076371431 -0.027000003 0.81000006 14081248
-0.07482858 -0.027000003 0.81000006 13291741
-0.073104762 -0.026933333 0.80800003 13160153
-0.071565717 -0.026933333 0.80800003 13029329
-0.070026666 -0.026933333 0.80800003 12633800
-0.068657145 -0.027000003 0.81000006 12303558
-0.067114294 -0.027000003 0.81000006 12172740
-0.065733336 -0.027066668 0.81200004 12041924
-0.06418667 -0.027066668 0.81200004 11910341
-0.062640004 -0.027066668 0.81200004 11844288
-0.061093334 -0.027066668 0.81200004 11909820
-0.059693333 -0.027133333 0.81400001 12041906
-0.058142856 -0.027133333 0.81400001 10992809
-0.056592382 -0.027133333 0.81400001 9997183
-0.055041905 -0.027133333 0.81400001 5983318
-0.032871429 -0.025566667 0.76700002 926059
-0.031410474 -0.025566667 0.76700002 7385291
-0.029949524 -0.025566667 0.76700002 13888477
-0.028414287 -0.025500001 0.76500005 14215407
-0.026886668 -0.025433334 0.76300001 14541292
-0.025433334 -0.025433334 0.76300001 14344170
-0.023917144 -0.025366668 0.76100004 14147047
-0.022438096 -0.025333336 0.76000005 14081508
-0.020935237 -0.025266668 0.75800002 14015714
-0.019491429 -0.025266668 0.75800002 13950177
-0.018000001 -0.0252 0.75600004 13949919
-0.016559999 -0.0252 0.75600004 13884382
-0.01506 -0.0251 0.75300002 13884126
-0.013625714 -0.0251 0.75300002 13818334
-0.012175239 -0.025066668 0.75200003 13752541
-0.010742858 -0.025066668 0.75200003 13752029
-0.0092857154 -0.025000002 0.75000006 13752031
-0.0078571439 -0.025000002 0.75000006 13686754
-0.0064285719 -0.025000002 0.75000006 13686751
-0.0049866666 -0.024933333 0.74800003 13620956
-0.0035619049 -0.024933333 0.74800003 13620698
-0.0021342859 -0.024900001 0.74700004 13489368
-0.00071142858 -0.024900001 0.74700004 13423574
0.00070952385 -0.024833336 0.74500006 13292757
0.0021285715 -0.024833336 0.74500006 13226965
0.0035476193 -0.024833336 0.74500006 13094613
0.0049533336 -0.024766667 0.74300003 12963533
0.0063685714 -0.024766667 0.74300003 12171462
0.0077838097 -0.024766667 0.74300003 11450825
0.0091866674 -0.024733335 0.74200004 12175052
0.010600001 -0.024733335 0.74200004 12961742
0.012013334 -0.024733335 0.74200004 12896464
0.013390477 -0.024666665 0.74000001 12896978
0.01484 -0.024733335 0.74200004 12766421
0.016253335 -0.024733335 0.74200004 12700113
0.017666668 -0.024733335 0.74200004 12765646
0.01908 -0.024733335 0.74200004 12896973
0.020493334 -0.024733335 0.74200004 10795723
0.021906666 -0.024733335 0.74200004 8685980
0.023320002 -0.024733335 0.74200004 7630701
0.024733335 -0.024733335 0.74200004 6648951
0.026146669 -0.024733335 0.74200004 6912898
0.027597144 -0.024766667 0.74300003 7240574
0.029012382 -0.024766667 0.74300003 7240827
0.03042762 -0.024766667 0.74300003 7240570
0.031842858 -0.024766667 0.74300003 7175033
0.033258095 -0.024766667 0.74300003 7174776
0.034626666 -0.024733335 0.74200004 7174775
0.036088571 -0.024766667 0.74300003 7174775
0.037453339 -0.024733335 0.74200004 7043703
0.038761906 -0.024666665 0.74000001 6977906
0.040280003 -0.024733335 0.74200004 7043438
0.041749526 -0.024766667 0.74300003 7108975
0.043164764 -0.024766667 0.74300003 7043440
0.044580001 -0.024766667 0.74300003 6977908
0.045995239 -0.024766667 0.74300003 6781048
0.047410477 -0.024766667 0.74300003 6583413
0.048825715 -0.024766667 0.74300003 7701363
0.050376195 -0.024833336 0.74500006 8819855
0.051795244 -0.024833336 0.74500006 9611179
0.053214289 -0.024833336 0.74500006 10397098
0.054633338 -0.024833336 0.74500006 10330794
0.056052383 -0.024833336 0.74500006 10264997
0.057625718 -0.024900001 0.74700004 10198944
0.059048574 -0.024900001 0.74700004 10198948
0.060552381 -0.024933333 0.74800003 10067880
0.062142864 -0.025000002 0.75000006 9936035
0.063571438 -0.025000002 0.75000006 9804702
0.065173343 -0.025066668 0.75200003 9738651
0.066605717 -0.025066668 0.75200003 9607064
0.068038099 -0.025066668 0.75200003 9541014
0.069470473 -0.025066668 0.75200003 9409172
0.070997149 -0.0251 0.75300002 9342863
0.072623812 -0.025166668 0.75500005 9145482
0.074160002 -0.0252 0.75600004 8948359
0.075600006 -0.0252 0.75600004 8882564
0.077447623 -0.025333336 0.76000005 8816513
0.07899905 -0.025366668 0.76100004 8619135
0.08066 -0.025433334 0.76300001 8420987
0.082543813 -0.025566667 0.76700002 8223607
0.08400476 -0.025566667 0.76700002 8091764
0.0858 -0.025666667 0.77000004 7829106
0.087493338 -0.025733333 0.77200001 7566183
0.088963814 -0.025733333 0.77200001 7500125
0.090434283 -0.025733333 0.77200001 7434594
0.091904759 -0.025733333 0.77200001 7434599
0.093496196 -0.025766669 0.77300006 7503235
0.09496858 -0.025766669 0.77300006 9411231
0.096440956 -0.025766669 0.77300006 11385260
-0.08274667 -0.025520001 0.81200004 3670548
-0.081200004 -0.025520001 0.81200004 4740985
-0.079653338 -0.025520001 0.81200004 9752286
-0.078106664 -0.025520001 0.81200004 14808029
-0.076559998 -0.025520001 0.81200004 14080989
-0.07482858 -0.025457144 0.81000006 13357784
-0.073285721 -0.025457144 0.81000006 13160660
-0.071565717 -0.025394287 0.80800003 12963791
-0.070200004 -0.025457144 0.81000006 12632523
-0.068657145 -0.025457144 0.81000006 12238024
-0.067114294 -0.025457144 0.81000006 12172741
-0.065733336 -0.025520001 0.81200004 12041921
-0.06418667 -0.025520001 0.81200004 11910334
-0.062640004 -0.025520001 0.81200004 11844284
-0.06124381 -0.025582856 0.81400001 11910075
-0.059693333 -0.025582856 0.81400001 12042149
-0.058142856 -0.025582856 0.81400001 10466447
-0.056592382 -0.025582856 0.81400001 8810864
-0.055041905 -0.025582856 0.81400001 5453137
-0.032871429 -0.024105715 0.76700002 794728
-0.031410474 -0.024105715 0.76700002 7319492
-0.02987143 -0.024042858 0.76500005 13888985
-0.028414287 -0.024042858 0.76500005 14150127
-0.026886668 -0.023980001 0.76300001 14475755
-0.025366668 -0.023917144 0.76100004 14278631
-0.023885716 -0.023885716 0.76000005 14081509
-0.022379048 -0.023822857 0.75800002 14015971
-0.020935237 -0.023822857 0.75800002 14015713
-0.019440001 -0.023760002 0.75600004 13949920
-0.018000001 -0.023760002 0.75600004 13884125
-0.016538097 -0.023728572 0.75500005 13884379
-0.01506 -0.023665715 0.75300002 13884380
-0.01360762 -0.023634287 0.75200003 13818334
-0.012175239 -0.023634287 0.75200003 13752285
-0.010714287 -0.02357143 0.75000006 13752029
-0.0092857154 -0.02357143 0.75000006 13752029
-0.0078571439 -0.02357143 0.75000006 13686494
-0.0064285719 -0.02357143 0.75000006 13686749
-0.0049866666 -0.023508571 0.74800003 13620956
-0.003557143 -0.023477143 0.74700004 13620698
-0.0021342859 -0.023477143 0.74700004 13489369
-0.00070952385 -0.023414288 0.74500006 13423575
0.00070952385 -0.023414288 0.74500006 13292501
0.0021285715 -0.023414288 0.74500006 13227223
0.0035476193 -0.023414288 0.74500006 13029081
0.0049666674 -0.023414288 0.74500006 12831948
0.0063685714 -0.023351429 0.74300003 12302016
0.0077838097 -0.023351429 0.74300003 11843526
0.0091866674 -0.023320002 0.74200004 12372173
0.010600001 -0.023320002 0.74200004 12962767
0.012013334 -0.023320002 0.74200004 12962514
0.013426667 -0.023320002 0.74200004 12962514
0.01484 -0.023320002 0.74200004 12896978
0.016253335 -0.023320002 0.74200004 12831441
0.017666668 -0.023320002 0.74200004 12634577
0.019028571 -0.023257142 0.74000001 12503489
0.020493334 -0.023320002 0.74200004 10004401
0.021847619 -0.023257142 0.74000001 7433355
0.023320002 -0.023320002 0.74200004 7173222
0.024666665 -0.023257142 0.74000001 6978162
0.026146669 -0.023320002 0.74200004 7043711
0.027560001 -0.023320002 0.74200004 7174781
0.029012382 -0.023351429 0.74300003 7174780
0.03042762 -0.023351429 0.74300003 7175035
0.031842858 -0.023351429 0.74300003 7174778
0.033213332 -0.023320002 0.74200004 7174777
0.034626666 -0.023320002 0.74200004 7174521
0.036040001 -0.023320002 0.74200004 7174520
0.037453339 -0.023320002 0.74200004 7043448
0.038761906 -0.023257142 0.74000001 6977905
0.040280003 -0.023320002 0.74200004 7043178
0.041693337 -0.023320002 0.74200004 7043182
0.043164764 -0.023351429 0.74300003 6977907
0.044580001 -0.023351429 0.74300003 6912887
0.045995239 -0.023351429 0.74300003 6715516
0.047410477 -0.023351429 0.74300003 6452083
0.048825715 -0.023351429 0.74300003 7898730
0.050376195 -0.023414288 0.74500006 9345418
0.051795244 -0.023414288 0.74500006 9807786
0.053214289 -0.023414288 0.74500006 10266023
0.054633338 -0.023414288 0.74500006 10265508
0.056052383 -0.023414288 0.74500006 10330528
0.057625718 -0.023477143 0.74700004 10264732
0.059048574 -0.023477143 0.74700004 10199199
0.060552381 -0.023508571 0.74800003 10067619
0.062142864 -0.02357143 0.75000006 9936033
0.063571438 -0.02357143 0.75000006 9804447
0.065000005 -0.02357143 0.75000006 9673115
0.066605717 -0.023634287 0.75200003 9541784
0.068038099 -0.023634287 0.75200003 9475734
0.069470473 -0.023634287 0.75200003 9343892
0.070997149 -0.023665715 0.75300002 9211788
0.072623812 -0.023728572 0.75500005 9080197
0.074160002 -0.023760002 0.75600004 9014403
0.075600006 -0.023760002 0.75600004 8882561
0.077447623 -0.023885716 0.76000005 8750720
0.07899905 -0.023917144 0.76100004 8553344
0.08066 -0.023980001 0.76300001 8420984
0.082543813 -0.024105715 0.76700002 8223601
0.084114283 -0.024137143 0.76800001 8026480
0.0858 -0.024200002 0.77000004 7763312
0.087493338 -0.024262857 0.77200001 7566176
0.088963814 -0.024262857 0.77200001 7237456
0.090434283 -0.024262857 0.77200001 6974553
0.092023812 -0.024294289 0.77300006 7172195
0.093496196 -0.024294289 0.77300006 7304575
0.09496858 -0.024294289 0.77300006 9346204
0.096440956 -0.024294289 0.77300006 11450025
-0.08274667 -0.023973335 0.81200004 3735856
-0.081200004 -0.023973335 0.81200004 5597578
-0.079653338 -0.023973335 0.81200004 10146532
-0.078106664 -0.023973335 0.81200004 14741984
-0.076559998 -0.023973335 0.81200004 14080732
-0.07482858 -0.023914289 0.81000006 13489625
-0.073285721 -0.023914289 0.81000006 13226967
-0.071742862 -0.023914289 0.81000006 12963022
-0.070200004 -0.023914289 0.81000006 12565958
-0.068657145 -0.023914289 0.81000006 12238533
-0.067114294 -0.023914289 0.81000006 12173251
-0.065571435 -0.023914289 0.81000006 12107456
-0.06418667 -0.023973335 0.81200004 11976126
-0.062640004 -0.023973335 0.81200004 11844797
-0.061093334 -0.023973335 0.81200004 11975868
-0.059546668 -0.023973335 0.81200004 12107678
-0.058142856 -0.024032382 0.81400001 9874560
-0.056592382 -0.024032382 0.81400001 7688541
-0.055041905 -0.024032382 0.81400001 4923194
-0.031410474 -0.022644762 0.76700002 7319237
-0.029949524 -0.022644762 0.76700002 13888986
-0.028414287 -0.022585716 0.76500005 14150384
-0.026886668 -0.022526667 0.76300001 14409963
-0.025366668 -0.022467621 0.76100004 14213351
-0.023885716 -0.022438096 0.76000005 14081509
-0.022379048 -0.022379048 0.75800002 14015971
-0.020935237 -0.022379048 0.75800002 14015714
-0.019440001 -0.02232 0.75600004 13949921
-0.017976193 -0.022290478 0.75500005 13884383
-0.016538097 -0.022290478 0.75500005 13884381
-0.01506 -0.022231428 0.75300002 13884125
-0.01360762 -0.022201905 0.75200003 13818334
-0.012175239 -0.022201905 0.75200003 13818077
-0.010714287 -0.022142859 0.75000006 13752540
-0.0092857154 -0.022142859 0.75000006 13752028
-0.0078571439 -0.022142859 0.75000006 13752029
-0.0064285719 -0.022142859 0.75000006 13752285
-0.0049866666 -0.022083811 0.74800003 13686750
-0.003557143 -0.022054287 0.74700004 13620700
-0.0021342859 -0.022054287 0.74700004 13489370
-0.00070952385 -0.021995239 0.74500006 13423575
0.00070952385 -0.021995239 0.74500006 13292501
0.0021285715 -0.021995239 0.74500006 13226966
0.0035380954 -0.021936191 0.74300003 12963800
0.0049533336 -0.021936191 0.74300003 12700363
0.0063685714 -0.021936191 0.74300003 12432830
0.0077838097 -0.021936191 0.74300003 12237512
0.0091866674 -0.021906666 0.74200004 12634834
0.010600001 -0.021906666 0.74200004 13028308
0.012013334 -0.021906666 0.74200004 13028566
0.013390477 -0.021847619 0.74000001 13028051
0.0148 -0.021847619 0.74000001 12962256
0.016209524 -0.021847619 0.74000001 12962258
0.017619047 -0.021847619 0.74000001 12569301
0.019028571 -0.021847619 0.74000001 12172986
0.020438096 -0.021847619 0.74000001 9213343
0.021847619 -0.021847619 0.74000001 6252935
0.023320002 -0.021906666 0.74200004 6781296
0.024666665 -0.021847619 0.74000001 7305846
0.026146669 -0.021906666 0.74200004 7175292
0.027560001 -0.021906666 0.74200004 7109243
0.028973334 -0.021906666 0.74200004 7109243
0.030386668 -0.021906666 0.74200004 7174522
0.031800002 -0.021906666 0.74200004 7174522
0.033213332 -0.021906666 0.74200004 7174522
0.034533337 -0.021847619 0.74000001 7174522
0.036040001 -0.021906666 0.74200004 7174522
0.037352383 -0.021847619 0.74000001 7108986
0.038761906 -0.021847619 0.74000001 7043190
0.04017143 -0.021847619 0.74000001 7042675
0.041580953 -0.021847619 0.74000001 7043189
0.043164764 -0.021936191 0.74300003 6977910
0.044580001 -0.021936191 0.74300003 6912375
0.045995239 -0.021936191 0.74300003 6650232
0.047410477 -0.021936191 0.74300003 6386305
0.048825715 -0.021936191 0.74300003 8096138
0.050376195 -0.021995239 0.74500006 9871512
0.051795244 -0.021995239 0.74500006 10004390
0.053214289 -0.021995239 0.74500006 10200485
0.054633338 -0.021995239 0.74500006 10265764
0.056052383 -0.021995239 0.74500006 10396065
0.057625718 -0.022054287 0.74700004 10265501
0.059048574 -0.022054287 0.74700004 10198943
0.06047143 -0.022054287 0.74700004 10067616
0.061977144 -0.022083811 0.74800003 10001310
0.063571438 -0.022142859 0.75000006 9804444
0.065000005 -0.022142859 0.75000006 9673112
0.066605717 -0.022201905 0.75200003 9542037
0.068038099 -0.022201905 0.75200003 9410194
0.069470473 -0.022201905 0.75200003 9278864
0.070997149 -0.022231428 0.75300002 9146506
0.072623812 -0.022290478 0.75500005 9080709
0.074160002 -0.02232 0.75600004 9079683
0.075600006 -0.02232 0.75600004 8882561
0.077447623 -0.022438096 0.76000005 8750464
0.07899905 -0.022467621 0.76100004 8553087
0.08066 -0.022526667 0.76300001 8420986
0.082543813 -0.022644762 0.76700002 8223861
0.084114283 -0.022674287 0.76800001 8026227
0.0858 -0.022733334 0.77000004 7763313
0.087493338 -0.022792382 0.77200001 7565928
0.088963814 -0.022792382 0.77200001 7040607
0.090434283 -0.022792382 0.77200001 6580836
0.092023812 -0.022821905 0.77300006 6841449
0.093496196 -0.022821905 0.77300006 7177605
0.09496858 -0.022821905 0.77300006 9346977
0.096440956 -0.022821905 0.77300006 11515053
-0.08274667 -0.022426667 0.81200004 4260429
-0.081200004 -0.022426667 0.81200004 6454427
-0.079653338 -0.022426667 0.81200004 10540778
-0.078106664 -0.022426667 0.81200004 14675939
-0.076559998 -0.022426667 0.81200004 14080732
-0.07482858 -0.02237143 0.81000006 13490395
-0.073285721 -0.02237143 0.81000006 13226714
-0.071742862 -0.02237143 0.81000006 12962510
-0.070026666 -0.022316191 0.80800003 12566210
-0.068657145 -0.02237143 0.81000006 12238786
-0.067114294 -0.02237143 0.81000006 12173250
-0.065733336 -0.022426667 0.81200004 12042688
-0.06418667 -0.022426667 0.81200004 11910334
-0.062640004 -0.022426667 0.81200004 11777981
-0.061093334 -0.022426667 0.81200004 11844541
-0.059546668 -0.022426667 0.81200004 11976599
-0.058000002 -0.022426667 0.81200004 9149554
-0.056453332 -0.022426667 0.81200004 6369866
-0.055041905 -0.022481905 0.81400001 4469027
-0.031410474 -0.021183809 0.76700002 7187143
-0.02987143 -0.021128573 0.76500005 13823452
-0.028414287 -0.021128573 0.76500005 14084337
-0.026886668 -0.021073334 0.76300001 14344428
-0.025366668 -0.021018095 0.76100004 14213351
-0.023885716 -0.020990476 0.76000005 14081765
-0.022379048 -0.020935237 0.75800002 14081508
-0.020935237 -0.020935237 0.75800002 14015715
-0.019440001 -0.020880001 0.75600004 13949922
-0.018000001 -0.020880001 0.75600004 13884385
-0.016538097 -0.020852383 0.75500005 13949664
-0.01506 -0.020797143 0.75300002 13949407
-0.01360762 -0.020769523 0.75200003 13883870
-0.012175239 -0.020769523 0.75200003 13818077
-0.010714287 -0.020714287 0.75000006 13752284
-0.0092857154 -0.020714287 0.75000006 13686748
-0.007836191 -0.020659048 0.74800003 13752028
-0.006411429 -0.020659048 0.74800003 13752286
-0.0049866666 -0.020659048 0.74800003 13686752
-0.003557143 -0.020631431 0.74700004 13620702
-0.0021285715 -0.020576192 0.74500006 13489372
-0.00070952385 -0.020576192 0.74500006 13423832
0.00070952385 -0.020576192 0.74500006 13358037
0.0021285715 -0.020576192 0.74500006 13292246
0.0035380954 -0.020520953 0.74300003 12897495
0.0049533336 -0.020520953 0.74300003 12503241
0.0063685714 -0.020520953 0.74300003 12436412
0.0077838097 -0.020520953 0.74300003 12435146
0.0091866674 -0.020493334 0.74200004 12700888
0.010600001 -0.020493334 0.74200004 13029081
0.012013334 -0.020493334 0.74200004 12963035
0.013390477 -0.020438096 0.74000001 12962516
0.01484 -0.020493334 0.74200004 13028302
0.016209524 -0.020438096 0.74000001 13028820
0.017619047 -0.020438096 0.74000001 12109786
0.019002859 -0.020410476 0.73900002 11187123
0.020410476 -0.020410476 0.73900002 8750989
0.021847619 -0.020438096 0.74000001 6317700
0.023257142 -0.020438096 0.74000001 6715515
0.024666665 -0.020438096 0.74000001 7175802
0.026076192 -0.020438096 0.74000001 7109753
0.027485715 -0.020438096 0.74000001 7109497
0.028895238 -0.020438096 0.74000001 7109242
0.030304762 -0.020438096 0.74000001 7174522
0.031714283 -0.020438096 0.74000001 7108987
0.03312381 -0.020438096 0.74000001 7108987
0.034533337 -0.020438096 0.74000001 7108987
0.03594286 -0.020438096 0.74000001 7108987
0.037352383 -0.020438096 0.74000001 7043452
0.038761906 -0.020438096 0.74000001 6977660
0.04017143 -0.020438096 0.74000001 6977661
0.041693337 -0.020493334 0.74200004 7043451
0.043106668 -0.020493334 0.74200004 6977914
0.044520002 -0.020493334 0.74200004 6912631
0.045995239 -0.020520953 0.74300003 6715252
0.047410477 -0.020520953 0.74300003 6582927
0.048825715 -0.020520953 0.74300003 8295082
0.050240953 -0.020520953 0.74300003 10069926
0.05165619 -0.020520953 0.74300003 10135459
0.053214289 -0.020576192 0.74500006 10200484
0.054633338 -0.020576192 0.74500006 10331045
0.056052383 -0.020576192 0.74500006 10461602
0.057471432 -0.020576192 0.74500006 10330271
0.058890481 -0.020576192 0.74500006 10198942
0.06047143 -0.020631431 0.74700004 10067358
0.061977144 -0.020659048 0.74800003 10001308
0.063571438 -0.020714287 0.75000006 9804442
0.065000005 -0.020714287 0.75000006 9673110
0.066428579 -0.020714287 0.75000006 9541778
0.068038099 -0.020769523 0.75200003 9410447
0.069470473 -0.020769523 0.75200003 9278605
0.070997149 -0.020797143 0.75300002 9146761
0.072623812 -0.020852383 0.75500005 9080709
0.074061908 -0.020852383 0.75500005 9013891
0.075600006 -0.020880001 0.75600004 8882561
0.077447623 -0.020990476 0.76000005 8684927
0.078895241 -0.020990476 0.76000005 8553086
0.08066 -0.021073334 0.76300001 8421243
0.08232858 -0.021128573 0.76500005 8223865
0.084114283 -0.021211429 0.76800001 8025974
0.0858 -0.021266669 0.77000004 7894387
0.087493338 -0.021321906 0.77200001 7762544
0.088963814 -0.021321906 0.77200001 7499630
0.090434283 -0.021321906 0.77200001 7235695
0.092023812 -0.021349525 0.77300006 8093552
0.093496196 -0.021349525 0.77300006 9016971
0.09496858 -0.021349525 0.77300006 10132902
0.096440956 -0.021349525 0.77300006 11318192
-0.08274667 -0.020880001 0.81200004 4784981
-0.081200004 -0.020880001 0.81200004 7311264
-0.079653338 -0.020880001 0.81200004 11000812
-0.078106664 -0.020880001 0.81200004 14670565
-0.076559998 -0.020880001 0.81200004 14080735
-0.07482858 -0.020828571 0.81000006 13555422
-0.073285721 -0.020828571 0.81000006 13226460
-0.071742862 -0.020828571 0.81000006 12962767
-0.070200004 -0.020828571 0.81000006 12632002
-0.068657145 -0.020828571 0.81000006 12304323
-0.067114294 -0.020828571 0.81000006 12173507
-0.065733336 -0.020880001 0.81200004 12041920
-0.06418667 -0.020880001 0.81200004 11844797
-0.062640004 -0.020880001 0.81200004 11713471
-0.061093334 -0.020880001 0.81200004 11778752
-0.059546668 -0.020880001 0.81200004 11910043
-0.058000002 -0.020880001 0.81200004 8490102
-0.056453332 -0.020880001 0.81200004 5056335
-0.05490667 -0.020880001 0.81200004 4004392
-0.03132857 -0.019671429 0.76500005 7120582
-0.02987143 -0.019671429 0.76500005 13757915
-0.028414287 -0.019671429 0.76500005 14018289
-0.026886668 -0.019619999 0.76300001 14344428
-0.025366668 -0.019568572 0.76100004 14213351
-0.023885716 -0.019542858 0.76000005 14147301
-0.022379048 -0.019491429 0.75800002 14081508
-0.020935237 -0.019491429 0.75800002 14081251
-0.019440001 -0.019440001 0.75600004 14015714
-0.018000001 -0.019440001 0.75600004 13949921
-0.016538097 -0.019414287 0.75500005 14014945
-0.01506 -0.019362858 0.75300002 14080479
-0.01360762 -0.019337144 0.75200003 13949406
-0.012175239 -0.019337144 0.75200003 13818077
-0.010714287 -0.019285716 0.75000006 13752029
-0.0092857154 -0.019285716 0.75000006 13686491
-0.007836191 -0.019234287 0.74800003 13752026
-0.006411429 -0.019234287 0.74800003 13817821
-0.0049800002 -0.019208571 0.74700004 13686751
-0.0035476193 -0.019157145 0.74500006 13620701
-0.0021285715 -0.019157145 0.74500006 13555164
-0.00070952385 -0.019157145 0.74500006 13489112
0.00070952385 -0.019157145 0.74500006 13423573
0.0021285715 -0.019157145 0.74500006 13423059
0.0035380954 -0.019105716 0.74300003 12896978
0.0049533336 -0.019105716 0.74300003 12371658
0.0063685714 -0.019105716 0.74300003 12501187
0.0077838097 -0.019105716 0.74300003 12634059
0.0091866674 -0.01908 0.74200004 12832468
0.010571429 -0.019028571 0.74000001 13028822
0.011980952 -0.019028571 0.74000001 12963287
0.013390477 -0.019028571 0.74000001 12963284
0.0148 -0.019028571 0.74000001 13028817
0.016187619 -0.019002859 0.73900002 13159881
0.017619047 -0.019028571 0.74000001 11716034
0.019002859 -0.019002859 0.73900002 10263714
0.020410476 -0.019002859 0.73900002 8288898
0.021818096 -0.019002859 0.73900002 6387838
0.023225715 -0.019002859 0.73900002 6715258
0.024633335 -0.019002859 0.73900002 7044217
0.026076192 -0.019028571 0.74000001 7109753
0.027448572 -0.019002859 0.73900002 7175033
0.028895238 -0.019028571 0.74000001 7175034
0.030263809 -0.019002859 0.73900002 7174776
0.031714283 -0.019028571 0.74000001 7109239
0.03307905 -0.019002859 0.73900002 7108986
0.034533337 -0.019028571 0.74000001 7108988
0.03594286 -0.019028571 0.74000001 7108987
0.037352383 -0.019028571 0.74000001 7043451
0.038761906 -0.019028571 0.74000001 6977915
0.040280003 -0.01908 0.74200004 6977916
0.041693337 -0.01908 0.74200004 7043450
0.043106668 -0.01908 0.74200004 6978168
0.044520002 -0.01908 0.74200004 6978167
0.045995239 -0.019105716 0.74300003 6845815
0.047410477 -0.019105716 0.74300003 6781071
0.048825715 -0.019105716 0.74300003 8559527
0.050376195 -0.019157145 0.74500006 10332584
0.05165619 -0.019105716 0.74300003 10266536
0.053214289 -0.019157145 0.74500006 10265766
0.054633338 -0.019157145 0.74500006 10396580
0.056052383 -0.019157145 0.74500006 10592929
0.057471432 -0.019157145 0.74500006 10395549
0.058890481 -0.019157145 0.74500006 10198685
0.060309529 -0.019157145 0.74500006 10067358
0.06189429 -0.019208571 0.74700004 10001308
0.0634019 -0.019234287 0.74800003 9804698
0.065000005 -0.019285716 0.75000006 9672855
0.066428579 -0.019285716 0.75000006 9541779
0.068038099 -0.019337144 0.75200003 9410192
0.069470473 -0.019337144 0.75200003 9278605
0.070997149 -0.019362858 0.75300002 9146506
0.07243143 -0.019362858 0.75300002 9080711
0.074061908 -0.019414287 0.75500005 9014148
0.075600006 -0.019440001 0.75600004 8817282
0.077040002 -0.019440001 0.75600004 8684672
0.078895241 -0.019542858 0.76000005 8553342
0.080448568 -0.019568572 0.76100004 8421242
0.08232858 -0.019671429 0.76500005 8223862
0.084114283 -0.01974857 0.76800001 8091764
0.0858 -0.0198 0.77000004 8025715
0.087266669 -0.0198 0.77000004 7958383
0.088963814 -0.019851428 0.77200001 7893099
0.090434283 -0.019851428 0.77200001 7893353
0.091904759 -0.019851428 0.77200001 9343847
0.093375236 -0.019851428 0.77200001 10852217
0.09484572 -0.019851428 0.77200001 10984587
0.096316196 -0.019851428 0.77200001 11116948
-0.084293336 -0.019333335 0.81200004 2235981
-0.08274667 -0.019333335 0.81200004 4984414
-0.081200004 -0.019333335 0.81200004 7840678
-0.079653338 -0.019333335 0.81200004 11263470
-0.078106664 -0.019333335 0.81200004 14608104
-0.076559998 -0.019333335 0.81200004 14080995
-0.07482858 -0.019285716 0.81000006 13554913
-0.073285721 -0.019285716 0.81000006 13160415
-0.071742862 -0.019285716 0.81000006 12831953
-0.070200004 -0.019285716 0.81000006 12566467
-0.068657145 -0.019285716 0.81000006 12238276
-0.067114294 -0.019285716 0.81000006 12106949
-0.065733336 -0.019333335 0.81200004 12041409
-0.06418667 -0.019333335 0.81200004 11844797
-0.062640004 -0.019333335 0.81200004 11713728
-0.061093334 -0.019333335 0.81200004 11778756
-0.059546668 -0.019333335 0.81200004 11843487
-0.058000002 -0.019333335 0.81200004 8160890
-0.056453332 -0.019333335 0.81200004 4529491
-0.05490667 -0.019333335 0.81200004 4006957
-0.03132857 -0.018214287 0.76500005 7121094
-0.02987143 -0.018214287 0.76500005 13758171
-0.028414287 -0.018214287 0.76500005 14018033
-0.026886668 -0.018166667 0.76300001 14344428
-0.025433334 -0.018166667 0.76300001 14213351
-0.023917144 -0.018119048 0.76100004 14147301
-0.022379048 -0.01804762 0.75800002 14081764
-0.020935237 -0.01804762 0.75800002 14016227
-0.019440001 -0.018000001 0.75600004 13949922
-0.018000001 -0.018000001 0.75600004 13949922
-0.016472382 -0.017904762 0.75200003 13949922
-0.01506 -0.017928572 0.75300002 13950176
-0.01360762 -0.017904762 0.75200003 13883615
-0.012142858 -0.017857144 0.75000006 13818334
-0.010714287 -0.017857144 0.75000006 13752286
-0.0092857154 -0.017857144 0.75000006 13752027
-0.0078571439 -0.017857144 0.75000006 13752025
-0.006411429 -0.017809525 0.74800003 13752284
-0.0049800002 -0.017785715 0.74700004 13686495
-0.0035476193 -0.017738096 0.74500006 13620957
-0.0021285715 -0.017738096 0.74500006 13555164
-0.00070952385 -0.017738096 0.74500006 13554393
0.00070952385 -0.017738096 0.74500006 13423062
0.0021285715 -0.017738096 0.74500006 13291985
0.0035380954 -0.017690476 0.74300003 12830925
0.0049533336 -0.017690476 0.74300003 12371147
0.0063685714 -0.017690476 0.74300003 12568778
0.0077733337 -0.017666668 0.74200004 12766669
0.0091866674 -0.017666668 0.74200004 12897745
0.010571429 -0.017619047 0.74000001 13028818
0.011980952 -0.017619047 0.74000001 12963284
0.013390477 -0.017619047 0.74000001 12963540
0.0148 -0.017619047 0.74000001 13029076
0.016187619 -0.017595239 0.73900002 13094591
0.017595239 -0.017595239 0.73900002 11189675
0.019002859 -0.017595239 0.73900002 9209489
0.020410476 -0.017595239 0.73900002 7960439
0.021818096 -0.017595239 0.73900002 6650232
0.023225715 -0.017595239 0.73900002 6912378
0.024633335 -0.017595239 0.73900002 7109497
0.026040953 -0.017595239 0.73900002 7109241
0.027448572 -0.017595239 0.73900002 7108985
0.028856192 -0.017595239 0.73900002 7108986
0.030263809 -0.017595239 0.73900002 7174775
0.031671431 -0.017595239 0.73900002 7108980
0.03307905 -0.017595239 0.73900002 7043193
0.034533337 -0.017619047 0.74000001 7043454
0.03594286 -0.017619047 0.74000001 7108988
0.037352383 -0.017619047 0.74000001 7043450
0.038761906 -0.017619047 0.74000001 7043707
0.040280003 -0.017666668 0.74200004 7043452
0.041580953 -0.017619047 0.74000001 7109241
0.043106668 -0.017666668 0.74200004 7043702
0.044520002 -0.017666668 0.74200004 7043704
0.045995239 -0.017690476 0.74300003 7043707
0.047410477 -0.017690476 0.74300003 7045008
0.048825715 -0.017690476 0.74300003 8692133
0.050376195 -0.017738096 0.74500006 10398633
0.051795244 -0.017738096 0.74500006 10331566
0.053214289 -0.017738096 0.74500006 10265513
0.054633338 -0.017738096 0.74500006 10331044
0.056052383 -0.017738096 0.74500006 10462112
0.057471432 -0.017738096 0.74500006 10330268
0.058890481 -0.017738096 0.74500006 10198685
0.06047143 -0.017785715 0.74700004 10067102
0.06189429 -0.017785715 0.74700004 10001308
0.0634019 -0.017809525 0.74800003 9869979
0.065000005 -0.017857144 0.75000006 9738392
0.066428579 -0.017857144 0.75000006 9541269
0.068038099 -0.017904762 0.75200003 9409937
0.069470473 -0.017904762 0.75200003 9343629
0.070997149 -0.017928572 0.75300002 9211787
0.072623812 -0.017976193 0.75500005 9080457
0.074061908 -0.017976193 0.75500005 9014406
0.075600006 -0.018000001 0.75600004 8817028
0.077447623 -0.01809524 0.76000005 8684673
0.078895241 -0.01809524 0.76000005 8487806
0.08066 -0.018166667 0.76300001 8355960
0.08232858 -0.018214287 0.76500005 8224115
0.08400476 -0.018261906 0.76700002 8026739
0.0858 -0.018333334 0.77000004 7894643
0.087493338 -0.018380953 0.77200001 7761261
0.088963814 -0.018380953 0.77200001 7629416
0.090434283 -0.018380953 0.77200001 7502691
0.091904759 -0.018380953 0.77200001 8028511
0.093496196 -0.018404763 0.77300006 8554599
0.09496858 -0.018404763 0.77300006 8488816
0.096316196 -0.018380953 0.77200001 8423032
-0.084500946 -0.017830476 0.81400001 2104914
-0.08274667 -0.017786667 0.81200004 5249639
-0.081200004 -0.017786667 0.81200004 8430761
-0.079653338 -0.017786667 0.81200004 11526380
-0.078106664 -0.017786667 0.81200004 14607846
-0.076559998 -0.017786667 0.81200004 14081247
-0.07482858 -0.017742857 0.81000006 13555167
-0.073285721 -0.017742857 0.81000006 13159903
-0.071742862 -0.017742857 0.81000006 12765904
-0.070200004 -0.017742857 0.81000006 12500930
-0.068657145 -0.017742857 0.81000006 12238274
-0.067280002 -0.017786667 0.81200004 12106435
-0.065733336 -0.017786667 0.81200004 12041151
-0.06418667 -0.017786667 0.81200004 11910587
-0.062640004 -0.017786667 0.81200004 11779262
-0.061093334 -0.017786667 0.81200004 11779009
-0.059546668 -0.017786667 0.81200004 11776925
-0.058000002 -0.017786667 0.81200004 7897464
-0.056453332 -0.017786667 0.81200004 4001620
-0.05490667 -0.017786667 0.81200004 4075313
-0.03132857 -0.016757144 0.76500005 7187395
-0.02987143 -0.016757144 0.76500005 13823194
-0.028414287 -0.016757144 0.76500005 14083312
-0.026886668 -0.016713332 0.76300001 14344940
-0.025433334 -0.016713332 0.76300001 14278888
-0.023917144 -0.016669523 0.76100004 14213094
-0.022379048 -0.016603809 0.75800002 14081764
-0.020880001 -0.016559999 0.75600004 14015970
-0.019440001 -0.016559999 0.75600004 13949921
-0.017976193 -0.016538097 0.75500005 13949922
-0.016472382 -0.016472382 0.75200003 13884387
-0.015040001 -0.016472382 0.75200003 13884385
-0.01360762 -0.016472382 0.75200003 13883615
-0.012142858 -0.016428573 0.75000006 13883871
-0.010714287 -0.016428573 0.75000006 13818848
-0.0092857154 -0.016428573 0.75000006 13817566
-0.007836191 -0.016384762 0.74800003 13751772
-0.006411429 -0.016384762 0.74800003 13752031
-0.0049800002 -0.016362859 0.74700004 13687266
-0.0035476193 -0.01631905 0.74500006 13686495
-0.0021285715 -0.01631905 0.74500006 13620956
-0.00070952385 -0.01631905 0.74500006 13620698
0.00070952385 -0.01631905 0.74500006 13424088
0.0021228571 -0.016275238 0.74300003 13226192
0.0035380954 -0.016275238 0.74300003 12765127
0.0049533336 -0.016275238 0.74300003 12372169
0.0063685714 -0.016275238 0.74300003 12634827
0.0077733337 -0.016253335 0.74200004 12963281
0.0091619045 -0.016209524 0.74000001 12963799
0.010571429 -0.016209524 0.74000001 13028820
0.011980952 -0.016209524 0.74000001 12963282
0.013390477 -0.016209524 0.74000001 12963538
0.01478 -0.016187619 0.73900002 13029586
0.016187619 -0.016187619 0.73900002 13093824
0.017595239 -0.016187619 0.73900002 10663341
0.019002859 -0.016187619 0.73900002 8223892
0.020410476 -0.016187619 0.73900002 7566715
0.021818096 -0.016187619 0.73900002 6977399
0.023225715 -0.016187619 0.73900002 7108980
0.024633335 -0.016187619 0.73900002 7240056
0.026040953 -0.016187619 0.73900002 7108987
0.027448572 -0.016187619 0.73900002 7043197
0.028856192 -0.016187619 0.73900002 7108479
0.030263809 -0.016187619 0.73900002 7240315
0.031671431 -0.016187619 0.73900002 7108727
0.03307905 -0.016187619 0.73900002 7043193
0.034533337 -0.016209524 0.74000001 7043451
0.03594286 -0.016209524 0.74000001 7108986
0.037352383 -0.016209524 0.74000001 7109242
0.038761906 -0.016209524 0.74000001 7174522
0.040280003 -0.016253335 0.74200004 7174523
0.041693337 -0.016253335 0.74200004 7174778
0.043106668 -0.016253335 0.74200004 7174777
0.044520002 -0.016253335 0.74200004 7174778
0.045995239 -0.016275238 0.74300003 7240316
0.047410477 -0.016275238 0.74300003 7309457
0.048825715 -0.016275238 0.74300003 8890279
0.050240953 -0.016275238 0.74300003 10462632
0.051795244 -0.01631905 0.74500006 10331306
0.053214289 -0.01631905 0.74500006 10265511
0.054633338 -0.01631905 0.74500006 10331044
0.056052383 -0.01631905 0.74500006 10396323
0.057471432 -0.01631905 0.74500006 10265251
0.058890481 -0.01631905 0.74500006 10198689
0.06047143 -0.016362859 0.74700004 10132639
0.06189429 -0.016362859 0.74700004 10066589
0.0634019 -0.016384762 0.74800003 9935260
0.065000005 -0.016428573 0.75000006 9803672
0.066428579 -0.016428573 0.75000006 9606549
0.067857146 -0.016428573 0.75000006 9475218
0.069470473 -0.016472382 0.75200003 9408911
0.070997149 -0.016494285 0.75300002 9342606
0.072623812 -0.016538097 0.75500005 9145740
0.074061908 -0.016538097 0.75500005 9014152
0.075600006 -0.016559999 0.75600004 8816772
0.077447623 -0.01664762 0.76000005 8684672
0.078895241 -0.01664762 0.76000005 8487805
0.080448568 -0.016669523 0.76100004 8355961
0.08232858 -0.016757144 0.76500005 8159093
0.08400476 -0.016800953 0.76700002 8026482
0.0858 -0.016866667 0.77000004 7829359
0.087493338 -0.016910477 0.77200001 7630185
0.088963814 -0.016910477 0.77200001 7365731
0.090434283 -0.016910477 0.77200001 7102806
0.091904759 -0.016910477 0.77200001 6709066
0.093375236 -0.016910477 0.77200001 6314834
0.09484572 -0.016910477 0.77200001 6051674
-0.084500946 -0.016279999 0.81400001 1777239
-0.082950473 -0.016279999 0.81400001 5053552
-0.081200004 -0.016240001 0.81200004 8365741
-0.079653338 -0.016240001 0.81200004 11526891
-0.078106664 -0.016240001 0.81200004 14607587
-0.076559998 -0.016240001 0.81200004 14080732
-0.07482858 -0.016200002 0.81000006 13621213
-0.073285721 -0.016200002 0.81000006 13225695
-0.071742862 -0.016200002 0.81000006 12830928
-0.070200004 -0.016200002 0.81000006 12500673
-0.068657145 -0.016200002 0.81000006 12238273
-0.067280002 -0.016240001 0.81200004 12106946
-0.065733336 -0.016240001 0.81200004 11975613
-0.06418667 -0.016240001 0.81200004 11910329
-0.062640004 -0.016240001 0.81200004 11845308
-0.061093334 -0.016240001 0.81200004 11582143
-0.059693333 -0.016279999 0.81400001 11382683
-0.058142856 -0.016279999 0.81400001 7303543
-0.056592382 -0.016279999 0.81400001 3277142
-0.055041905 -0.016279999 0.81400001 3682869
-0.03132857 -0.0153 0.76500005 7121345
-0.02987143 -0.0153 0.76500005 13757144
-0.028339999 -0.015260001 0.76300001 14084080
-0.026886668 -0.015260001 0.76300001 14410989
-0.025366668 -0.01522 0.76100004 14344682
-0.023885716 -0.015200001 0.76000005 14213351
-0.022379048 -0.01516 0.75800002 14147300
-0.020880001 -0.015120002 0.75600004 14015714
-0.019440001 -0.015120002 0.75600004 14015713
-0.017976193 -0.015100001 0.75500005 13950178
-0.016494285 -0.01506 0.75300002 13884388
-0.015040001 -0.015040001 0.75200003 13818850
-0.01360762 -0.015040001 0.75200003 13884128
-0.012142858 -0.015000001 0.75000006 13949409
-0.010714287 -0.015000001 0.75000006 13883618
-0.0092609525 -0.01496 0.74800003 13752289
-0.007836191 -0.01496 0.74800003 13752032
-0.0064028576 -0.014940001 0.74700004 13752035
-0.0049800002 -0.014940001 0.74700004 13686502
-0.0035476193 -0.014900001 0.74500006 13686753
-0.0021285715 -0.014900001 0.74500006 13620700
-0.00070952385 -0.014900001 0.74500006 13555163
0.00070952385 -0.014900001 0.74500006 13423835
0.0021228571 -0.01486 0.74300003 13291726
0.0035380954 -0.01486 0.74300003 12698306
0.0049533336 -0.01486 0.74300003 12106951
0.0063600005 -0.01484 0.74200004 12569549
0.0077733337 -0.01484 0.74200004 13028821
0.0091619045 -0.0148 0.74000001 13029085
0.010571429 -0.0148 0.74000001 13094615
0.011980952 -0.0148 0.74000001 13029073
0.013390477 -0.0148 0.74000001 12963537
0.01478 -0.01478 0.73900002 12766417
0.016187619 -0.01478 0.73900002 12569024
0.017595239 -0.01478 0.73900002 10199984
0.019002859 -0.01478 0.73900002 7828119
0.020410476 -0.01478 0.73900002 7567743
0.021818096 -0.01478 0.73900002 7306871
0.023225715 -0.01478 0.73900002 7436911
0.024633335 -0.01478 0.73900002 7567222
0.026040953 -0.01478 0.73900002 7830398
0.027448572 -0.01478 0.73900002 8159105
0.028856192 -0.01478 0.73900002 7896197
0.030263809 -0.01478 0.73900002 7567999
0.031671431 -0.01478 0.73900002 7240058
0.03307905 -0.01478 0.73900002 6912377
0.034533337 -0.0148 0.74000001 6977913
0.03594286 -0.0148 0.74000001 7108985
0.037352383 -0.0148 0.74000001 7108986
0.038866669 -0.01484 0.74200004 7108986
0.040280003 -0.01484 0.74200004 7108986
0.041580953 -0.0148 0.74000001 7109243
0.043106668 -0.01484 0.74200004 7108989
0.044520002 -0.01484 0.74200004 7174525
0.045995239 -0.01486 0.74300003 7371645
0.047410477 -0.01486 0.74300003 7573907
0.048825715 -0.01486 0.74300003 9022122
0.050240953 -0.01486 0.74300003 10463144
0.051795244 -0.014900001 0.74500006 10331302
0.053214289 -0.014900001 0.74500006 10200229
0.054633338 -0.014900001 0.74500006 10265509
0.056052383 -0.014900001 0.74500006 10264999
0.057471432 -0.014900001 0.74500006 10199466
0.059048574 -0.014940001 0.74700004 10133157
0.06047143 -0.014940001 0.74700004 10067104
0.06189429 -0.014940001 0.74700004 10001054
0.063317142 -0.014940001 0.74700004 9869725
0.065000005 -0.015000001 0.75000006 9803673
0.066428579 -0.015000001 0.75000006 9606550
0.067857146 -0.015000001 0.75000006 9474964
0.069470473 -0.015040001 0.75200003 9343378
0.070997149 -0.01506 0.75300002 9277073
0.072623812 -0.015100001 0.75500005 9145488
0.074061908 -0.015100001 0.75500005 9014154
0.075600006 -0.015120002 0.75600004 8816772
0.077447623 -0.015200001 0.76000005 8619392
0.078895241 -0.015200001 0.76000005 8487804
0.08066 -0.015260001 0.76300001 8356217
0.08232858 -0.0153 0.76500005 8224375
0.08400476 -0.01534 0.76700002 8026225
0.085577145 -0.015360001 0.76800001 7828332
0.087266669 -0.0154 0.77000004 7630181
0.088963814 -0.015439999 0.77200001 7431774
0.090434283 -0.015439999 0.77200001 7298889
0.091904759 -0.015439999 0.77200001 7035957
0.093375236 -0.015439999 0.77200001 6766908
0.09484572 -0.015439999 0.77200001 6767684
-0.086580001 -0.014820001 0.81900007 2569532
-0.08460477 -0.01474762 0.81500006 1514323
-0.082950473 -0.014729524 0.81400001 4922987
-0.0814 -0.014729524 0.81400001 8365483
-0.079653338 -0.014693334 0.81200004 11527659
-0.078106664 -0.014693334 0.81200004 14672867
-0.076559998 -0.014693334 0.81200004 14145755
-0.075013332 -0.014693334 0.81200004 13686749
-0.073285721 -0.014657144 0.81000006 13291743
-0.071742862 -0.014657144 0.81000006 12896976
-0.070200004 -0.014657144 0.81000006 12566210
-0.068657145 -0.014657144 0.81000006 12238529
-0.067280002 -0.014693334 0.81200004 12107457
-0.065733336 -0.014693334 0.81200004 11975870
-0.06418667 -0.014693334 0.81200004 11909819
-0.062640004 -0.014693334 0.81200004 11910333
-0.061093334 -0.014693334 0.81200004 11451071
-0.059546668 -0.014693334 0.81200004 11053972
-0.058000002 -0.014693334 0.81200004 6775401
-0.056453332 -0.014693334 0.81200004 2575185
-0.055041905 -0.014729524 0.81400001 3355961
-0.03132857 -0.013842857 0.76500005 7055554
-0.02987143 -0.013842857 0.76500005 13691097
-0.028339999 -0.013806666 0.76300001 14084848
-0.026886668 -0.013806666 0.76300001 14541548
-0.025366668 -0.013770477 0.76100004 14410472
-0.023885716 -0.013752381 0.76000005 14278886
-0.022379048 -0.013716191 0.75800002 14147300
-0.020880001 -0.01368 0.75600004 14081249
-0.019440001 -0.01368 0.75600004 14015711
-0.017976193 -0.013661906 0.75500005 14015713
-0.016494285 -0.013625714 0.75300002 13884642
-0.015040001 -0.01360762 0.75200003 13818849
-0.01360762 -0.01360762 0.75200003 13949919
-0.012142858 -0.013571429 0.75000006 14080224
-0.010714287 -0.013571429 0.75000006 13883361
-0.0092609525 -0.013535239 0.74800003 13752288
-0.007836191 -0.013535239 0.74800003 13752288
-0.0064028576 -0.013517143 0.74700004 13817569
-0.0049800002 -0.013517143 0.74700004 13752290
-0.0035476193 -0.013480954 0.74500006 13686238
-0.0021285715 -0.013480954 0.74500006 13554907
-0.00070952385 -0.013480954 0.74500006 13489115
0.00070952385 -0.013480954 0.74500006 13423579
0.0021228571 -0.013444763 0.74300003 13357263
0.0035380954 -0.013444763 0.74300003 12565955
0.0049533336 -0.013444763 0.74300003 11844810
0.0063685714 -0.013444763 0.74300003 12438737
0.0077838097 -0.013444763 0.74300003 13094612
0.0091866674 -0.013426667 0.74200004 13095128
0.010571429 -0.013390477 0.74000001 13160147
0.011980952 -0.013390477 0.74000001 13094606
0.013390477 -0.013390477 0.74000001 13029071
0.01478 -0.013372381 0.73900002 12569552
0.016187619 -0.013372381 0.73900002 12107713
0.017595239 -0.013372381 0.73900002 9736626
0.019002859 -0.013372381 0.73900002 7440283
0.020410476 -0.013372381 0.73900002 7503236
0.021818096 -0.013372381 0.73900002 7634045
0.023225715 -0.013372381 0.73900002 7764854
