# .PCD v0.7 - Point Cloud Data file format
VERSION 0.7
FIELDS x y z rgba
SIZE 4 4 4 4
TYPE F F F U
COUNT 1 1 1 1
WIDTH 1065
HEIGHT 1
VIEWPOINT 0 0 0 1 0 0 0
POINTS 1065
DATA ascii
0.059760004 -0.075600006 0.75600004 13883095
0.0612 -0.075600006 0.75600004 13290698
0.062640004 -0.075600006 0.75600004 12696016
0.06408 -0.075600006 0.75600004 12368086
0.065693334 -0.075800002 0.75800002 12105693
0.066960007 -0.075600006 0.75600004 12238565
0.068580955 -0.075800002 0.75800002 12436955
0.069839999 -0.075600006 0.75600004 12964049
0.071280003 -0.075600006 0.75600004 13554899
0.072719999 -0.075600006 0.75600004 13620181
-0.033814285 -0.077397145 0.78900003 16709864
-0.032311428 -0.077397145 0.78900003 14742495
-0.030769525 -0.077299051 0.78800005 12834530
-0.029194286 -0.077102855 0.78600001 12630502
-0.027626667 -0.076906674 0.78400004 12435687
-0.026133334 -0.076906674 0.78400004 12634344
-0.024577145 -0.076710477 0.78200006 12830954
-0.023028571 -0.076514289 0.78000003 13093356
-0.021542858 -0.076514289 0.78000003 13356774
-0.01998 -0.076219998 0.77700001 13358047
-0.0185 -0.076219998 0.77700001 13425121
-0.01702 -0.076219998 0.77700001 13557988
-0.015500002 -0.07602381 0.77500004 13754080
-0.01398762 -0.075827621 0.77300006 13753820
-0.012515238 -0.075827621 0.77300006 13751259
-0.011028571 -0.075729519 0.77200001 13554139
-0.0095580956 -0.075729519 0.77200001 13357274
-0.0080876192 -0.075729519 0.77200001 13226201
-0.0066000004 -0.075533338 0.77000004 13094615
-0.0051333336 -0.075533338 0.77000004 13028821
-0.0036666668 -0.075533338 0.77000004 12962519
-0.0021942856 -0.075337149 0.76800001 12830936
-0.00073142856 -0.075337149 0.76800001 12765397
0.00073142856 -0.075337149 0.76800001 12896465
0.0021914286 -0.075239047 0.76700002 13093073
0.003652381 -0.075239047 0.76700002 13027538
0.0051000006 -0.075042859 0.76500005 12962001
0.0065571428 -0.075042859 0.76500005 12896721
0.007993333 -0.07484667 0.76300001 12831184
0.0094466675 -0.07484667 0.76300001 12831182
0.010871429 -0.074650481 0.76100004 12830668
0.012320952 -0.074650481 0.76100004 12764617
0.013770477 -0.074650481 0.76100004 12699082
0.01522 -0.074650481 0.76100004 12437452
0.01664762 -0.074552387 0.76000005 12174288
0.01809524 -0.074552387 0.76000005 12436693
0.019542858 -0.074552387 0.76000005 12699602
0.020990476 -0.074552387 0.76000005 13028304
0.022438096 -0.074552387 0.76000005 13357267
0.023822857 -0.074356191 0.75800002 13227734
0.025266668 -0.074356191 0.75800002 13160920
0.026710477 -0.074356191 0.75800002 13028570
0.028154286 -0.074356191 0.75800002 12963548
0.029598096 -0.074356191 0.75800002 12964575
0.031041905 -0.074356191 0.75800002 13029344
0.032485716 -0.074356191 0.75800002 12897505
0.033840001 -0.074160002 0.75600004 12834534
0.03528 -0.074160002 0.75600004 13885931
0.036720004 -0.074160002 0.75600004 15003376
0.03816 -0.074160002 0.75600004 15727605
0.0396 -0.074160002 0.75600004 16448759
0.040985718 -0.074061908 0.75500005 16580345
0.042423811 -0.074061908 0.75500005 16711419
0.043861907 -0.074061908 0.75500005 16711422
0.045180004 -0.073865719 0.75300002 16710395
0.046614286 -0.073865719 0.75300002 16316409
0.048048571 -0.073865719 0.75300002 15922679
0.049482856 -0.073865719 0.75300002 15659766
0.050917145 -0.073865719 0.75300002 15397621
0.05235143 -0.073865719 0.75300002 15198452
0.053785715 -0.073865719 0.75300002 15001585
0.05522 -0.073865719 0.75300002 14804718
0.056654289 -0.073865719 0.75300002 14606824
0.058088571 -0.073865719 0.75300002 14277858
0.059680957 -0.074061908 0.75500005 14014425
0.06111905 -0.074061908 0.75500005 13227729
0.062640004 -0.074160002 0.75600004 12499916
0.06408 -0.074160002 0.75600004 11644104
0.065520003 -0.074160002 0.75600004 10792394
0.066960007 -0.074160002 0.75600004 11055053
0.068400003 -0.074160002 0.75600004 11319760
0.069839999 -0.074160002 0.75600004 12439252
0.071280003 -0.074160002 0.75600004 13620692
0.072719999 -0.074160002 0.75600004 13620437
0.074160002 -0.074160002 0.75600004 13685717
-0.035406668 -0.076086663 0.79100001 14672884
-0.0339 -0.076086663 0.79100001 14928346
-0.032311428 -0.075894289 0.78900003 14149312
-0.030769525 -0.075798102 0.78800005 13410759
-0.029194286 -0.075605713 0.78600001 13416142
-0.027626667 -0.075413339 0.78400004 13487312
-0.026133334 -0.075413339 0.78400004 13421779
-0.024577145 -0.075220957 0.78200006 13290967
-0.023028571 -0.075028576 0.78000003 13422811
-0.021542858 -0.075028576 0.78000003 13491676
-0.01998 -0.07474 0.77700001 13491678
-0.0185 -0.07474 0.77700001 13426143
-0.01702 -0.07474 0.77700001 13490656
-0.015500002 -0.074547619 0.77500004 13620960
-0.01398762 -0.074355245 0.77300006 13554656
-0.012515238 -0.074355245 0.77300006 13554142
-0.011028571 -0.07425905 0.77200001 13423068
-0.0095580956 -0.07425905 0.77200001 13357271
-0.0080876192 -0.07425905 0.77200001 13226195
-0.0066000004 -0.074066669 0.77000004 13094868
-0.0051333336 -0.074066669 0.77000004 13029078
-0.0036666668 -0.074066669 0.77000004 13028821
-0.0021942856 -0.073874287 0.76800001 12963029
-0.00073142856 -0.073874287 0.76800001 12897236
0.00073142856 -0.073874287 0.76800001 12896979
0.0021914286 -0.0737781 0.76700002 12962515
0.0036428573 -0.073585719 0.76500005 12962259
0.0051000006 -0.073585719 0.76500005 12896723
0.00654 -0.073393337 0.76300001 12896723
0.0079723811 -0.073200949 0.76100004 12831442
0.0094219055 -0.073200949 0.76100004 12831185
0.010857143 -0.073104762 0.76000005 12765646
0.012304762 -0.073104762 0.76000005 12699084
0.013770477 -0.073200949 0.76100004 12633544
0.015200001 -0.073104762 0.76000005 12436676
0.01664762 -0.073104762 0.76000005 12305348
0.01809524 -0.073104762 0.76000005 12436933
0.019542858 -0.073104762 0.76000005 12633799
0.020990476 -0.073104762 0.76000005 12764874
0.022438096 -0.073104762 0.76000005 12961740
0.023822857 -0.07291238 0.75800002 12831439
0.025266668 -0.07291238 0.75800002 12766671
0.026710477 -0.07291238 0.75800002 12766672
0.028154286 -0.07291238 0.75800002 12766927
0.029598096 -0.07291238 0.75800002 12766414
0.031041905 -0.07291238 0.75800002 12831437
0.032485716 -0.07291238 0.75800002 12765388
0.033840001 -0.072719999 0.75600004 12698834
0.03528 -0.072719999 0.75600004 13224409
0.036720004 -0.072719999 0.75600004 13749986
0.03816 -0.072719999 0.75600004 14144748
0.0396 -0.072719999 0.75600004 14474224
0.040985718 -0.072623812 0.75500005 14871541
0.042423811 -0.072623812 0.75500005 15268857
0.043861907 -0.072623812 0.75500005 15727870
0.045180004 -0.07243143 0.75300002 16187133
0.046614286 -0.07243143 0.75300002 16120572
0.048048571 -0.07243143 0.75300002 16053753
0.049417142 -0.072335243 0.75200003 15725046
0.050849527 -0.072335243 0.75200003 15397365
0.052281909 -0.072335243 0.75200003 15133172
0.053785715 -0.07243143 0.75300002 14936044
0.055146668 -0.072335243 0.75200003 14541285
0.05657905 -0.072335243 0.75200003 14212067
0.058088571 -0.07243143 0.75300002 13949409
0.059680957 -0.072623812 0.75500005 13687004
0.06111905 -0.072623812 0.75500005 13160920
0.062557146 -0.072623812 0.75500005 12631497
0.063995242 -0.072623812 0.75500005 11710907
0.065520003 -0.072719999 0.75600004 10859192
0.066960007 -0.072719999 0.75600004 10727349
0.068400003 -0.072719999 0.75600004 10661318
0.069839999 -0.072719999 0.75600004 12044504
0.071280003 -0.072719999 0.75600004 13490134
0.072719999 -0.072719999 0.75600004 13620437
0.074160002 -0.072719999 0.75600004 13816790
-0.036913332 -0.074579999 0.79100001 12305377
-0.035406668 -0.074579999 0.79100001 12699374
-0.0339 -0.074579999 0.79100001 13160673
-0.032311428 -0.074391425 0.78900003 13556437
-0.030769525 -0.074297145 0.78800005 14016986
-0.029194286 -0.074108571 0.78600001 14281184
-0.027626667 -0.073920004 0.78400004 14606813
-0.026133334 -0.073920004 0.78400004 14211546
-0.024514288 -0.073542856 0.78000003 13818072
-0.023028571 -0.073542856 0.78000003 13752279
-0.021542858 -0.073542856 0.78000003 13685978
-0.01998 -0.073260002 0.77700001 13554140
-0.0185 -0.073260002 0.77700001 13488603
-0.01702 -0.073260002 0.77700001 13488857
-0.015500002 -0.073071435 0.77500004 13488858
-0.01402381 -0.073071435 0.77500004 13423323
-0.012515238 -0.072882861 0.77300006 13423066
-0.011028571 -0.072788574 0.77200001 13357530
-0.0095580956 -0.072788574 0.77200001 13357270
-0.0080876192 -0.072788574 0.77200001 13226194
-0.0066000004 -0.0726 0.77000004 13094867
-0.0051333336 -0.0726 0.77000004 13094869
-0.0036666668 -0.0726 0.77000004 13159892
-0.0021942856 -0.072411425 0.76800001 13094611
-0.00073142856 -0.072411425 0.76800001 13028819
0.00073047623 -0.072317138 0.76700002 12963027
0.0021857144 -0.072128579 0.76500005 12897490
0.0036428573 -0.072128579 0.76500005 12897489
0.0050866669 -0.071940005 0.76300001 12896976
0.00654 -0.071940005 0.76300001 12897231
0.0079723811 -0.071751431 0.76100004 12896973
0.0094219055 -0.071751431 0.76100004 12831435
0.010871429 -0.071751431 0.76100004 12765129
0.012304762 -0.071657151 0.76000005 12633800
0.013770477 -0.071751431 0.76100004 12567749
0.01522 -0.071751431 0.76100004 12501954
0.01664762 -0.071657151 0.76000005 12501955
0.018119048 -0.071751431 0.76100004 12502724
0.019568572 -0.071751431 0.76100004 12568262
0.020990476 -0.071657151 0.76000005 12568265
0.022438096 -0.071657151 0.76000005 12568266
0.023885716 -0.071657151 0.76000005 12437452
0.025266668 -0.071468569 0.75800002 12371404
0.026710477 -0.071468569 0.75800002 12502221
0.028154286 -0.071468569 0.75800002 12633037
0.029598096 -0.071468569 0.75800002 12633037
0.031041905 -0.071468569 0.75800002 12633292
0.032485716 -0.071468569 0.75800002 12633804
0.033840001 -0.071280003 0.75600004 12633808
0.03528 -0.071280003 0.75600004 12568277
0.036720004 -0.071280003 0.75600004 12568538
0.03816 -0.071280003 0.75600004 12568799
0.039547618 -0.071185715 0.75500005 12570082
0.040985718 -0.071185715 0.75500005 13226981
0.042423811 -0.071185715 0.75500005 13884908
0.043745715 -0.070997149 0.75300002 14805235
0.045180004 -0.070997149 0.75300002 15725558
0.046552382 -0.070902862 0.75200003 15924984
0.047984764 -0.070902862 0.75200003 16184055
0.049417142 -0.070902862 0.75200003 15789813
0.050849527 -0.070902862 0.75200003 15396083
0.052281909 -0.070902862 0.75200003 15133681
0.053714287 -0.070902862 0.75200003 14936044
0.055146668 -0.070902862 0.75200003 14343655
0.05657905 -0.070902862 0.75200003 13818593
0.058011431 -0.070902862 0.75200003 13554140
0.059522856 -0.070997149 0.75300002 13357017
0.060957149 -0.070997149 0.75300002 13028823
0.062557146 -0.071185715 0.75500005 12764106
0.063995242 -0.071185715 0.75500005 11843261
0.065433331 -0.071185715 0.75500005 10923699
0.066871434 -0.071185715 0.75500005 10460073
0.068309531 -0.071185715 0.75500005 10068156
0.069747627 -0.071185715 0.75500005 11715280
0.071280003 -0.071280003 0.75600004 13357267
0.072719999 -0.071280003 0.75600004 13686230
0.074160002 -0.071280003 0.75600004 14013143
0.075600006 -0.071280003 0.75600004 13816281
-0.038614288 -0.073442854 0.79500002 13684418
-0.037006669 -0.073258102 0.79300004 13224661
-0.035406668 -0.073073328 0.79100001 13424360
-0.033814285 -0.072888575 0.78900003 13624041
-0.032311428 -0.072888575 0.78900003 13820650
-0.030769525 -0.072796196 0.78800005 14017518
-0.029268574 -0.072796196 0.78800005 14214131
-0.027626667 -0.072426669 0.78400004 14410986
-0.026066668 -0.07224191 0.78200006 14080481
-0.024514288 -0.072057143 0.78000003 13752026
-0.023028571 -0.072057143 0.78000003 13686228
-0.021515239 -0.071964763 0.77900004 13620439
-0.01998 -0.071780004 0.77700001 13554651
-0.0185 -0.071780004 0.77700001 13488855
-0.01702 -0.071780004 0.77700001 13488851
-0.015500002 -0.071595237 0.77500004 13489109
-0.01402381 -0.071595237 0.77500004 13489111
-0.012515238 -0.071410477 0.77300006 13489111
-0.011028571 -0.071318097 0.77200001 13423064
-0.0095580956 -0.071318097 0.77200001 13357524
-0.0080666672 -0.071133338 0.77000004 13226193
-0.0066000004 -0.071133338 0.77000004 13160146
-0.0051333336 -0.071133338 0.77000004 13160404
-0.0036571429 -0.070948571 0.76800001 13159890
-0.0021942856 -0.070948571 0.76800001 13028817
-0.00073142856 -0.070948571 0.76800001 12963538
0.00073047623 -0.070856191 0.76700002 12963284
0.0021857144 -0.070671432 0.76500005 12897490
0.0036428573 -0.070671432 0.76500005 12831952
0.0050866669 -0.070486665 0.76300001 12831437
0.00654 -0.070486665 0.76300001 12766155
0.007993333 -0.070486665 0.76300001 12700872
0.0094466675 -0.070486665 0.76300001 12568773
0.010871429 -0.070301905 0.76100004 12502725
0.012320952 -0.070301905 0.76100004 12502469
0.013770477 -0.070301905 0.76100004 12501954
0.01522 -0.070301905 0.76100004 12501952
0.016669523 -0.070301905 0.76100004 12436674
0.018119048 -0.070301905 0.76100004 12436676
0.019568572 -0.070301905 0.76100004 12502470
0.021018095 -0.070301905 0.76100004 12502472
0.022438096 -0.070209526 0.76000005 12502472
0.023885716 -0.070209526 0.76000005 12437193
0.025266668 -0.070024759 0.75800002 12437450
0.026710477 -0.070024759 0.75800002 12502475
0.028154286 -0.070024759 0.75800002 12633291
0.029598096 -0.070024759 0.75800002 12633292
0.031041905 -0.070024759 0.75800002 12633548
0.032400001 -0.069839999 0.75600004 12633804
0.033840001 -0.069839999 0.75600004 12634318
0.03528 -0.069839999 0.75600004 12634577
0.036720004 -0.069839999 0.75600004 12700369
0.03816 -0.069839999 0.75600004 12699858
0.039547618 -0.069747627 0.75500005 12699603
0.040985718 -0.069747627 0.75500005 13094357
0.042423811 -0.069747627 0.75500005 13488607
0.043745715 -0.06956286 0.75300002 14082025
0.045120001 -0.069470473 0.75200003 14672879
0.046552382 -0.069470473 0.75200003 14936565
0.047984764 -0.069470473 0.75200003 15200501
0.049417142 -0.069470473 0.75200003 15199733
0.050849527 -0.069470473 0.75200003 15199474
0.052281909 -0.069470473 0.75200003 14936815
0.053714287 -0.069470473 0.75200003 14674156
0.055000003 -0.069285721 0.75000006 14277865
0.05657905 -0.069470473 0.75200003 13883872
0.058011431 -0.069470473 0.75200003 13685975
0.059443813 -0.069470473 0.75200003 13422038
0.060876191 -0.069470473 0.75200003 13028310
0.06239143 -0.06956286 0.75300002 12700362
0.063825712 -0.06956286 0.75300002 11778239
0.065433331 -0.069747627 0.75500005 10922926
0.066871434 -0.069747627 0.75500005 10525598
0.068309531 -0.069747627 0.75500005 10130611
0.069839999 -0.069839999 0.75600004 11252680
0.071280003 -0.069839999 0.75600004 12372432
0.07291238 -0.070024759 0.75800002 13161176
0.074160002 -0.069839999 0.75600004 13947609
0.075600006 -0.069839999 0.75600004 13751003
-0.040280003 -0.072200008 0.79800004 13290969
-0.038711432 -0.072109528 0.79700005 13753299
-0.037006669 -0.071747623 0.79300004 14212573
-0.035406668 -0.071566671 0.79100001 14147814
-0.0339 -0.071566671 0.79100001 14147303
-0.03227048 -0.071295246 0.78800005 14081512
-0.030769525 -0.071295246 0.78800005 14081771
-0.029194286 -0.071114287 0.78600001 14147821
-0.027626667 -0.070933335 0.78400004 14213863
-0.026066668 -0.07075239 0.78200006 13949409
-0.024514288 -0.07057143 0.78000003 13752284
-0.023028571 -0.07057143 0.78000003 13686232
-0.021515239 -0.070480958 0.77900004 13620441
-0.01998 -0.070299998 0.77700001 13554907
-0.0185 -0.070299998 0.77700001 13489112
-0.016976191 -0.070119046 0.77500004 13489110
-0.015500002 -0.070119046 0.77500004 13554647
-0.01402381 -0.070119046 0.77500004 13554649
-0.012515238 -0.069938101 0.77300006 13554649
-0.011042858 -0.069938101 0.77300006 13488601
-0.0095580956 -0.069847621 0.77200001 13423062
-0.0080876192 -0.069847621 0.77200001 13291731
-0.0066000004 -0.069666669 0.77000004 13225940
-0.0051333336 -0.069666669 0.77000004 13160404
-0.0036571429 -0.069485709 0.76800001 13159890
-0.0021942856 -0.069485709 0.76800001 13028305
-0.00073142856 -0.069485709 0.76800001 12963284
0.00073047623 -0.069395244 0.76700002 12963543
0.0021857144 -0.069214284 0.76500005 12963026
0.0036428573 -0.069214284 0.76500005 12832206
0.0050866669 -0.069033332 0.76300001 12765900
0.00654 -0.069033332 0.76300001 12633545
0.007993333 -0.069033332 0.76300001 12502213
0.0094466675 -0.069033332 0.76300001 12371137
0.010871429 -0.068852387 0.76100004 12240066
0.012320952 -0.068852387 0.76100004 12371395
0.013770477 -0.068852387 0.76100004 12501952
0.01522 -0.068852387 0.76100004 12436670
0.016669523 -0.068852387 0.76100004 12436672
0.018119048 -0.068852387 0.76100004 12436674
0.019568572 -0.068852387 0.76100004 12436676
0.021018095 -0.068852387 0.76100004 12436935
0.022438096 -0.068761908 0.76000005 12436935
0.023885716 -0.068761908 0.76000005 12502728
0.025333336 -0.068761908 0.76000005 12568265
0.026710477 -0.068580955 0.75800002 12568266
0.028154286 -0.068580955 0.75800002 12633802
0.029598096 -0.068580955 0.75800002 12633801
0.031041905 -0.068580955 0.75800002 12699337
0.032400001 -0.068400003 0.75600004 12633801
0.033840001 -0.068400003 0.75600004 12634059
0.03528 -0.068400003 0.75600004 12700365
0.03667143 -0.068309531 0.75500005 12831182
0.038109526 -0.068309531 0.75500005 12831183
0.039547618 -0.068309531 0.75500005 12896722
0.040877145 -0.068128571 0.75300002 12962261
0.04231143 -0.068128571 0.75300002 13094875
0.043687619 -0.068038099 0.75200003 13359072
0.045120001 -0.068038099 0.75200003 13687527
0.046552382 -0.068038099 0.75200003 13950701
0.047857147 -0.067857146 0.75000006 14280173
0.049285717 -0.067857146 0.75000006 14609901
0.050714288 -0.067857146 0.75000006 15001579
0.052142859 -0.067857146 0.75000006 14672104
0.053571433 -0.067857146 0.75000006 14409446
0.055000003 -0.067857146 0.75000006 14212324
0.056428574 -0.067857146 0.75000006 14014943
0.057857145 -0.067857146 0.75000006 13752538
0.059443813 -0.068038099 0.75200003 13553623
0.060876191 -0.068038099 0.75200003 13093588
0.062308576 -0.068038099 0.75200003 12634569
0.063740954 -0.068038099 0.75200003 11778750
0.065260001 -0.068128571 0.75300002 10922671
0.066871434 -0.068309531 0.75500005 10591136
0.068309531 -0.068309531 0.75500005 10264494
0.069747627 -0.068309531 0.75500005 10855613
0.071280003 -0.068400003 0.75600004 11450829
0.07291238 -0.068580955 0.75800002 12636126
0.074356191 -0.068580955 0.75800002 13881562
0.075800002 -0.068580955 0.75800002 13750999
-0.043537147 -0.07103429 0.80200005 13483476
-0.042009525 -0.07103429 0.80200005 13619685
-0.040380955 -0.070857145 0.80000001 13823205
-0.038711432 -0.070591427 0.79700005 13949925
-0.037100002 -0.07041429 0.79500002 14081253
-0.035496194 -0.070237145 0.79300004 14080997
-0.0339 -0.07006 0.79100001 14080742
-0.032311428 -0.069882862 0.78900003 14080743
-0.030769525 -0.06979429 0.78800005 14080999
-0.029194286 -0.069617145 0.78600001 14147560
-0.027626667 -0.06944 0.78400004 14147813
-0.026066668 -0.069262862 0.78200006 13949410
-0.024514288 -0.069085717 0.78000003 13752543
-0.023028571 -0.069085717 0.78000003 13686492
-0.02146 -0.06882 0.77700001 13620956
-0.01998 -0.06882 0.77700001 13489628
-0.0185 -0.06882 0.77700001 13423834
-0.01702 -0.06882 0.77700001 13489113
-0.015500002 -0.068642862 0.77500004 13554650
-0.01402381 -0.068642862 0.77500004 13554652
-0.012515238 -0.068465717 0.77300006 13554651
-0.011042858 -0.068465717 0.77300006 13488858
-0.0095580956 -0.068377137 0.77200001 13423320
-0.0080876192 -0.068377137 0.77200001 13357526
-0.0066000004 -0.0682 0.77000004 13226197
-0.0051333336 -0.0682 0.77000004 13225941
-0.0036571429 -0.068022862 0.76800001 13226707
-0.0021942856 -0.068022862 0.76800001 13094353
-0.00073047623 -0.06793429 0.76700002 13028821
0.00073047623 -0.06793429 0.76700002 12963034
0.0021857144 -0.067757145 0.76500005 12962771
0.0036428573 -0.067757145 0.76500005 12765901
0.0051000006 -0.067757145 0.76500005 12634826
0.00654 -0.06758 0.76300001 12502472
0.007993333 -0.06758 0.76300001 12436674
0.0094466675 -0.06758 0.76300001 12370877
0.010899999 -0.06758 0.76300001 12305087
0.012353334 -0.06758 0.76300001 12370626
0.013806666 -0.06758 0.76300001 12436415
0.015260001 -0.06758 0.76300001 12436412
0.016713332 -0.06758 0.76300001 12436414
0.018119048 -0.067402862 0.76100004 12370881
0.019568572 -0.067402862 0.76100004 12305603
0.021018095 -0.067402862 0.76100004 12305350
0.022438096 -0.06731429 0.76000005 12370886
0.023885716 -0.06731429 0.76000005 12436679
0.025333336 -0.06731429 0.76000005 12502472
0.026710477 -0.067137145 0.75800002 12568010
0.028154286 -0.067137145 0.75800002 12633800
0.029598096 -0.067137145 0.75800002 12633799
0.031041905 -0.067137145 0.75800002 12634054
0.032400001 -0.066960007 0.75600004 12634054
0.033840001 -0.066960007 0.75600004 12634056
0.03528 -0.066960007 0.75600004 12765642
0.03667143 -0.066871434 0.75500005 12831179
0.038109526 -0.066871434 0.75500005 12896717
0.039547618 -0.066871434 0.75500005 12962769
0.040877145 -0.066694282 0.75300002 13028566
0.042255241 -0.066605717 0.75200003 13094615
0.043687619 -0.066605717 0.75200003 13292248
0.045120001 -0.066605717 0.75200003 13555423
0.046428576 -0.066428579 0.75000006 13752550
0.047857147 -0.066428579 0.75000006 14015462
0.049285717 -0.066428579 0.75000006 14278630
0.050714288 -0.066428579 0.75000006 14541796
0.052142859 -0.066428579 0.75000006 14409698
0.053571433 -0.066428579 0.75000006 14278112
0.055000003 -0.066428579 0.75000006 14146783
0.056428574 -0.066428579 0.75000006 13949662
0.057857145 -0.066428579 0.75000006 13752285
0.059285719 -0.066428579 0.75000006 13488855
0.06071429 -0.066428579 0.75000006 13158866
0.062308576 -0.066605717 0.75200003 12765640
0.063740954 -0.066605717 0.75200003 11976126
0.065173343 -0.066605717 0.75200003 11119024
0.066694282 -0.066694282 0.75300002 10789795
0.068128571 -0.066694282 0.75300002 10526378
0.069747627 -0.066871434 0.75500005 10395570
0.071280003 -0.066960007 0.75600004 10332875
0.072719999 -0.066960007 0.75600004 11845860
0.074356191 -0.067137145 0.75800002 13294044
0.075800002 -0.067137145 0.75800002 13489108
-0.043537147 -0.069506668 0.80200005 13753309
-0.041904762 -0.069333337 0.80000001 14017253
-0.040280003 -0.069159999 0.79800004 14344164
-0.038711432 -0.069073342 0.79700005 14146788
-0.037100002 -0.068900004 0.79500002 14015460
-0.035496194 -0.068726666 0.79300004 14014692
-0.0339 -0.068553336 0.79100001 14014693
-0.032311428 -0.068380006 0.78900003 14080487
-0.030769525 -0.068293341 0.78800005 14146537
-0.029194286 -0.068120003 0.78600001 14147563
-0.027626667 -0.067946665 0.78400004 14147044
-0.026066668 -0.067773335 0.78200006 13949662
-0.024514288 -0.067600004 0.78000003 13817820
-0.023028571 -0.067600004 0.78000003 13686747
-0.021515239 -0.067513339 0.77900004 13620957
-0.01998 -0.067340001 0.77700001 13489886
-0.0185 -0.067340001 0.77700001 13358300
-0.01702 -0.067340001 0.77700001 13423066
-0.015500002 -0.067166664 0.77500004 13554652
-0.01402381 -0.067166664 0.77500004 13554910
-0.012515238 -0.066993333 0.77300006 13620187
-0.011042858 -0.066993333 0.77300006 13554649
-0.0095580956 -0.066906668 0.77200001 13489111
-0.0080876192 -0.066906668 0.77200001 13358038
-0.0066000004 -0.066733338 0.77000004 13291733
-0.0051333336 -0.066733338 0.77000004 13291733
-0.0036571429 -0.06656 0.76800001 13291473
-0.0021942856 -0.06656 0.76800001 13225934
-0.00073047623 -0.066473335 0.76700002 13159889
0.00073047623 -0.066473335 0.76700002 13028564
0.0021857144 -0.066300005 0.76500005 12962511
0.0036428573 -0.066300005 0.76500005 12765387
0.0051000006 -0.066300005 0.76500005 12568265
0.0065571428 -0.066300005 0.76500005 12436936
0.007993333 -0.066126667 0.76300001 12370883
0.0094466675 -0.066126667 0.76300001 12370623
0.010899999 -0.066126667 0.76300001 12370625
0.012353334 -0.066126667 0.76300001 12370627
0.013806666 -0.066126667 0.76300001 12435904
0.015260001 -0.066126667 0.76300001 12435902
0.016713332 -0.066126667 0.76300001 12436159
0.018119048 -0.065953337 0.76100004 12305345
0.019568572 -0.065953337 0.76100004 12239810
0.020990476 -0.065866672 0.76000005 12239811
0.022467621 -0.065953337 0.76100004 12305346
0.023885716 -0.065866672 0.76000005 12370881
0.025333336 -0.065866672 0.76000005 12502469
0.026780955 -0.065866672 0.76000005 12568009
0.028154286 -0.065693334 0.75800002 12633799
0.029598096 -0.065693334 0.75800002 12633798
0.031041905 -0.065693334 0.75800002 12633541
0.032485716 -0.065693334 0.75800002 12633283
0.033840001 -0.065520003 0.75600004 12699334
0.03528 -0.065520003 0.75600004 12765641
0.03667143 -0.065433331 0.75500005 12896713
0.038109526 -0.065433331 0.75500005 12962505
0.039547618 -0.065433331 0.75500005 13093838
0.040877145 -0.065260001 0.75300002 13094354
0.042255241 -0.065173343 0.75200003 13159892
0.043687619 -0.065173343 0.75200003 13291222
0.045000002 -0.065000005 0.75000006 13423578
0.046428576 -0.065000005 0.75000006 13555166
0.047857147 -0.065000005 0.75000006 13752800
0.049285717 -0.065000005 0.75000006 13949411
0.050714288 -0.065000005 0.75000006 14146786
0.052142859 -0.065000005 0.75000006 14147553
0.053571433 -0.065000005 0.75000006 14212576
0.055000003 -0.065000005 0.75000006 14081247
0.056278098 -0.064826667 0.74800003 13949406
0.057702858 -0.064826667 0.74800003 13686750
0.059285719 -0.065000005 0.75000006 13488598
0.06071429 -0.065000005 0.75000006 13224399
0.062142864 -0.065000005 0.75000006 12962250
0.063740954 -0.065173343 0.75200003 12173510
0.065173343 -0.065173343 0.75200003 11383739
0.066605717 -0.065173343 0.75200003 11052977
0.068128571 -0.065260001 0.75300002 10789299
0.06956286 -0.065260001 0.75300002 10001333
0.071185715 -0.065433331 0.75500005 9281987
0.072719999 -0.065520003 0.75600004 10990289
0.074160002 -0.065520003 0.75600004 12767187
0.075600006 -0.065520003 0.75600004 13227477
0.077040002 -0.065520003 0.75600004 13751510
-0.043537147 -0.067979053 0.80200005 13885670
-0.041904762 -0.06780953 0.80000001 14016997
-0.040280003 -0.067639999 0.79800004 14212580
-0.038711432 -0.067555241 0.79700005 14080995
-0.037193336 -0.067555241 0.79700005 13949923
-0.035406668 -0.067046665 0.79100001 13949412
-0.0339 -0.067046665 0.79100001 13949157
-0.032311428 -0.066877142 0.78900003 14015207
-0.030769525 -0.066792384 0.78800005 14081259
-0.029194286 -0.066622861 0.78600001 14015471
-0.027626667 -0.06645333 0.78400004 14015460
-0.026066668 -0.066283815 0.78200006 13883866
-0.024514288 -0.066114292 0.78000003 13686746
-0.023028571 -0.066114292 0.78000003 13621211
-0.02146 -0.065859996 0.77700001 13621214
-0.01998 -0.065859996 0.77700001 13489889
-0.0185 -0.065859996 0.77700001 13423838
-0.016976191 -0.06569048 0.77500004 13489628
-0.015500002 -0.06569048 0.77500004 13555422
-0.01398762 -0.065520957 0.77300006 13555168
-0.012515238 -0.065520957 0.77300006 13555164
-0.011028571 -0.065436192 0.77200001 13489112
-0.0095580956 -0.065436192 0.77200001 13423575
-0.0080666672 -0.065266669 0.77000004 13358039
-0.0066000004 -0.065266669 0.77000004 13291990
-0.0051333336 -0.065266669 0.77000004 13226197
-0.0036571429 -0.065097138 0.76800001 13225680
-0.0021942856 -0.065097138 0.76800001 13160140
-0.00073047623 -0.06501238 0.76700002 13159885
0.00073047623 -0.06501238 0.76700002 13028814
0.0021914286 -0.06501238 0.76700002 12964044
0.0036428573 -0.064842865 0.76500005 12699594
0.0050866669 -0.064673327 0.76300001 12502217
0.00654 -0.064673327 0.76300001 12370888
0.007993333 -0.064673327 0.76300001 12305093
0.0094466675 -0.064673327 0.76300001 12305090
0.010899999 -0.064673327 0.76300001 12370371
0.012353334 -0.064673327 0.76300001 12370372
0.013806666 -0.064673327 0.76300001 12370370
0.015260001 -0.064673327 0.76300001 12370368
0.016713332 -0.064673327 0.76300001 12370369
0.018166667 -0.064673327 0.76300001 12304834
0.019568572 -0.064503811 0.76100004 12305089
0.021018095 -0.064503811 0.76100004 12305601
0.022467621 -0.064503811 0.76100004 12371390
0.023885716 -0.064419053 0.76000005 12502460
0.025333336 -0.064419053 0.76000005 12568002
0.026780955 -0.064419053 0.76000005 12633800
0.028228572 -0.064419053 0.76000005 12699591
0.029598096 -0.064249523 0.75800002 12765382
0.031041905 -0.064249523 0.75800002 12831427
0.032485716 -0.064249523 0.75800002 12830657
0.033929523 -0.064249523 0.75800002 12830149
0.03528 -0.06408 0.75600004 12896969
0.036720004 -0.06408 0.75600004 12963015
0.03816 -0.06408 0.75600004 12962758
0.039547618 -0.063995242 0.75500005 13028298
0.040877145 -0.063825712 0.75300002 13094095
0.042255241 -0.063740954 0.75200003 13094097
0.043687619 -0.063740954 0.75200003 13160148
0.045000002 -0.063571438 0.75000006 13291989
0.046428576 -0.063571438 0.75000006 13423318
0.047857147 -0.063571438 0.75000006 13621467
0.049285717 -0.063571438 0.75000006 13752544
0.050714288 -0.063571438 0.75000006 13949664
0.052003808 -0.0634019 0.74800003 13949921
0.053428572 -0.0634019 0.74800003 14015968
0.054853335 -0.0634019 0.74800003 13884128
0.056278098 -0.0634019 0.74800003 13687007
0.057702858 -0.0634019 0.74800003 13489375
0.059127621 -0.0634019 0.74800003 13357525
0.06071429 -0.063571438 0.75000006 13093324
0.062142864 -0.063571438 0.75000006 12831181
0.063571438 -0.063571438 0.75000006 12239055
0.065173343 -0.063740954 0.75200003 11714247
0.066605717 -0.063740954 0.75200003 11382463
0.068038099 -0.063740954 0.75200003 11119804
0.06956286 -0.063825712 0.75300002 10527417
0.071185715 -0.063995242 0.75500005 9935036
0.072719999 -0.06408 0.75600004 10724287
0.074160002 -0.06408 0.75600004 11585226
0.075600006 -0.06408 0.75600004 12702678
0.077040002 -0.06408 0.75600004 13818072
-0.043754287 -0.066782854 0.80600005 14016229
-0.041904762 -0.066285715 0.80000001 14016997
-0.040280003 -0.066119999 0.79800004 14081508
-0.038711432 -0.066037148 0.79700005 13949923
-0.037006669 -0.065705717 0.79300004 13884387
-0.035406668 -0.065540001 0.79100001 13884388
-0.0339 -0.065540001 0.79100001 13949924
-0.032311428 -0.065374292 0.78900003 13949925
-0.030769525 -0.065291435 0.78800005 14015464
-0.029194286 -0.065125719 0.78600001 13950186
-0.027697144 -0.065125719 0.78600001 13950179
-0.026133334 -0.064960003 0.78400004 13751260
-0.024577145 -0.064794287 0.78200006 13620955
-0.023028571 -0.064628571 0.78000003 13621211
-0.021515239 -0.064545713 0.77900004 13620956
-0.01998 -0.064379998 0.77700001 13555422
-0.0185 -0.064379998 0.77700001 13555420
-0.016976191 -0.064214289 0.77500004 13555419
-0.015500002 -0.064214289 0.77500004 13555419
-0.01402381 -0.064214289 0.77500004 13489883
-0.012515238 -0.064048581 0.77300006 13489369
-0.011028571 -0.063965715 0.77200001 13423575
-0.0095580956 -0.063965715 0.77200001 13423576
-0.0080666672 -0.063800007 0.77000004 13358042
-0.0066000004 -0.063800007 0.77000004 13291992
-0.0051199999 -0.063634284 0.76800001 13226199
-0.0036571429 -0.063634284 0.76800001 13225939
-0.0021914286 -0.063551433 0.76700002 13160144
-0.00073047623 -0.063551433 0.76700002 13160143
0.00073047623 -0.063551433 0.76700002 13029071
0.0021857144 -0.063385718 0.76500005 12962764
0.0036428573 -0.063385718 0.76500005 12699593
0.0050866669 -0.063220002 0.76300001 12436424
0.00654 -0.063220002 0.76300001 12370375
0.007993333 -0.063220002 0.76300001 12304836
0.0094466675 -0.063220002 0.76300001 12305090
0.010899999 -0.063220002 0.76300001 12370369
0.012353334 -0.063220002 0.76300001 12304577
0.013842857 -0.063385718 0.76500005 12304831
0.015260001 -0.063220002 0.76300001 12304317
0.016713332 -0.063220002 0.76300001 12304575
0.018119048 -0.063054286 0.76100004 12304833
0.019568572 -0.063054286 0.76100004 12370881
0.021018095 -0.063054286 0.76100004 12436929
0.022467621 -0.063054286 0.76100004 12502720
0.023885716 -0.062971428 0.76000005 12568511
0.025333336 -0.062971428 0.76000005 12699588
0.026780955 -0.062971428 0.76000005 12765385
0.028228572 -0.062971428 0.76000005 12831432
0.029676192 -0.062971428 0.76000005 12963271
0.031041905 -0.062805712 0.75800002 13094341
0.032485716 -0.062805712 0.75800002 13028803
0.033929523 -0.062805712 0.75800002 13028550
0.03528 -0.062640004 0.75600004 13028554
0.036720004 -0.062640004 0.75600004 13028553
0.03816 -0.062640004 0.75600004 13028552
0.039547618 -0.062557146 0.75500005 13028300
0.040985718 -0.062557146 0.75500005 13028559
0.042255241 -0.062308576 0.75200003 13093840
0.043687619 -0.062308576 0.75200003 13094610
0.045000002 -0.062142864 0.75000006 13160147
0.046428576 -0.062142864 0.75000006 13357013
0.047857147 -0.062142864 0.75000006 13554905
0.049285717 -0.062142864 0.75000006 13621213
0.050579049 -0.061977144 0.74800003 13752543
0.052003808 -0.061977144 0.74800003 13818592
0.053428572 -0.061977144 0.74800003 13883615
0.054853335 -0.061977144 0.74800003 13686494
0.056202862 -0.06189429 0.74700004 13489117
0.057625718 -0.06189429 0.74700004 13357532
0.059048574 -0.06189429 0.74700004 13225940
0.060552381 -0.061977144 0.74800003 12962509
0.061977144 -0.061977144 0.74800003 12699340
0.0634019 -0.061977144 0.74800003 12370123
0.065000005 -0.062142864 0.75000006 12041925
0.066428579 -0.062142864 0.75000006 11777471
0.068038099 -0.062308576 0.75200003 11515067
0.069470473 -0.062308576 0.75200003 11056312
0.070997149 -0.06239143 0.75300002 10592176
0.072623812 -0.062557146 0.75500005 10458280
0.074061908 -0.062557146 0.75500005 10400959
0.075600006 -0.062640004 0.75600004 12112342
0.077040002 -0.062640004 0.75600004 13883607
-0.043754287 -0.065247618 0.80600005 13950180
-0.041904762 -0.064761907 0.80000001 13950438
-0.040280003 -0.064599998 0.79800004 14016228
-0.038711432 -0.064519048 0.79700005 13949923
-0.037006669 -0.064195246 0.79300004 13884387
-0.035406668 -0.064033337 0.79100001 13884388
-0.033814285 -0.063871428 0.78900003 13950436
-0.03227048 -0.063790478 0.78800005 14015972
-0.030769525 -0.063790478 0.78800005 14081765
-0.029194286 -0.063628569 0.78600001 14015974
-0.027697144 -0.063628569 0.78600001 14015970
-0.026133334 -0.063466676 0.78400004 13883870
-0.024577145 -0.063304767 0.78200006 13751772
-0.023028571 -0.063142858 0.78000003 13751771
-0.021515239 -0.063061908 0.77900004 13752027
-0.01998 -0.062899999 0.77700001 13686491
-0.0185 -0.062899999 0.77700001 13686490
-0.016976191 -0.062738098 0.77500004 13620954
-0.015500002 -0.062738098 0.77500004 13554904
-0.01402381 -0.062738098 0.77500004 13489367
-0.012515238 -0.06257619 0.77300006 13489366
-0.011028571 -0.062495239 0.77200001 13423830
-0.0095580956 -0.062495239 0.77200001 13423833
-0.0080666672 -0.062333338 0.77000004 13358045
-0.0066000004 -0.062333338 0.77000004 13357787
-0.0051199999 -0.062171426 0.76800001 13357529
-0.0036571429 -0.062171426 0.76800001 13357527
-0.0021942856 -0.062171426 0.76800001 13226197
-0.00073047623 -0.062090475 0.76700002 13160402
0.00073047623 -0.062090475 0.76700002 12963536
0.0021914286 -0.062090475 0.76700002 12831180
0.0036428573 -0.061928574 0.76500005 12568009
0.0051000006 -0.061928574 0.76500005 12370887
0.0065571428 -0.061928574 0.76500005 12304838
0.0080142869 -0.061928574 0.76500005 12239300
0.0094714295 -0.061928574 0.76500005 12239298
0.010899999 -0.061766669 0.76300001 12239296
0.012353334 -0.061766669 0.76300001 12239295
0.013842857 -0.061928574 0.76500005 12239292
0.0153 -0.061928574 0.76500005 12238778
0.016757144 -0.061928574 0.76500005 12304317
0.018166667 -0.061766669 0.76300001 12304833
0.019619999 -0.061766669 0.76300001 12371393
0.021073334 -0.061766669 0.76300001 12437185
0.022467621 -0.061604768 0.76100004 12568770
0.023980001 -0.061766669 0.76300001 12634307
0.025366668 -0.061604768 0.76100004 12765894
0.026816191 -0.061604768 0.76100004 12831690
0.028228572 -0.061523814 0.76000005 12897481
0.02971524 -0.061604768 0.76100004 13028809
0.03112381 -0.061523814 0.76000005 13159879
0.032571428 -0.061523814 0.76000005 13094341
0.034019049 -0.061523814 0.76000005 13028808
0.035373334 -0.061361905 0.75800002 13028555
0.036817145 -0.061361905 0.75800002 13028555
0.038260952 -0.061361905 0.75800002 13028555
0.0396 -0.0612 0.75600004 13028301
0.041040003 -0.0612 0.75600004 13028304
0.042423811 -0.06111905 0.75500005 13028304
0.043745715 -0.060957149 0.75300002 13028560
0.045120001 -0.060876191 0.75200003 13094354
0.046552382 -0.060876191 0.75200003 13225941
0.047857147 -0.06071429 0.75000006 13423064
0.049154289 -0.060552381 0.74800003 13489115
0.050579049 -0.060552381 0.74800003 13620957
0.051934287 -0.06047143 0.74700004 13752032
0.053357143 -0.06047143 0.74700004 13883102
0.054780003 -0.06047143 0.74700004 13686236
0.056202862 -0.06047143 0.74700004 13488603
0.057625718 -0.06047143 0.74700004 13357530
0.059048574 -0.06047143 0.74700004 13159892
0.06047143 -0.06047143 0.74700004 12896974
0.061977144 -0.060552381 0.74800003 12567755
0.0634019 -0.060552381 0.74800003 12304328
0.064826667 -0.060552381 0.74800003 11976387
0.066428579 -0.06071429 0.75000006 11646399
0.067857146 -0.06071429 0.75000006 11384507
0.069470473 -0.060876191 0.75200003 10924215
0.070997149 -0.060957149 0.75300002 10462884
0.07243143 -0.060957149 0.75300002 10003601
0.074160002 -0.0612 0.75600004 9544627
0.075600006 -0.0612 0.75600004 11651286
0.077040002 -0.0612 0.75600004 13818069
0.078480005 -0.0612 0.75600004 13620437
-0.045289528 -0.063712381 0.80600005 13884130
-0.043537147 -0.063396193 0.80200005 13884388
-0.041904762 -0.063238099 0.80000001 13950181
-0.040280003 -0.063079998 0.79800004 14015716
-0.038711432 -0.063000955 0.79700005 13950178
-0.037006669 -0.062684759 0.79300004 13884387
-0.035406668 -0.062526666 0.79100001 13949923
-0.033814285 -0.062368572 0.78900003 14015715
-0.03227048 -0.062289529 0.78800005 14081508
-0.030769525 -0.062289529 0.78800005 14147046
-0.029194286 -0.062131427 0.78600001 14081513
-0.027626667 -0.061973337 0.78400004 14081508
-0.026133334 -0.061973337 0.78400004 14015967
-0.024577145 -0.061815243 0.78200006 13949918
-0.023028571 -0.061657146 0.78000003 13949405
-0.021542858 -0.061657146 0.78000003 13949405
-0.01998 -0.061419997 0.77700001 13883870
-0.0185 -0.061419997 0.77700001 13818078
-0.016976191 -0.061261907 0.77500004 13687005
-0.015500002 -0.061261907 0.77500004 13621209
-0.01398762 -0.061103813 0.77300006 13555670
-0.012515238 -0.061103813 0.77300006 13489622
-0.011028571 -0.061024766 0.77200001 13423830
-0.0095580956 -0.061024766 0.77200001 13423832
-0.0080666672 -0.060866669 0.77000004 13423833
-0.0066000004 -0.060866669 0.77000004 13423320
-0.0051199999 -0.060708571 0.76800001 13423320
-0.0036571429 -0.060708571 0.76800001 13488598
-0.0021942856 -0.060708571 0.76800001 13357524
-0.00073047623 -0.060629524 0.76700002 13226193
0.00073047623 -0.060629524 0.76700002 12963534
0.0021914286 -0.060629524 0.76700002 12699084
0.0036428573 -0.06047143 0.76500005 12502218
0.0051000006 -0.06047143 0.76500005 12305095
0.0065571428 -0.06047143 0.76500005 12239300
0.0080142869 -0.06047143 0.76500005 12173506
0.0094714295 -0.06047143 0.76500005 12173504
0.010928571 -0.06047143 0.76500005 12173503
0.012385715 -0.06047143 0.76500005 12173759
0.013842857 -0.06047143 0.76500005 12173501
0.0153 -0.06047143 0.76500005 12239035
0.016757144 -0.06047143 0.76500005 12304318
0.018214287 -0.06047143 0.76500005 12305089
0.019619999 -0.060313337 0.76300001 12371137
0.021128573 -0.06047143 0.76500005 12502978
0.022526667 -0.060313337 0.76300001 12634052
0.023980001 -0.060313337 0.76300001 12765638
0.025433334 -0.060313337 0.76300001 12896967
0.026886668 -0.060313337 0.76300001 12963273
0.028265715 -0.060155239 0.76100004 13028811
0.029793333 -0.060313337 0.76300001 13094606
0.031246668 -0.060313337 0.76300001 13225418
0.032614287 -0.060155239 0.76100004 13159878
0.034063812 -0.060155239 0.76100004 13094344
0.035466667 -0.060076196 0.76000005 13028810
0.036817145 -0.059918094 0.75800002 13028554
0.038260952 -0.059918094 0.75800002 13028554
0.039704762 -0.059918094 0.75800002 13028043
0.041040003 -0.059760004 0.75600004 13028045
0.042423811 -0.059680957 0.75500005 13027789
0.043745715 -0.059522856 0.75300002 13027790
0.045120001 -0.059443813 0.75200003 13028305
0.046552382 -0.059443813 0.75200003 13160403
0.047857147 -0.059285719 0.75000006 13291479
0.049154289 -0.059127621 0.74800003 13357018
0.050579049 -0.059127621 0.74800003 13489371
0.051934287 -0.059048574 0.74700004 13685980
0.053357143 -0.059048574 0.74700004 13882844
0.054633338 -0.058890481 0.74500006 13685979
0.056052383 -0.058890481 0.74500006 13554394
0.057471432 -0.058890481 0.74500006 13357528
0.058890481 -0.058890481 0.74500006 13159636
0.06047143 -0.059048574 0.74700004 12831441
0.061977144 -0.059127621 0.74800003 12501706
0.0634019 -0.059127621 0.74800003 12238787
0.064826667 -0.059127621 0.74800003 11975872
0.066251434 -0.059127621 0.74800003 11581117
0.067857146 -0.059285719 0.75000006 11253434
0.069470473 -0.059443813 0.75200003 10792120
0.070902862 -0.059443813 0.75200003 10396581
0.07243143 -0.059522856 0.75300002 9537683
0.074061908 -0.059680957 0.75500005 8688561
0.075500011 -0.059680957 0.75500005 11190223
0.0769381 -0.059680957 0.75500005 13751250
0.078376196 -0.059680957 0.75500005 13554901
-0.046824764 -0.062177144 0.80600005 13884392
-0.045289528 -0.062177144 0.80600005 13884131
-0.043537147 -0.061868574 0.80200005 13884132
-0.041904762 -0.061714288 0.80000001 13884389
-0.040280003 -0.061560001 0.79800004 13950435
-0.038711432 -0.061482862 0.79700005 13949922
-0.037100002 -0.061328575 0.79500002 14015202
-0.035406668 -0.061019998 0.79100001 14015459
-0.033814285 -0.060865719 0.78900003 14081251
-0.03227048 -0.060788572 0.78800005 14146788
-0.030769525 -0.060788572 0.78800005 14277864
-0.029194286 -0.060634285 0.78600001 14278125
-0.027626667 -0.060480002 0.78400004 14344167
-0.026133334 -0.060480002 0.78400004 13754081
-0.024577145 -0.060325719 0.78200006 13163488
-0.023028571 -0.060171433 0.78000003 12704479
-0.021515239 -0.060094289 0.77900004 12311008
-0.01998 -0.059939999 0.77700001 12244706
-0.0185 -0.059939999 0.77700001 12113121
-0.016976191 -0.059785716 0.77500004 12113377
-0.015460001 -0.059631433 0.77300006 12179163
-0.01398762 -0.059631433 0.77300006 12242645
-0.012515238 -0.059631433 0.77300006 12371926
-0.011028571 -0.059554286 0.77200001 12899031
-0.0095580956 -0.059554286 0.77200001 13423574
-0.0080666672 -0.059400003 0.77000004 13423574
-0.0066000004 -0.059400003 0.77000004 13357782
-0.0051333336 -0.059400003 0.77000004 13357783
-0.0036571429 -0.059245713 0.76800001 13357781
-0.0021942856 -0.059245713 0.76800001 13226451
-0.00073142856 -0.059245713 0.76800001 13160911
0.00073047623 -0.059168573 0.76700002 12831436
0.0021914286 -0.059168573 0.76700002 12566987
0.0036428573 -0.059014291 0.76500005 12370123
0.0051000006 -0.059014291 0.76500005 12239046
0.0065571428 -0.059014291 0.76500005 12173250
0.0080142869 -0.059014291 0.76500005 12107712
0.0094714295 -0.059014291 0.76500005 12107454
0.010928571 -0.059014291 0.76500005 12107454
0.012385715 -0.059014291 0.76500005 12107455
0.013842857 -0.059014291 0.76500005 12107454
0.0153 -0.059014291 0.76500005 12107709
0.016757144 -0.059014291 0.76500005 12173503
0.018214287 -0.059014291 0.76500005 12239297
0.019671429 -0.059014291 0.76500005 12305346
0.021128573 -0.059014291 0.76500005 12436932
0.022585716 -0.059014291 0.76500005 12568518
0.024042858 -0.059014291 0.76500005 12700105
0.025433334 -0.05886 0.76300001 12831433
0.026957145 -0.059014291 0.76500005 12897481
0.028339999 -0.05886 0.76300001 12963534
0.029793333 -0.05886 0.76300001 12963283
0.031246668 -0.05886 0.76300001 13028813
0.032699998 -0.05886 0.76300001 13028551
0.034063812 -0.058705717 0.76100004 13028552
0.035513334 -0.058705717 0.76100004 13028553
0.036914289 -0.058628574 0.76000005 13028553
0.038260952 -0.058474287 0.75800002 13028553
0.039704762 -0.058474287 0.75800002 13027785
0.041040003 -0.058320004 0.75600004 12962250
0.042480003 -0.058320004 0.75600004 12896715
0.043745715 -0.058088571 0.75300002 12896717
0.045180004 -0.058088571 0.75300002 12896719
0.046552382 -0.058011431 0.75200003 13094610
0.047984764 -0.058011431 0.75200003 13225430
0.049285717 -0.057857145 0.75000006 13291482
0.050579049 -0.057702858 0.74800003 13423321
0.051934287 -0.057625718 0.74700004 13554905
0.053357143 -0.057625718 0.74700004 13686490
0.054633338 -0.057471432 0.74500006 13554907
0.056052383 -0.057471432 0.74500006 13489113
0.057471432 -0.057471432 0.74500006 13291735
0.058890481 -0.057471432 0.74500006 13094101
0.060309529 -0.057471432 0.74500006 12699604
0.06189429 -0.057625718 0.74700004 12370121
0.063317142 -0.057625718 0.74700004 12107199
0.064740002 -0.057625718 0.74700004 11844541
0.066251434 -0.057702858 0.74800003 11515067
0.067857146 -0.057857145 0.75000006 11187898
0.069470473 -0.058011431 0.75200003 10857146
0.070902862 -0.058011431 0.75200003 10461607
0.07243143 -0.058088571 0.75300002 9406357
0.074061908 -0.058242857 0.75500005 8422574
0.075500011 -0.058242857 0.75500005 10596296
0.0769381 -0.058242857 0.75500005 12767183
0.078376196 -0.058242857 0.75500005 13161686
-0.046824764 -0.060641907 0.80600005 13883878
-0.045177143 -0.060491432 0.80400002 13883618
-0.043537147 -0.060340952 0.80200005 13883874
-0.041904762 -0.060190476 0.80000001 13884387
-0.040280003 -0.060040005 0.79800004 13949921
-0.038711432 -0.059964765 0.79700005 14015456
-0.037100002 -0.059814285 0.79500002 14146530
-0.035406668 -0.059513334 0.79100001 14146788
-0.033814285 -0.059362859 0.78900003 14147045
-0.03227048 -0.059287623 0.78800005 14278630
-0.03069143 -0.059137143 0.78600001 14409194
-0.029194286 -0.059137143 0.78600001 14477294
-0.027626667 -0.058986671 0.78400004 14605539
-0.026066668 -0.058836192 0.78200006 13492696
-0.024577145 -0.058836192 0.78200006 12373195
-0.023028571 -0.058685716 0.78000003 11516095
-0.021542858 -0.058685716 0.78000003 10728379
-0.02003143 -0.05861048 0.77900004 10596023
-0.0185 -0.058459997 0.77700001 10465726
-0.016976191 -0.058309525 0.77500004 10597829
-0.015500002 -0.058309525 0.77500004 10727624
-0.01398762 -0.058159053 0.77300006 10988491
-0.012515238 -0.058159053 0.77300006 11258066
-0.011028571 -0.05808381 0.77200001 12374233
-0.0095580956 -0.05808381 0.77200001 13489112
-0.0080666672 -0.057933334 0.77000004 13423575
-0.0066000004 -0.057933334 0.77000004 13357783
-0.0051333336 -0.057933334 0.77000004 13291992
-0.0036571429 -0.057782859 0.76800001 13226197
-0.0021942856 -0.057782859 0.76800001 13160402
-0.00073142856 -0.057782859 0.76800001 13094607
0.00073047623 -0.057707619 0.76700002 12764876
0.0021914286 -0.057707619 0.76700002 12435913
0.0036428573 -0.057557147 0.76500005 12304327
0.0051000006 -0.057557147 0.76500005 12172995
0.0065571428 -0.057557147 0.76500005 12107200
0.0080142869 -0.057557147 0.76500005 12041406
0.0094714295 -0.057557147 0.76500005 12041405
0.010928571 -0.057557147 0.76500005 12041404
0.012385715 -0.057557147 0.76500005 12041659
0.013842857 -0.057557147 0.76500005 12041659
0.01534 -0.057707619 0.76700002 12041658
0.016757144 -0.057557147 0.76500005 12107453
0.018214287 -0.057557147 0.76500005 12173760
0.019671429 -0.057557147 0.76500005 12305090
0.021183809 -0.057707619 0.76700002 12370883
0.022585716 -0.057557147 0.76500005 12502213
0.024042858 -0.057557147 0.76500005 12634823
0.025500001 -0.057557147 0.76500005 12765383
0.026957145 -0.057557147 0.76500005 12830663
0.028414287 -0.057557147 0.76500005 12896714
0.02987143 -0.057557147 0.76500005 12897485
0.03132857 -0.057557147 0.76500005 12897226
0.032785717 -0.057557147 0.76500005 12897223
0.034153335 -0.057406668 0.76300001 12962759
0.035606667 -0.057406668 0.76300001 12962760
0.036962859 -0.057256192 0.76100004 13028295
0.038361907 -0.057180956 0.76000005 13028551
0.039809525 -0.057180956 0.76000005 13093318
0.041148573 -0.057030477 0.75800002 12961990
0.04259238 -0.057030477 0.75800002 12830919
0.043861907 -0.056804765 0.75500005 12831177
0.045180004 -0.056654289 0.75300002 12831181
0.046614286 -0.056654289 0.75300002 13028818
0.047984764 -0.05657905 0.75200003 13225685
0.049285717 -0.056428574 0.75000006 13291737
0.050579049 -0.056278098 0.74800003 13357529
0.051934287 -0.056202862 0.74700004 13423833
0.053357143 -0.056202862 0.74700004 13554904
0.054633338 -0.056052383 0.74500006 13489368
0.056052383 -0.056052383 0.74500006 13423320
0.057471432 -0.056052383 0.74500006 13226200
0.058890481 -0.056052383 0.74500006 13094866
0.060309529 -0.056052383 0.74500006 12633549
0.061728574 -0.056052383 0.74500006 12239047
0.063147627 -0.056052383 0.74500006 11974849
0.064566672 -0.056052383 0.74500006 11711934
0.066162854 -0.056202862 0.74700004 11449020
0.067676194 -0.056278098 0.74800003 11187388
0.069285721 -0.056428574 0.75000006 10856637
0.070902862 -0.05657905 0.75200003 10592683
