# .PCD v0.7 - Point Cloud Data file format
VERSION 0.7
FIELDS x y z rgba
SIZE 4 4 4 4
TYPE F F F U
COUNT 1 1 1 1
WIDTH 1065
HEIGHT 1
VIEWPOINT 0 0 0 1 0 0 0
POINTS 1065
DATA ascii
0.058459997 -0.056980003 0.77700001 12304570
0.060094289 -0.057126667 0.77900004 12238779
0.061578099 -0.057126667 0.77900004 12173243
0.062899999 -0.056980003 0.77700001 12238780
0.064379998 -0.056980003 0.77700001 12239037
0.065859996 -0.056980003 0.77700001 12304574
0.067166664 -0.056833334 0.77500004 12370112
0.068642862 -0.056833334 0.77500004 12369858
0.069938101 -0.05668667 0.77300006 12369858
0.071410477 -0.05668667 0.77300006 12304323
0.072882861 -0.05668667 0.77300006 12239047
0.074355245 -0.05668667 0.77300006 12173004
0.075827621 -0.05668667 0.77300006 12107204
0.077300005 -0.05668667 0.77300006 11909821
0.078772388 -0.05668667 0.77300006 11711160
0.080244765 -0.05668667 0.77300006 11382964
0.081717148 -0.05668667 0.77300006 11055281
0.083404765 -0.056833334 0.77500004 10591918
0.084880956 -0.056833334 0.77500004 10198180
0.086580001 -0.056980003 0.77700001 9870491
0.088059999 -0.056980003 0.77700001 9543098
0.089885719 -0.0572 0.78000003 11581657
0.091371432 -0.0572 0.78000003 13689306
-0.068191424 -0.058785714 0.82300001 13947872
-0.066461906 -0.058642861 0.82100004 13356761
-0.064740002 -0.058500003 0.81900007 13093330
-0.063025713 -0.058357142 0.81700003 12896210
-0.061093334 -0.058000002 0.81200004 12895955
-0.059400007 -0.057857145 0.81000006 12896725
-0.057571433 -0.057571433 0.80600005 13028567
-0.055897143 -0.057428572 0.80400002 13225947
-0.054365713 -0.057428572 0.80400002 13423326
-0.052571427 -0.057142857 0.80000001 13620960
-0.050856192 -0.056928575 0.79700005 13949666
-0.049090479 -0.05664286 0.79300004 14277860
-0.047460001 -0.056499999 0.79100001 14409446
-0.045837145 -0.056357145 0.78900003 14541548
-0.044334289 -0.056357145 0.78900003 14476786
-0.042777147 -0.056285717 0.78800005 14476012
-0.041276194 -0.056285717 0.78800005 14344422
-0.039674286 -0.056142855 0.78600001 14278627
-0.038079999 -0.056000002 0.78400004 14147553
-0.036586668 -0.056000002 0.78400004 14081506
-0.035003811 -0.055857148 0.78200006 14080996
-0.033514287 -0.055857148 0.78200006 14080997
-0.031942859 -0.055714291 0.78000003 13492455
-0.030457145 -0.055714291 0.78000003 12896980
-0.028934287 -0.055642858 0.77900004 9797568
-0.027450478 -0.055642858 0.77900004 6718403
-0.025966669 -0.055642858 0.77900004 7506117
-0.024420001 -0.055500001 0.77700001 8303295
-0.022940001 -0.055500001 0.77700001 8221881
-0.021404762 -0.055357147 0.77500004 8160181
-0.019928573 -0.055357147 0.77500004 9409201
-0.018380953 -0.055142857 0.77200001 10722218
-0.016910477 -0.055142857 0.77200001 10659236
-0.015439999 -0.055142857 0.77200001 10594220
-0.013933334 -0.055000003 0.77000004 10922421
-0.012466667 -0.055000003 0.77000004 11252920
-0.011 -0.055000003 0.77000004 12042427
-0.0095085716 -0.054857146 0.76800001 12893622
-0.0080457143 -0.054857146 0.76800001 12499890
-0.0065742861 -0.054785714 0.76700002 12172721
-0.0051133335 -0.054785714 0.76700002 12435377
-0.003652381 -0.054785714 0.76700002 12698287
-0.0021914286 -0.054785714 0.76700002 12764845
-0.00073047623 -0.054785714 0.76700002 12830125
0.00072857144 -0.05464286 0.76500005 12764589
0.0021857144 -0.05464286 0.76500005 12699058
0.0036428573 -0.05464286 0.76500005 12633527
0.0051000006 -0.05464286 0.76500005 12631493
0.0065571428 -0.05464286 0.76500005 12834259
0.0080142869 -0.05464286 0.76500005 13096148
0.0094714295 -0.05464286 0.76500005 12767957
0.010928571 -0.05464286 0.76500005 12502218
0.012385715 -0.05464286 0.76500005 12237759
0.013842857 -0.05464286 0.76500005 12041152
0.0153 -0.05464286 0.76500005 11910337
0.016800953 -0.054785714 0.76700002 11778749
0.018214287 -0.05464286 0.76500005 11515577
0.019671429 -0.05464286 0.76500005 11253172
0.021183809 -0.054785714 0.76700002 10987952
0.022644762 -0.054785714 0.76700002 10790827
0.024137143 -0.054857146 0.76800001 10593958
0.025600001 -0.054857146 0.76800001 10461603
0.027062858 -0.054857146 0.76800001 10330528
0.0286 -0.055000003 0.77000004 10199198
0.030066667 -0.055000003 0.77000004 10199197
0.031533334 -0.055000003 0.77000004 10199201
0.033 -0.055000003 0.77000004 10395812
0.034556191 -0.055142857 0.77200001 10593189
0.036026664 -0.055142857 0.77200001 10790823
0.037497144 -0.055142857 0.77200001 10988970
0.039018098 -0.05521429 0.77300006 11186605
0.040490478 -0.05521429 0.77300006 11383981
0.042071432 -0.055357147 0.77500004 11515565
0.043547619 -0.055357147 0.77500004 11646896
0.04502381 -0.055357147 0.77500004 11844019
0.04662 -0.055500001 0.77700001 12040885
0.048100002 -0.055500001 0.77700001 12041400
0.04958 -0.055500001 0.77700001 12106937
0.051059999 -0.055500001 0.77700001 12172731
0.052540001 -0.055500001 0.77700001 12238264
0.054019999 -0.055500001 0.77700001 12238260
0.055500001 -0.055500001 0.77700001 12238262
0.056980003 -0.055500001 0.77700001 12238264
0.05861048 -0.055642858 0.77900004 12238522
0.060094289 -0.055642858 0.77900004 12239036
0.061578099 -0.055642858 0.77900004 12238780
0.063061908 -0.055642858 0.77900004 12238780
0.064379998 -0.055500001 0.77700001 12304572
0.065859996 -0.055500001 0.77700001 12370364
0.067340001 -0.055500001 0.77700001 12435646
0.068642862 -0.055357147 0.77500004 12501696
0.070119046 -0.055357147 0.77500004 12566721
0.071410477 -0.05521429 0.77300006 12435395
0.072882861 -0.05521429 0.77300006 12304323
0.074355245 -0.05521429 0.77300006 12239812
0.075827621 -0.05521429 0.77300006 12239041
0.077300005 -0.05521429 0.77300006 11975869
0.078772388 -0.05521429 0.77300006 11777720
0.080244765 -0.05521429 0.77300006 11382963
0.081717148 -0.05521429 0.77300006 11054768
0.083404765 -0.055357147 0.77500004 10591917
0.084880956 -0.055357147 0.77500004 10198693
0.086580001 -0.055500001 0.77700001 9407902
0.088059999 -0.055500001 0.77700001 8688061
0.089770481 -0.055642858 0.77900004 11187420
0.091371432 -0.055714291 0.78000003 13752542
0.092857152 -0.055714291 0.78000003 14216416
-0.068191424 -0.057218097 0.82300001 13159625
-0.066947617 -0.057496194 0.82700002 12764871
-0.064898096 -0.057079051 0.82100004 12698822
-0.063025713 -0.056800954 0.81700003 12698310
-0.06124381 -0.056592382 0.81400001 12632774
-0.059400007 -0.05631429 0.81000006 12632777
-0.057571433 -0.056036193 0.80600005 12830668
-0.056036193 -0.056036193 0.80600005 13027536
-0.054365713 -0.055897143 0.80400002 13093333
-0.052702863 -0.0557581 0.80200005 13159385
-0.050856192 -0.055410478 0.79700005 13357790
-0.049090479 -0.055132385 0.79300004 13622240
-0.047460001 -0.054993331 0.79100001 13754082
-0.045837145 -0.054854289 0.78900003 13886188
-0.044334289 -0.054854289 0.78900003 14148598
-0.042777147 -0.054784764 0.78800005 14410990
-0.041276194 -0.054784764 0.78800005 14344423
-0.039674286 -0.054645717 0.78600001 14344677
-0.038079999 -0.054506667 0.78400004 14212835
-0.036586668 -0.054506667 0.78400004 14081253
-0.035003811 -0.054367624 0.78200006 14015719
-0.033514287 -0.054367624 0.78200006 14015719
-0.031942859 -0.054228574 0.78000003 13622503
-0.030457145 -0.054228574 0.78000003 13221315
-0.028934287 -0.054159053 0.77900004 11776928
-0.027450478 -0.054159053 0.77900004 10332837
-0.025966669 -0.054159053 0.77900004 10727594
-0.024420001 -0.054019999 0.77700001 11188137
-0.022940001 -0.054019999 0.77700001 11124649
-0.021404762 -0.053880952 0.77500004 11126697
-0.019877145 -0.05374191 0.77300006 11717545
-0.018380953 -0.053672384 0.77200001 12308663
-0.016910477 -0.053672384 0.77200001 12176837
-0.015439999 -0.053672384 0.77200001 12045255
-0.013933334 -0.053533334 0.77000004 12177866
-0.012466667 -0.053533334 0.77000004 12310478
-0.011 -0.053533334 0.77000004 12637138
-0.0095085716 -0.053394284 0.76800001 12964051
-0.0080457143 -0.053394284 0.76800001 12833237
-0.0065828571 -0.053394284 0.76800001 12636884
-0.0051199999 -0.053394284 0.76800001 12701907
-0.0036571429 -0.053394284 0.76800001 12767184
-0.0021914286 -0.053324763 0.76700002 12765134
-0.00073047623 -0.053324763 0.76700002 12765390
0.00073047623 -0.053324763 0.76700002 12633806
0.0021857144 -0.05318572 0.76500005 12569808
0.0036428573 -0.05318572 0.76500005 12567762
0.0051000006 -0.05318572 0.76500005 12567760
0.0065571428 -0.05318572 0.76500005 12767950
0.0080142869 -0.05318572 0.76500005 13030608
0.0094714295 -0.05318572 0.76500005 12766930
0.010928571 -0.05318572 0.76500005 12436168
0.012385715 -0.05318572 0.76500005 12238014
0.013842857 -0.05318572 0.76500005 12041151
0.0153 -0.05318572 0.76500005 11844545
0.016757144 -0.05318572 0.76500005 11712700
0.018214287 -0.05318572 0.76500005 11449783
0.019671429 -0.05318572 0.76500005 11187634
0.021128573 -0.05318572 0.76500005 10922414
0.022644762 -0.053324763 0.76700002 10659753
0.024137143 -0.053394284 0.76800001 10527908
0.025600001 -0.053394284 0.76800001 10330273
0.027062858 -0.053394284 0.76800001 10264735
0.0286 -0.053533334 0.77000004 10133661
0.030066667 -0.053533334 0.77000004 10199195
0.031533334 -0.053533334 0.77000004 10199452
0.033 -0.053533334 0.77000004 10330526
0.034556191 -0.053672384 0.77200001 10527906
0.036026664 -0.053672384 0.77200001 10659750
0.037545718 -0.05374191 0.77300006 10857384
0.039018098 -0.05374191 0.77300006 11054763
0.040595241 -0.053880952 0.77500004 11187372
0.042071432 -0.053880952 0.77500004 11384494
0.043547619 -0.053880952 0.77500004 11581106
0.045139998 -0.054019999 0.77700001 11778486
0.04662 -0.054019999 0.77700001 11911094
0.048100002 -0.054019999 0.77700001 11975606
0.049707621 -0.054159053 0.77900004 11975606
0.051191431 -0.054159053 0.77900004 12040886
0.05267524 -0.054159053 0.77900004 12040884
0.054159053 -0.054159053 0.77900004 12106418
0.055642858 -0.054159053 0.77900004 12172212
0.057126667 -0.054159053 0.77900004 12106679
0.058685716 -0.054228574 0.78000003 12106938
0.060094289 -0.054159053 0.77900004 12106941
0.061578099 -0.054159053 0.77900004 12107196
0.063061908 -0.054159053 0.77900004 12172732
0.064545713 -0.054159053 0.77900004 12172731
0.066029526 -0.054159053 0.77900004 12238523
0.067340001 -0.054019999 0.77700001 12304573
0.06882 -0.054019999 0.77700001 12370367
0.070119046 -0.053880952 0.77500004 12501697
0.071595237 -0.053880952 0.77500004 12435651
0.072882861 -0.05374191 0.77300006 12369856
0.074355245 -0.05374191 0.77300006 12239549
0.075827621 -0.05374191 0.77300006 12174525
0.077300005 -0.05374191 0.77300006 11975870
0.078772388 -0.05374191 0.77300006 11844280
0.080244765 -0.05374191 0.77300006 11448499
0.081717148 -0.05374191 0.77300006 11120047
0.083404765 -0.053880952 0.77500004 10658732
0.084880956 -0.053880952 0.77500004 10264743
0.086357147 -0.053880952 0.77500004 9473186
0.088059999 -0.054019999 0.77700001 8750785
0.089770481 -0.054159053 0.77900004 10394848
0.091371432 -0.054228574 0.78000003 12046562
0.092857152 -0.054228574 0.78000003 13626852
0.094342858 -0.054228574 0.78000003 15198173
-0.077877149 -0.057002861 0.84300005 2770519
-0.076271437 -0.057002861 0.84300005 8236185
-0.07413429 -0.056597143 0.83700001 13746358
-0.07254 -0.056597143 0.83700001 13161684
-0.070606671 -0.056326672 0.83300006 12634574
-0.068688571 -0.056056194 0.82900006 12435144
-0.066785723 -0.055785719 0.82500005 12238792
-0.064898096 -0.055515241 0.82100004 12370376
-0.063025713 -0.055244766 0.81700003 12501961
-0.06124381 -0.055041905 0.81400001 12436939
-0.059546668 -0.05490667 0.81200004 12371405
-0.057714287 -0.054636195 0.80800003 12633807
-0.056036193 -0.054500956 0.80600005 12896210
-0.054500956 -0.054500956 0.80600005 12765653
-0.052834287 -0.054365713 0.80400002 12700374
-0.050856192 -0.053892381 0.79700005 12831447
-0.049214285 -0.053757142 0.79500002 13028314
-0.047460001 -0.053486664 0.79100001 13094365
-0.045837145 -0.053351428 0.78900003 13228004
-0.0442781 -0.053283811 0.78800005 13820652
-0.042777147 -0.053283811 0.78800005 14410217
-0.041171428 -0.053148571 0.78600001 14409959
-0.039674286 -0.053148571 0.78600001 14409957
-0.038079999 -0.053013336 0.78400004 14278371
-0.036586668 -0.053013336 0.78400004 14146532
-0.035003811 -0.052878097 0.78200006 14015717
-0.033514287 -0.052878097 0.78200006 13949925
-0.031942859 -0.052742857 0.78000003 13752805
-0.030418096 -0.05267524 0.77900004 13554900
-0.028934287 -0.05267524 0.77900004 13750466
-0.027450478 -0.05267524 0.77900004 14013380
-0.025899999 -0.052540001 0.77700001 14014406
-0.024420001 -0.052540001 0.77700001 14080197
-0.022880953 -0.052404761 0.77500004 14080709
-0.021404762 -0.052404761 0.77500004 14080708
-0.019877145 -0.052269526 0.77300006 14015427
-0.018380953 -0.052201904 0.77200001 13949385
-0.016910477 -0.052201904 0.77200001 13686735
-0.015439999 -0.052201904 0.77200001 13489618
-0.013933334 -0.052066669 0.77000004 13423829
-0.012466667 -0.052066669 0.77000004 13423060
-0.011 -0.052066669 0.77000004 13225939
-0.0095085716 -0.05193143 0.76800001 13094612
-0.0080457143 -0.05193143 0.76800001 13094614
-0.0065828571 -0.05193143 0.76800001 13159379
-0.0051199999 -0.05193143 0.76800001 12962256
-0.0036571429 -0.05193143 0.76800001 12830926
-0.0021914286 -0.051863808 0.76700002 12765389
-0.00073047623 -0.051863808 0.76700002 12699597
0.00073047623 -0.051863808 0.76700002 12568525
0.0021857144 -0.051728573 0.76500005 12502478
0.0036428573 -0.051728573 0.76500005 12501968
0.0051000006 -0.051728573 0.76500005 12501967
0.0065571428 -0.051728573 0.76500005 12767439
0.0080142869 -0.051728573 0.76500005 13030096
0.0094714295 -0.051728573 0.76500005 12700370
0.010928571 -0.051728573 0.76500005 12435657
0.012385715 -0.051728573 0.76500005 12238528
0.013842857 -0.051728573 0.76500005 12106687
0.0153 -0.051728573 0.76500005 11844287
0.016757144 -0.051728573 0.76500005 11646650
0.018214287 -0.051728573 0.76500005 11383733
0.019671429 -0.051728573 0.76500005 11121328
0.021183809 -0.051863808 0.76700002 10857132
0.022644762 -0.051863808 0.76700002 10593959
0.024137143 -0.05193143 0.76800001 10396578
0.025600001 -0.05193143 0.76800001 10264479
0.027062858 -0.05193143 0.76800001 10198685
0.0286 -0.052066669 0.77000004 10133149
0.030066667 -0.052066669 0.77000004 10198685
0.031533334 -0.052066669 0.77000004 10264733
0.033085715 -0.052201904 0.77200001 10330781
0.034556191 -0.052201904 0.77200001 10462111
0.036026664 -0.052201904 0.77200001 10594466
0.037545718 -0.052269526 0.77300006 10791076
0.039119046 -0.052404761 0.77500004 10922150
0.040595241 -0.052404761 0.77500004 11054503
0.042180002 -0.052540001 0.77700001 11318952
0.04366 -0.052540001 0.77700001 11581103
0.04525619 -0.05267524 0.77900004 11712950
0.046740003 -0.05267524 0.77900004 11844278
0.048223812 -0.05267524 0.77900004 11844535
0.049707621 -0.05267524 0.77900004 11909556
0.051257145 -0.052742857 0.78000003 11909297
0.05267524 -0.05267524 0.77900004 11909553
0.054159053 -0.05267524 0.77900004 11975601
0.055642858 -0.05267524 0.77900004 12106675
0.057126667 -0.05267524 0.77900004 12041142
0.058685716 -0.052742857 0.78000003 11975864
0.060171433 -0.052742857 0.78000003 11975867
0.061657146 -0.052742857 0.78000003 12041401
0.063142858 -0.052742857 0.78000003 12041399
0.064545713 -0.05267524 0.77900004 12106680
0.066029526 -0.05267524 0.77900004 12106680
0.067513339 -0.05267524 0.77900004 12172988
0.06882 -0.052540001 0.77700001 12304831
0.070299998 -0.052540001 0.77700001 12435907
0.071595237 -0.052404761 0.77500004 12436679
0.072882861 -0.052269526 0.77300006 12435906
0.074355245 -0.052269526 0.77300006 12304829
0.075827621 -0.052269526 0.77300006 12173247
0.077300005 -0.052269526 0.77300006 12041665
0.078772388 -0.052269526 0.77300006 11910072
0.080244765 -0.052269526 0.77300006 11514286
0.081717148 -0.052269526 0.77300006 11185839
0.083189532 -0.052269526 0.77300006 10725551
0.084880956 -0.052404761 0.77500004 10330790
0.086357147 -0.052404761 0.77500004 9538718
0.087833337 -0.052404761 0.77500004 8816809
0.089770481 -0.05267524 0.77900004 9602228
0.091254294 -0.05267524 0.77900004 10402254
0.092738099 -0.05267524 0.77900004 13103080
0.094221912 -0.05267524 0.77900004 15789542
-0.077877149 -0.055397145 0.84300005 7440753
-0.076090477 -0.055265717 0.84100002 10338530
-0.07413429 -0.055002857 0.83700001 13298129
-0.07236667 -0.054871429 0.83500004 12830913
-0.070606671 -0.054740004 0.83300006 12369348
-0.068688571 -0.054477148 0.82900006 12369863
-0.066947617 -0.054345712 0.82700002 12370120
-0.06505619 -0.054082859 0.82300001 12501706
-0.063025713 -0.053688571 0.81700003 12633549
-0.06124381 -0.053491428 0.81400001 12699600
-0.059546668 -0.053360004 0.81200004 12765649
-0.057714287 -0.053097144 0.80800003 12897235
-0.056036193 -0.052965716 0.80600005 13094356
-0.054500956 -0.052965716 0.80600005 13028566
-0.052834287 -0.052834287 0.80400002 13028563
-0.050856192 -0.052374288 0.79700005 13159633
-0.049214285 -0.052242856 0.79500002 13356245
-0.047460001 -0.05198 0.79100001 13421785
-0.045837145 -0.051848572 0.78900003 13422045
-0.044334289 -0.051848572 0.78900003 13685218
-0.042777147 -0.051782858 0.78800005 14013924
-0.041171428 -0.051651429 0.78600001 14015207
-0.039674286 -0.051651429 0.78600001 14016741
-0.038079999 -0.051520005 0.78400004 14015972
-0.036586668 -0.051520005 0.78400004 14015460
-0.035003811 -0.051388573 0.78200006 14015716
-0.033514287 -0.051388573 0.78200006 13949668
-0.031942859 -0.051257145 0.78000003 13884388
-0.030418096 -0.051191431 0.77900004 13819364
-0.028934287 -0.051191431 0.77900004 13819109
-0.027450478 -0.051191431 0.77900004 13884644
-0.025899999 -0.051059999 0.77700001 13883875
-0.024420001 -0.051059999 0.77700001 13950178
-0.022880953 -0.050928574 0.77500004 13884129
-0.021349525 -0.050797146 0.77300006 13883871
-0.019877145 -0.050797146 0.77300006 13818078
-0.018380953 -0.050731428 0.77200001 13752283
-0.016910477 -0.050731428 0.77200001 13555161
-0.015439999 -0.050731428 0.77200001 13423324
-0.013933334 -0.0506 0.77000004 13422816
-0.012466667 -0.0506 0.77000004 13422554
-0.011 -0.0506 0.77000004 13291220
-0.0095085716 -0.050468571 0.76800001 13160150
-0.0080457143 -0.050468571 0.76800001 13094360
-0.0065828571 -0.050468571 0.76800001 13093587
-0.0051199999 -0.050468571 0.76800001 12896718
-0.0036571429 -0.050468571 0.76800001 12765389
-0.0021914286 -0.050402857 0.76700002 12699596
-0.00073047623 -0.050402857 0.76700002 12699596
0.00072857144 -0.050271433 0.76500005 12568524
0.0021857144 -0.050271433 0.76500005 12437453
0.0036428573 -0.050271433 0.76500005 12501966
0.0051000006 -0.050271433 0.76500005 12501967
0.0065571428 -0.050271433 0.76500005 12898768
0.0080142869 -0.050271433 0.76500005 13226193
0.0094714295 -0.050271433 0.76500005 12831443
0.010928571 -0.050271433 0.76500005 12435402
0.012385715 -0.050271433 0.76500005 12238274
0.013842857 -0.050271433 0.76500005 12041408
0.0153 -0.050271433 0.76500005 11778494
0.016757144 -0.050271433 0.76500005 11580857
0.018214287 -0.050271433 0.76500005 11317940
0.019671429 -0.050271433 0.76500005 11055023
0.021128573 -0.050271433 0.76500005 10791338
0.022644762 -0.050402857 0.76700002 10528165
0.024105715 -0.050402857 0.76700002 10396576
0.025600001 -0.050468571 0.76800001 10264478
0.027062858 -0.050468571 0.76800001 10133148
0.0286 -0.0506 0.77000004 10067357
0.030066667 -0.0506 0.77000004 10132895
0.031533334 -0.0506 0.77000004 10199197
0.033085715 -0.050731428 0.77200001 10264988
0.034556191 -0.050731428 0.77200001 10396573
0.036073335 -0.050797146 0.77300006 10462367
0.037642859 -0.050928574 0.77500004 10593696
0.039119046 -0.050928574 0.77500004 10659490
0.0407 -0.051059999 0.77700001 10790818
0.042288575 -0.051191431 0.77900004 10989475
0.043772385 -0.051191431 0.77900004 11188140
0.045314286 -0.051257145 0.78000003 11253174
0.046920002 -0.051388573 0.78200006 11383735
0.048409529 -0.051388573 0.78200006 11449529
0.049899053 -0.051388573 0.78200006 11580851
0.051388573 -0.051388573 0.78200006 11515565
0.052878097 -0.051388573 0.78200006 11516078
0.054228574 -0.051257145 0.78000003 11450544
0.055714291 -0.051257145 0.78000003 11450803
0.0572 -0.051257145 0.78000003 11582390
0.058836192 -0.051388573 0.78200006 11713975
0.060325719 -0.051388573 0.78200006 11779001
0.061657146 -0.051257145 0.78000003 11844278
0.063142858 -0.051257145 0.78000003 11844019
0.064628571 -0.051257145 0.78000003 11909556
0.066114292 -0.051257145 0.78000003 11975350
0.067513339 -0.051191431 0.77900004 12041403
0.06882 -0.051059999 0.77700001 12173248
0.070299998 -0.051059999 0.77700001 12370374
0.071595237 -0.050928574 0.77500004 12435916
0.072882861 -0.050797146 0.77300006 12501701
0.074355245 -0.050797146 0.77300006 12304318
0.075827621 -0.050797146 0.77300006 12172993
0.077300005 -0.050797146 0.77300006 12041669
0.078772388 -0.050797146 0.77300006 11976119
0.080244765 -0.050797146 0.77300006 11580842
0.081717148 -0.050797146 0.77300006 11251886
0.083189532 -0.050797146 0.77300006 10856371
0.084661908 -0.050797146 0.77300006 10462630
0.086357147 -0.050928574 0.77500004 9671066
0.087833337 -0.050928574 0.77500004 8883089
0.089309521 -0.050928574 0.77500004 8944009
0.091019996 -0.051059999 0.77700001 9020346
0.092738099 -0.051191431 0.77900004 12049644
0.094221912 -0.051191431 0.77900004 15137007
0.095705718 -0.051191431 0.77900004 14740211
-0.078061908 -0.053919047 0.84500003 12103570
-0.076271437 -0.05379143 0.84300005 12506579
-0.074488573 -0.053663809 0.84100002 12896713
-0.07254 -0.053408574 0.83700001 12500416
-0.070606671 -0.053153336 0.83300006 12106947
-0.068688571 -0.052898098 0.82900006 12304581
-0.066947617 -0.052770477 0.82700002 12501449
-0.06505619 -0.052515239 0.82300001 12633292
-0.063025713 -0.052132383 0.81700003 12830670
-0.06124381 -0.051940955 0.81400001 12963280
-0.059546668 -0.051813334 0.81200004 13160402
-0.057571433 -0.051430479 0.80600005 13226451
-0.056036193 -0.051430479 0.80600005 13291733
-0.054500956 -0.051430479 0.80600005 13291479
-0.052571427 -0.051047619 0.80000001 13357014
-0.050856192 -0.050856192 0.79700005 13555669
-0.049214285 -0.050728571 0.79500002 13752792
-0.047460001 -0.050473336 0.79100001 13688028
-0.045837145 -0.050345715 0.78900003 13687006
-0.044334289 -0.050345715 0.78900003 13620705
-0.042777147 -0.050281905 0.78800005 13620193
-0.041171428 -0.050154287 0.78600001 13619682
-0.039674286 -0.050154287 0.78600001 13686756
-0.038079999 -0.05002667 0.78400004 13819366
-0.036586668 -0.05002667 0.78400004 13950181
-0.035003811 -0.049899053 0.78200006 13950180
-0.033514287 -0.049899053 0.78200006 14015715
-0.031942859 -0.049771432 0.78000003 14015715
-0.030418096 -0.049707621 0.77900004 14081250
-0.028934287 -0.049707621 0.77900004 13949666
-0.027380001 -0.04958 0.77700001 13818082
-0.025899999 -0.04958 0.77700001 13817825
-0.024357144 -0.049452383 0.77500004 13817569
-0.022821905 -0.049324766 0.77300006 13752032
-0.021349525 -0.049324766 0.77300006 13686240
-0.019877145 -0.049324766 0.77300006 13620704
-0.018380953 -0.049260955 0.77200001 13620701
-0.016910477 -0.049260955 0.77200001 13489369
-0.015439999 -0.049260955 0.77200001 13357530
-0.013933334 -0.049133338 0.77000004 13357275
-0.012466667 -0.049133338 0.77000004 13422295
-0.011 -0.049133338 0.77000004 13291218
-0.0095085716 -0.049005713 0.76800001 13225427
-0.0080457143 -0.049005713 0.76800001 13094101
-0.0065828571 -0.049005713 0.76800001 13028050
-0.0051199999 -0.049005713 0.76800001 12896975
-0.0036571429 -0.049005713 0.76800001 12765133
-0.0021914286 -0.048941903 0.76700002 12699596
-0.00073047623 -0.048941903 0.76700002 12699596
0.00072857144 -0.048814289 0.76500005 12568524
0.0021857144 -0.048814289 0.76500005 12437193
0.0036428573 -0.048814289 0.76500005 12501959
0.0051000006 -0.048814289 0.76500005 12567499
0.0065571428 -0.048814289 0.76500005 13030095
0.0080142869 -0.048814289 0.76500005 13488334
0.0094714295 -0.048814289 0.76500005 12962766
0.010928571 -0.048814289 0.76500005 12435657
0.012385715 -0.048814289 0.76500005 12172227
0.013842857 -0.048814289 0.76500005 11975616
0.0153 -0.048814289 0.76500005 11712700
0.016757144 -0.048814289 0.76500005 11515064
0.018214287 -0.048814289 0.76500005 11252404
0.019671429 -0.048814289 0.76500005 11054255
0.021128573 -0.048814289 0.76500005 10791082
0.022644762 -0.048941903 0.76700002 10528420
0.024105715 -0.048941903 0.76700002 10396831
0.025566667 -0.048941903 0.76700002 10264478
0.027062858 -0.049005713 0.76800001 10133405
0.028525714 -0.049005713 0.76800001 10067613
0.030066667 -0.049133338 0.77000004 10132893
0.031533334 -0.049133338 0.77000004 10198940
0.033085715 -0.049260955 0.77200001 10264987
0.034556191 -0.049260955 0.77200001 10330779
0.036073335 -0.049324766 0.77300006 10331036
0.037642859 -0.049452383 0.77500004 10396830
0.039219998 -0.04958 0.77700001 10462881
0.040804762 -0.049707621 0.77900004 10528161
0.04234286 -0.049771432 0.78000003 10659233
0.043940958 -0.049899053 0.78200006 10856100
0.045430478 -0.049899053 0.78200006 10856360
0.047040001 -0.05002667 0.78400004 10921640
0.048657142 -0.050154287 0.78600001 11052456
0.050154287 -0.050154287 0.78600001 11249321
0.051651429 -0.050154287 0.78600001 11184299
0.053148571 -0.050154287 0.78600001 11118503
0.054645717 -0.050154287 0.78600001 10921635
0.056000002 -0.05002667 0.78400004 10791592
0.057346672 -0.049899053 0.78200006 11120556
0.058986671 -0.05002667 0.78400004 11448752
0.060325719 -0.049899053 0.78200006 11580596
0.061815243 -0.049899053 0.78200006 11711923
0.063142858 -0.049771432 0.78000003 11712433
0.064628571 -0.049771432 0.78000003 11712691
0.066114292 -0.049771432 0.78000003 11778741
0.067513339 -0.049707621 0.77900004 11910074
0.06882 -0.04958 0.77700001 12107199
0.070299998 -0.04958 0.77700001 12304323
0.071595237 -0.049452383 0.77500004 12437192
0.072882861 -0.049324766 0.77300006 12567237
0.074355245 -0.049324766 0.77300006 12369603
0.075827621 -0.049324766 0.77300006 12173251
0.077300005 -0.049324766 0.77300006 12107972
0.078772388 -0.049324766 0.77300006 12042421
0.080140956 -0.049260955 0.77200001 11647399
0.081611432 -0.049260955 0.77200001 11317677
0.083081901 -0.049260955 0.77200001 10921651
0.084661908 -0.049324766 0.77300006 10593702
0.086134292 -0.049324766 0.77300006 9737882
0.087606676 -0.049324766 0.77300006 8948881
0.089309521 -0.049452383 0.77500004 8286089
0.090785719 -0.049452383 0.77500004 7639725
0.092500001 -0.04958 0.77700001 11061969
0.093979999 -0.04958 0.77700001 14539222
0.095459998 -0.04958 0.77700001 14215388
0.097189523 -0.049707621 0.77900004 13884109
-0.082146674 -0.052866668 0.85400003 4338521
-0.080331437 -0.052742861 0.85200006 8693667
-0.078339048 -0.052495241 0.84800005 13102003
-0.076452382 -0.052309528 0.84500003 12766404
-0.074665718 -0.052185714 0.84300005 12434114
-0.072713338 -0.051938098 0.83900005 12303296
-0.070776194 -0.051690478 0.83500004 12106946
-0.068688571 -0.051319048 0.82900006 12304324
-0.067109525 -0.051319048 0.82900006 12501961
-0.064898096 -0.050823811 0.82100004 12633295
-0.062871434 -0.050452381 0.81500006 12831184
-0.06124381 -0.050390474 0.81400001 13028561
-0.059546668 -0.050266668 0.81200004 13225682
-0.057714287 -0.050019048 0.80800003 13292244
-0.056036193 -0.049895242 0.80600005 13423574
-0.054500956 -0.049895242 0.80600005 13488857
-0.052571427 -0.049523808 0.80000001 13554393
-0.050856192 -0.049338099 0.79700005 13687001
-0.049214285 -0.049214285 0.79500002 13818844
-0.047580004 -0.049090479 0.79300004 13818335
-0.045953333 -0.048966669 0.79100001 13818079
-0.044334289 -0.048842859 0.78900003 13884128
-0.042831432 -0.048842859 0.78900003 13950175
-0.041276194 -0.048780952 0.78800005 13817566
-0.039674286 -0.048657142 0.78600001 13750755
-0.038079999 -0.048533335 0.78400004 13686761
-0.036586668 -0.048533335 0.78400004 13688295
-0.035003811 -0.048409529 0.78200006 13819109
-0.033514287 -0.048409529 0.78200006 13884643
-0.031942859 -0.048285715 0.78000003 14015714
-0.030418096 -0.048223812 0.77900004 14081249
-0.028859999 -0.048100002 0.77700001 13949664
-0.027380001 -0.048100002 0.77700001 13818080
-0.025899999 -0.048100002 0.77700001 13752288
-0.024357144 -0.047976192 0.77500004 13752288
-0.022821905 -0.047852382 0.77300006 13752288
-0.021349525 -0.047852382 0.77300006 13686753
-0.019877145 -0.047852382 0.77300006 13686499
-0.018380953 -0.047790475 0.77200001 13620958
-0.016910477 -0.047790475 0.77200001 13489370
-0.015439999 -0.047790475 0.77200001 13357272
-0.013933334 -0.047666669 0.77000004 13357271
-0.012466667 -0.047666669 0.77000004 13356756
-0.011 -0.047666669 0.77000004 13225681
-0.0095085716 -0.047542859 0.76800001 13159889
-0.0080457143 -0.047542859 0.76800001 13094098
-0.0065828571 -0.047542859 0.76800001 13028305
-0.0051199999 -0.047542859 0.76800001 12896720
-0.0036571429 -0.047542859 0.76800001 12765134
-0.0021942856 -0.047542859 0.76800001 12699597
-0.00073047623 -0.047480952 0.76700002 12699852
0.00073047623 -0.047480952 0.76700002 12634060
0.0021857144 -0.047357146 0.76500005 12502726
0.0036428573 -0.047357146 0.76500005 12501953
0.0050866669 -0.047233336 0.76300001 12567495
0.00654 -0.047233336 0.76300001 12964046
0.007993333 -0.047233336 0.76300001 13357260
0.0094466675 -0.047233336 0.76300001 12830922
0.010899999 -0.047233336 0.76300001 12370631
0.012385715 -0.047357146 0.76500005 12172229
0.013842857 -0.047357146 0.76500005 11909824
0.0153 -0.047357146 0.76500005 11646907
0.016757144 -0.047357146 0.76500005 11383736
0.018214287 -0.047357146 0.76500005 11186357
0.019722857 -0.047480952 0.76700002 10988207
0.021183809 -0.047480952 0.76700002 10725546
0.022644762 -0.047480952 0.76700002 10528932
0.024105715 -0.047480952 0.76700002 10331039
0.025600001 -0.047542859 0.76800001 10133663
0.027062858 -0.047542859 0.76800001 10067359
0.0286 -0.047666669 0.77000004 10001053
0.030066667 -0.047666669 0.77000004 10001051
0.031615239 -0.047790475 0.77200001 10066843
0.033085715 -0.047790475 0.77200001 10067099
0.034600955 -0.047852382 0.77300006 10132890
0.036166668 -0.047976192 0.77500004 10133145
0.03774 -0.048100002 0.77700001 10198940
0.039320953 -0.048223812 0.77900004 10264480
0.040961906 -0.048409529 0.78200006 10330272
0.042668574 -0.048657142 0.78600001 10461856
0.044165716 -0.048657142 0.78600001 10658973
0.045779053 -0.048780952 0.78800005 10658714
0.047340002 -0.048842859 0.78900003 10723992
0.048842859 -0.048842859 0.78900003 10855063
0.050345715 -0.048842859 0.78900003 11053472
0.051848572 -0.048842859 0.78900003 10921898
0.053351428 -0.048842859 0.78900003 10856096
0.054784764 -0.048780952 0.78800005 10658711
0.056142855 -0.048657142 0.78600001 10527133
0.057493336 -0.048533335 0.78400004 10461603
0.058986671 -0.048533335 0.78400004 10396073
0.060325719 -0.048409529 0.78200006 10397872
0.061815243 -0.048409529 0.78200006 10399664
0.063142858 -0.048285715 0.78000003 10990512
0.064628571 -0.048285715 0.78000003 11647154
0.066029526 -0.048223812 0.77900004 11712181
0.067513339 -0.048223812 0.77900004 11843002
0.06882 -0.048100002 0.77700001 11975615
0.070299998 -0.048100002 0.77700001 12172737
0.071595237 -0.047976192 0.77500004 12305348
0.073071435 -0.047976192 0.77500004 12501958
0.074355245 -0.047852382 0.77300006 12370376
0.075827621 -0.047852382 0.77300006 12304582
0.077300005 -0.047852382 0.77300006 12173764
0.078772388 -0.047852382 0.77300006 12108724
0.080140956 -0.047790475 0.77200001 11844260
0.081611432 -0.047790475 0.77200001 11580332
0.083081901 -0.047790475 0.77200001 11118260
0.084661908 -0.047852382 0.77300006 10593703
0.086134292 -0.047852382 0.77300006 9803418
0.087606676 -0.047852382 0.77300006 9014929
0.089079052 -0.047852382 0.77300006 8489097
0.090785719 -0.047976192 0.77500004 7963295
0.09226191 -0.047976192 0.77500004 9608118
0.093979999 -0.048100002 0.77700001 11318718
0.095459998 -0.048100002 0.77700001 11184582
0.097189523 -0.048223812 0.77900004 11116224
0.098673336 -0.048223812 0.77900004 11846075
-0.083969526 -0.051360004 0.85600007 4915786
-0.082146674 -0.051240001 0.85400003 8550019
-0.080331437 -0.051120002 0.85200006 11328701
-0.078339048 -0.050880004 0.84800005 14082237
-0.076452382 -0.050700001 0.84500003 13026494
-0.074665718 -0.050580002 0.84300005 12040639
-0.072886661 -0.05046 0.84100002 12106689
-0.070776194 -0.050100002 0.83500004 12172226
-0.068854287 -0.049860001 0.83100003 12304068
-0.067109525 -0.049740005 0.82900006 12501704
-0.065214291 -0.049500003 0.82500005 12699084
-0.062871434 -0.048900004 0.81500006 12896466
-0.06124381 -0.048840001 0.81400001 13094104
-0.059546668 -0.048720002 0.81200004 13357783
-0.057714287 -0.048480004 0.80800003 13424343
-0.056036193 -0.048360001 0.80600005 13555417
-0.054365713 -0.048239999 0.80400002 13620955
-0.052571427 -0.048 0.80000001 13752283
-0.050920002 -0.047880001 0.79800004 13818332
-0.049338099 -0.047820002 0.79700005 13884126
-0.047580004 -0.047580004 0.79300004 13883360
-0.045953333 -0.047460001 0.79100001 13949153
-0.044334289 -0.047340002 0.78900003 14147043
-0.042777147 -0.047280002 0.78800005 14343907
-0.041276194 -0.047280002 0.78800005 14082020
-0.039674286 -0.04716 0.78600001 13817568
-0.038079999 -0.047040001 0.78400004 13619420
-0.036586668 -0.047040001 0.78400004 13489631
-0.035003811 -0.046920002 0.78200006 13621986
-0.033428572 -0.046800002 0.78000003 13819105
-0.031901907 -0.046740003 0.77900004 13949921
-0.030418096 -0.046740003 0.77900004 14146272
-0.028859999 -0.04662 0.77700001 13949664
-0.027380001 -0.04662 0.77700001 13818080
-0.025899999 -0.04662 0.77700001 13752288
-0.024357144 -0.046500001 0.77500004 13752287
-0.022821905 -0.046380006 0.77300006 13752287
-0.021349525 -0.046380006 0.77300006 13752287
-0.019851428 -0.046320003 0.77200001 13686752
-0.018380953 -0.046320003 0.77200001 13686236
-0.016910477 -0.046320003 0.77200001 13554905
-0.015439999 -0.046320003 0.77200001 13422807
-0.013933334 -0.0462 0.77000004 13357270
-0.012466667 -0.0462 0.77000004 13291475
-0.011 -0.0462 0.77000004 13225937
-0.0095085716 -0.046079997 0.76800001 13159891
-0.0080666672 -0.0462 0.77000004 13094356
-0.0065828571 -0.046079997 0.76800001 13028050
-0.0051333336 -0.0462 0.77000004 12896465
-0.0036571429 -0.046079997 0.76800001 12765391
-0.0021914286 -0.046020001 0.76700002 12765389
-0.00073047623 -0.046020001 0.76700002 12765388
0.00073047623 -0.046020001 0.76700002 12699596
0.0021857144 -0.045900002 0.76500005 12633801
0.0036428573 -0.045900002 0.76500005 12567751
0.0050866669 -0.045779999 0.76300001 12567758
0.00654 -0.045779999 0.76300001 12898261
0.007993333 -0.045779999 0.76300001 13226706
0.0094466675 -0.045779999 0.76300001 12764623
0.010899999 -0.045779999 0.76300001 12370375
0.012385715 -0.045900002 0.76500005 12106944
0.013842857 -0.045900002 0.76500005 11909564
0.0153 -0.045900002 0.76500005 11581369
0.016757144 -0.045900002 0.76500005 11317942
0.018214287 -0.045900002 0.76500005 11120563
0.019722857 -0.046020001 0.76700002 10988462
0.021183809 -0.046020001 0.76700002 10725545
0.022644762 -0.046020001 0.76700002 10528164
0.024137143 -0.046079997 0.76800001 10265246
0.025600001 -0.046079997 0.76800001 10067613
0.027133334 -0.0462 0.77000004 10000541
0.0286 -0.0462 0.77000004 10000539
0.030066667 -0.0462 0.77000004 9935257
0.031615239 -0.046320003 0.77200001 9935256
0.033085715 -0.046320003 0.77200001 9935256
0.034690477 -0.046500001 0.77500004 9935512
0.036260001 -0.04662 0.77700001 9936024
0.037837148 -0.046740003 0.77900004 10001818
0.039371427 -0.046800002 0.78000003 10067613
0.041171428 -0.04716 0.78600001 10198430
0.042777147 -0.047280002 0.78800005 10329502
0.044334289 -0.047340002 0.78900003 10461338
0.045837145 -0.047340002 0.78900003 10527638
0.047460001 -0.047460001 0.79100001 10592660
0.048966669 -0.047460001 0.79100001 10723474
0.050473336 -0.047460001 0.79100001 10854291
0.05198 -0.047460001 0.79100001 10723220
0.053621907 -0.047580004 0.79300004 10590867
0.054993331 -0.047460001 0.79100001 10458770
0.056499999 -0.047460001 0.79100001 10327698
0.057346672 -0.046920002 0.78200006 9803410
0.058836192 -0.046920002 0.78200006 9343124
0.060325719 -0.046920002 0.78200006 9210517
0.061657146 -0.046800002 0.78000003 9083298
0.063142858 -0.046800002 0.78000003 10332590
0.064545713 -0.046740003 0.77900004 11579318
0.066029526 -0.046740003 0.77900004 11646398
0.067513339 -0.046740003 0.77900004 11777214
0.06882 -0.04662 0.77700001 11909566
0.070119046 -0.046500001 0.77500004 12041152
0.071595237 -0.046500001 0.77500004 12239298
0.073071435 -0.046500001 0.77500004 12436420
0.074355245 -0.046380006 0.77300006 12436935
0.075827621 -0.046380006 0.77300006 12436165
0.077300005 -0.046380006 0.77300006 12305859
0.078772388 -0.046380006 0.77300006 12174009
0.080140956 -0.046320003 0.77200001 12041135
0.081611432 -0.046320003 0.77200001 11908530
0.083081901 -0.046320003 0.77200001 11249589
0.084661908 -0.046380006 0.77300006 10658980
0.086134292 -0.046380006 0.77300006 9868947
0.087606676 -0.046380006 0.77300006 9081232
0.089309521 -0.046500001 0.77500004 8682893
0.090785719 -0.046500001 0.77500004 8289170
0.09226191 -0.046500001 0.77500004 8156312
0.093979999 -0.04662 0.77700001 8093086
0.095459998 -0.04662 0.77700001 8226467
0.097189523 -0.046740003 0.77900004 8360879
0.098673336 -0.046740003 0.77900004 10467259
-0.083773337 -0.049613334 0.85400003 5189252
-0.082146674 -0.049613334 0.85400003 8698542
-0.080520004 -0.049613334 0.85400003 11262424
-0.078523815 -0.049380954 0.85000002 13817288
-0.076723814 -0.049264766 0.84800005 13027768
-0.074842855 -0.049090479 0.84500003 12237245
-0.072886661 -0.048858099 0.84100002 12237762
-0.070606671 -0.048393335 0.83300006 12237763
-0.068854287 -0.048277143 0.83100003 12369604
-0.067109525 -0.048160955 0.82900006 12501703
-0.065214291 -0.047928575 0.82500005 12764618
-0.062871434 -0.047347624 0.81500006 12962004
-0.06124381 -0.047289524 0.81400001 13225951
-0.059546668 -0.047173332 0.81200004 13490141
-0.057714287 -0.046940953 0.80800003 13555419
-0.055897143 -0.046708573 0.80400002 13620956
-0.054230478 -0.046592385 0.80200005 13752285
-0.052440003 -0.046360001 0.79800004 13884126
-0.050920002 -0.046360001 0.79800004 13884127
-0.049338099 -0.046301909 0.79700005 13949664
-0.047700003 -0.046185717 0.79500002 13949409
-0.045953333 -0.045953333 0.79100001 14014948
-0.044334289 -0.045837145 0.78900003 14212327
-0.042831432 -0.045837145 0.78900003 14475240
-0.041276194 -0.045779053 0.78800005 14213354
-0.039674286 -0.045662858 0.78600001 14015453
-0.038079999 -0.045546666 0.78400004 13752016
-0.036493339 -0.045430478 0.78200006 13553367
-0.035003811 -0.045430478 0.78200006 13555167
-0.033428572 -0.045314286 0.78000003 13556959
-0.031901907 -0.04525619 0.77900004 13753312
-0.030418096 -0.04525619 0.77900004 14015200
-0.028859999 -0.045139998 0.77700001 13949408
-0.027380001 -0.045139998 0.77700001 13883872
-0.025833335 -0.04502381 0.77500004 13817824
-0.024357144 -0.04502381 0.77500004 13752287
-0.022821905 -0.044907622 0.77300006 13686750
-0.021349525 -0.044907622 0.77300006 13687005
-0.019851428 -0.044849522 0.77200001 13686749
-0.018380953 -0.044849522 0.77200001 13686235
-0.016910477 -0.044849522 0.77200001 13489369
-0.0154 -0.044733334 0.77000004 13357527
-0.013933334 -0.044733334 0.77000004 13291733
-0.012466667 -0.044733334 0.77000004 13225939
-0.011 -0.044733334 0.77000004 13160146
-0.0095085716 -0.044617143 0.76800001 13094612
-0.0080457143 -0.044617143 0.76800001 13028567
-0.0065828571 -0.044617143 0.76800001 13028052
-0.0051199999 -0.044617143 0.76800001 12896722
-0.0036571429 -0.044617143 0.76800001 12831183
-0.0021914286 -0.04455905 0.76700002 12765389
-0.00073047623 -0.04455905 0.76700002 12699852
0.00073047623 -0.04455905 0.76700002 12634060
0.0021857144 -0.044442859 0.76500005 12568524
0.0036428573 -0.044442859 0.76500005 12567757
0.0050866669 -0.044326667 0.76300001 12568020
0.00654 -0.044326667 0.76300001 13030108
0.007993333 -0.044326667 0.76300001 13489624
0.0094466675 -0.044326667 0.76300001 12830420
0.010899999 -0.044326667 0.76300001 12239048
0.012385715 -0.044442859 0.76500005 12041404
0.013842857 -0.044442859 0.76500005 11909561
0.0153 -0.044442859 0.76500005 11646647
0.016757144 -0.044442859 0.76500005 11383476
0.018214287 -0.044442859 0.76500005 11186098
0.019722857 -0.04455905 0.76700002 10988973
0.021183809 -0.04455905 0.76700002 10725545
0.022644762 -0.04455905 0.76700002 10462115
0.024105715 -0.04455905 0.76700002 10264990
0.025600001 -0.044617143 0.76800001 10067100
0.027062858 -0.044617143 0.76800001 10000795
0.028525714 -0.044617143 0.76800001 9934233
0.030066667 -0.044733334 0.77000004 9803416
0.031615239 -0.044849522 0.77200001 9738134
0.033085715 -0.044849522 0.77200001 9672597
0.034600955 -0.044907622 0.77300006 9672598
0.036260001 -0.045139998 0.77700001 9672855
0.037837148 -0.04525619 0.77900004 9738649
0.039472383 -0.045430478 0.78200006 9803931
0.041066669 -0.045546666 0.78400004 9935004
0.042777147 -0.045779053 0.78800005 10066845
0.044334289 -0.045837145 0.78900003 10198680
0.045953333 -0.045953333 0.79100001 10198931
0.047460001 -0.045953333 0.79100001 10264976
0.049090479 -0.046069525 0.79300004 10133389
0.050600957 -0.046069525 0.79300004 10067334
0.052111432 -0.046069525 0.79300004 9803391
0.053621907 -0.046069525 0.79300004 9605254
0.055132385 -0.046069525 0.79300004 9539982
0.05664286 -0.046069525 0.79300004 9474952
0.058153339 -0.046069525 0.79300004 9210754
0.058836192 -0.045430478 0.78200006 9012350
0.060325719 -0.045430478 0.78200006 8880507
0.061657146 -0.045314286 0.78000003 8814228
0.063142858 -0.045314286 0.78000003 9276589
0.064545713 -0.04525619 0.77900004 9804730
0.066029526 -0.04525619 0.77900004 10464199
0.067340001 -0.045139998 0.77700001 11121858
0.06882 -0.045139998 0.77700001 11515582
0.070299998 -0.045139998 0.77700001 11975103
0.071595237 -0.04502381 0.77500004 12173761
0.073071435 -0.04502381 0.77500004 12370883
0.074355245 -0.044907622 0.77300006 12436678
0.075827621 -0.044907622 0.77300006 12501188
0.077300005 -0.044907622 0.77300006 12370370
0.078772388 -0.044907622 0.77300006 12239550
0.080140956 -0.044849522 0.77200001 12107195
0.081611432 -0.044849522 0.77200001 12040377
0.083081901 -0.044849522 0.77200001 11250359
0.084661908 -0.044907622 0.77300006 10527905
0.086134292 -0.044907622 0.77300006 10000780
0.087606676 -0.044907622 0.77300006 9540750
0.089079052 -0.044907622 0.77300006 8879761
0.090785719 -0.04502381 0.77500004 8223110
0.09226191 -0.04502381 0.77500004 8157051
0.093738094 -0.04502381 0.77500004 8092542
0.095459998 -0.045139998 0.77700001 8290945
0.096940003 -0.045139998 0.77700001 8554910
0.098420002 -0.045139998 0.77700001 10534075
-0.083773337 -0.047986668 0.85400003 5462856
-0.082146674 -0.047986668 0.85400003 8818566
-0.080520004 -0.047986668 0.85400003 11196357
-0.078708574 -0.047874287 0.85200006 13554377
-0.076904759 -0.047761906 0.85000002 12963533
-0.074842855 -0.047480956 0.84500003 12432588
-0.073060006 -0.047368575 0.84300005 12369100
-0.070606671 -0.046806671 0.83300006 12304075
-0.068688571 -0.046581909 0.82900006 12437962
-0.067271426 -0.04669429 0.83100003 12568521
-0.065372378 -0.046469525 0.82700002 12830153
-0.063180007 -0.046020001 0.81900007 13094099
-0.06124381 -0.045739047 0.81400001 13358046
-0.059546668 -0.045626666 0.81200004 13620957
-0.057571433 -0.045289528 0.80600005 13686493
-0.055897143 -0.045177143 0.80400002 13752286
-0.054230478 -0.045064762 0.80200005 13883871
-0.052571427 -0.044952381 0.80000001 14015199
-0.050920002 -0.044840001 0.79800004 14015456
-0.049338099 -0.044783812 0.79700005 14080735
-0.047700003 -0.044671431 0.79500002 14080478
-0.045953333 -0.044446666 0.79100001 14080482
-0.044334289 -0.044334289 0.78900003 14343143
-0.042831432 -0.044334289 0.78900003 14606824
-0.041276194 -0.0442781 0.78800005 14410217
-0.039674286 -0.044165716 0.78600001 14212577
-0.038079999 -0.044053335 0.78400004 13884634
-0.036493339 -0.043940958 0.78200006 13620188
-0.035003811 -0.043940958 0.78200006 13488351
-0.033514287 -0.043940958 0.78200006 13359327
-0.031942859 -0.043828573 0.78000003 13622495
-0.030418096 -0.043772385 0.77900004 13884384
-0.028859999 -0.04366 0.77700001 13884642
-0.027380001 -0.04366 0.77700001 13949409
-0.025899999 -0.04366 0.77700001 13818080
-0.024357144 -0.043547619 0.77500004 13752286
-0.022821905 -0.043435238 0.77300006 13686492
-0.021349525 -0.043435238 0.77300006 13686748
-0.019851428 -0.043379046 0.77200001 13686748
-0.018380953 -0.043379046 0.77200001 13686235
-0.016910477 -0.043379046 0.77200001 13489370
-0.0154 -0.043266669 0.77000004 13357527
-0.013933334 -0.043266669 0.77000004 13291989
-0.012466667 -0.043266669 0.77000004 13225940
-0.010971429 -0.043154284 0.76800001 13094354
-0.0094961906 -0.043098096 0.76700002 13028563
-0.0080457143 -0.043154284 0.76800001 13028565
-0.0065742861 -0.043098096 0.76700002 13028306
-0.0051133335 -0.043098096 0.76700002 12962768
-0.0036571429 -0.043154284 0.76800001 12896718
-0.0021914286 -0.043098096 0.76700002 12765644
-0.00073047623 -0.043098096 0.76700002 12699595
0.00072857144 -0.042985715 0.76500005 12568267
0.0021857144 -0.042985715 0.76500005 12502730
0.0036428573 -0.042985715 0.76500005 12567241
0.0050866669 -0.042873334 0.76300001 12633040
0.00654 -0.042873334 0.76300001 13161943
0.007993333 -0.042873334 0.76300001 13751253
0.0094466675 -0.042873334 0.76300001 12961746
0.010899999 -0.042873334 0.76300001 12174025
0.012353334 -0.042873334 0.76300001 12041664
0.013842857 -0.042985715 0.76500005 11909308
0.0153 -0.042985715 0.76500005 11646648
0.016757144 -0.042985715 0.76500005 11449013
0.018214287 -0.042985715 0.76500005 11186097
0.019722857 -0.043098096 0.76700002 10988974
0.021183809 -0.043098096 0.76700002 10725546
0.022644762 -0.043098096 0.76700002 10461861
0.024137143 -0.043154284 0.76800001 10264735
0.025600001 -0.043154284 0.76800001 10067101
0.027133334 -0.043266669 0.77000004 9935514
0.0286 -0.043266669 0.77000004 9868696
0.030066667 -0.043266669 0.77000004 9737621
0.031615239 -0.043379046 0.77200001 9606292
0.033085715 -0.043379046 0.77200001 9474963
0.034600955 -0.043435238 0.77300006 9409684
0.036260001 -0.04366 0.77700001 9410197
0.037885718 -0.043828573 0.78000003 9475479
0.039573334 -0.044053335 0.78400004 9606296
0.041171428 -0.044165716 0.78600001 9737624
0.042831432 -0.044334289 0.78900003 9868952
0.044446666 -0.044446666 0.79100001 10001555
0.045953333 -0.044446666 0.79100001 9936270
0.047580004 -0.04455905 0.79300004 9934988
0.049090479 -0.04455905 0.79300004 9606282
0.050600957 -0.04455905 0.79300004 9276808
0.052111432 -0.04455905 0.79300004 8947333
0.053757142 -0.044671431 0.79500002 8684423
0.055271428 -0.044671431 0.79500002 8618121
0.056785714 -0.044671431 0.79500002 8618373
0.0583 -0.044671431 0.79500002 8618882
0.064545713 -0.043772385 0.77900004 8096929
0.065859996 -0.04366 0.77700001 9281970
0.067340001 -0.04366 0.77700001 10529210
0.06882 -0.04366 0.77700001 11186882
0.070299998 -0.04366 0.77700001 11909312
0.071595237 -0.043547619 0.77500004 12108222
0.073071435 -0.043547619 0.77500004 12370882
0.074355245 -0.043435238 0.77300006 12436678
0.075827621 -0.043435238 0.77300006 12567237
0.077300005 -0.043435238 0.77300006 12435396
0.078772388 -0.043435238 0.77300006 12305090
0.080140956 -0.043379046 0.77200001 12239040
0.081611432 -0.043379046 0.77200001 12172220
0.083189532 -0.043435238 0.77300006 11316663
0.084661908 -0.043435238 0.77300006 10463138
0.086134292 -0.043435238 0.77300006 10198157
0.087606676 -0.043435238 0.77300006 10000268
0.089079052 -0.043435238 0.77300006 9076619
0.090785719 -0.043547619 0.77500004 8157318
0.09226191 -0.043547619 0.77500004 8091265
0.093738094 -0.043547619 0.77500004 8090753
0.095459998 -0.04366 0.77700001 8417922
0.096940003 -0.04366 0.77700001 8754850
0.098420002 -0.04366 0.77700001 10666434
-0.083773337 -0.046360001 0.85400003 4014604
-0.082146674 -0.046360001 0.85400003 5399903
-0.080520004 -0.046360001 0.85400003 6390962
-0.078708574 -0.046251431 0.85200006 7447754
-0.076904759 -0.046142858 0.85000002 8956386
-0.075108573 -0.046034288 0.84800005 10465244
-0.073233336 -0.045871429 0.84500003 11122647
-0.070437141 -0.045111429 0.83100003 11780819
-0.068688571 -0.045002859 0.82900006 12174544
-0.067271426 -0.045111429 0.83100003 12568524
-0.06505619 -0.044677142 0.82300001 12897481
-0.063334286 -0.044568572 0.82100004 13160915
-0.06124381 -0.04418857 0.81400001 13489117
-0.059546668 -0.04408 0.81200004 13751774
