# .PCD v0.7 - Point Cloud Data file format
VERSION 0.7
FIELDS x y z rgba
SIZE 4 4 4 4
TYPE F F F U
COUNT 1 1 1 1
WIDTH 1086
HEIGHT 1
VIEWPOINT 0 0 0 1 0 0 0
POINTS 1086
DATA ascii
0.03797619 0.03659524 0.72500002 12238782
0.039357144 0.03659524 0.72500002 12041658
0.040738095 0.03659524 0.72500002 11910070
0.042119049 0.03659524 0.72500002 11647411
0.043500002 0.03659524 0.72500002 11449269
0.044880953 0.03659524 0.72500002 11317943
0.046325717 0.036645714 0.72600001 11186607
0.047708571 0.036645714 0.72600001 10989991
0.049091429 0.036645714 0.72600001 10792867
0.050613336 0.03674667 0.72800004 10528159
0.05207143 0.036797144 0.72900003 10265240
0.053460002 0.036797144 0.72900003 10132113
0.054999046 0.036898095 0.73100001 10001036
0.056391429 0.036898095 0.73100001 8946824
0.057783809 0.036898095 0.73100001 7896441
0.059176192 0.036898095 0.73100001 8092011
0.060568571 0.036898095 0.73100001 8355442
0.061791431 0.036797144 0.72900003 8751994
-0.041800003 0.041800003 0.79800004 4545919
-0.040229525 0.041747622 0.79700005 7442094
-0.038614288 0.04164286 0.79500002 10865117
-0.037006669 0.041538097 0.79300004 14215648
-0.035406668 0.041433334 0.79100001 14082788
-0.0339 0.041433334 0.79100001 13884645
-0.03227048 0.041276194 0.78800005 14081510
-0.03069143 0.041171428 0.78600001 14279911
-0.029045716 0.040961906 0.78200006 14345193
-0.027485715 0.040857144 0.78000003 14410730
-0.025966669 0.040804762 0.77900004 14476267
-0.024357144 0.040595241 0.77500004 14607593
-0.022821905 0.040490478 0.77300006 14541800
-0.021349525 0.040490478 0.77300006 14541801
-0.0198 0.040333334 0.77000004 14476010
-0.018333334 0.040333334 0.77000004 14475750
-0.016800953 0.04017619 0.76700002 14410467
-0.0153 0.040071428 0.76500005 14410473
-0.013806666 0.039966665 0.76300001 14410479
-0.012353334 0.039966665 0.76300001 14410732
-0.010857143 0.039809525 0.76000005 14410730
-0.0093847616 0.039704762 0.75800002 14476522
-0.0079409527 0.039704762 0.75800002 14607850
-0.0064800004 0.0396 0.75600004 14673900
-0.0050400002 0.0396 0.75600004 14739438
-0.0036000002 0.0396 0.75600004 14804976
-0.0021600001 0.0396 0.75600004 14936563
-0.00071904768 0.039547618 0.75500005 15067891
0.00071904768 0.039547618 0.75500005 15594227
0.0021514287 0.039442856 0.75300002 16186616
0.0035809525 0.039390475 0.75200003 16449278
0.0050133336 0.039390475 0.75200003 16711421
0.0064457143 0.039390475 0.75200003 16645628
0.0078780958 0.039390475 0.75200003 16644859
0.0093104765 0.039390475 0.75200003 16644859
0.010742858 0.039390475 0.75200003 16579067
0.012191429 0.039442856 0.75300002 16579323
0.013625714 0.039442856 0.75300002 16579323
0.015040001 0.039390475 0.75200003 16579579
0.016472382 0.039390475 0.75200003 16645372
0.017904762 0.039390475 0.75200003 16645886
0.019337144 0.039390475 0.75200003 16711422
0.020714287 0.039285716 0.75000006 16514814
0.02161143 0.03834286 0.73200005 16318200
0.023005717 0.03834286 0.73200005 15659507
0.024366667 0.038290478 0.73100001 14936557
0.025688572 0.038185716 0.72900003 14607080
0.027077144 0.038185716 0.72900003 14277859
0.028465716 0.038185716 0.72900003 13882847
0.029813336 0.038133334 0.72800004 13554900
0.031114288 0.038028572 0.72600001 13291721
0.032497145 0.038028572 0.72600001 13094601
0.033879999 0.038028572 0.72600001 12830922
0.035214286 0.03797619 0.72500002 12634823
0.03659524 0.03797619 0.72500002 12436164
0.03797619 0.03797619 0.72500002 12173246
0.039357144 0.03797619 0.72500002 12041657
0.040738095 0.03797619 0.72500002 11844790
0.042119049 0.03797619 0.72500002 11647155
0.043500002 0.03797619 0.72500002 11449269
0.044880953 0.03797619 0.72500002 11252408
0.046325717 0.038028572 0.72600001 11121073
0.047708571 0.038028572 0.72600001 10924458
0.049091429 0.038028572 0.72600001 10727333
0.050613336 0.038133334 0.72800004 10462113
0.05207143 0.038185716 0.72900003 10134425
0.053606667 0.038290478 0.73100001 10000786
0.054999046 0.038290478 0.73100001 9870221
0.056391429 0.038290478 0.73100001 8881033
0.057783809 0.038290478 0.73100001 7830896
0.059176192 0.038290478 0.73100001 8093016
0.060568571 0.038290478 0.73100001 8289640
0.06196095 0.038290478 0.73100001 8686713
-0.041800003 0.043320004 0.79800004 4414076
-0.040128574 0.043157145 0.79500002 7245484
-0.038614288 0.043157145 0.79500002 10734045
-0.037006669 0.043048576 0.79300004 14215138
-0.035406668 0.042940002 0.79100001 14082790
-0.033814285 0.042831432 0.78900003 13951462
-0.03227048 0.042777147 0.78800005 14147814
-0.030613335 0.042560004 0.78400004 14344679
-0.029045716 0.042451434 0.78200006 14410728
-0.027485715 0.04234286 0.78000003 14476266
-0.025966669 0.042288575 0.77900004 14542061
-0.024357144 0.042071432 0.77500004 14673130
-0.022821905 0.041962862 0.77300006 14607335
-0.021321906 0.041908573 0.77200001 14541802
-0.0198 0.041800003 0.77000004 14476013
-0.018333334 0.041800003 0.77000004 14476009
-0.016822856 0.04169143 0.76800001 14410470
-0.0153 0.041528575 0.76500005 14410473
-0.013806666 0.041420002 0.76300001 14411244
-0.012320952 0.041311432 0.76100004 14410475
-0.010857143 0.041257147 0.76000005 14476266
-0.0093847616 0.041148573 0.75800002 14541801
-0.0079409527 0.041148573 0.75800002 14608105
-0.0064800004 0.041040003 0.75600004 14673644
-0.0050400002 0.041040003 0.75600004 14739439
-0.0036000002 0.041040003 0.75600004 14805233
-0.0021571429 0.040985718 0.75500005 14936563
-0.00071904768 0.040985718 0.75500005 15133939
0.00071714289 0.040877145 0.75300002 15593716
0.0021485714 0.04082286 0.75200003 16055288
0.0035809525 0.04082286 0.75200003 16383741
0.0050133336 0.04082286 0.75200003 16711421
0.0064457143 0.04082286 0.75200003 16711421
0.0078571439 0.04071429 0.75000006 16711164
0.0093104765 0.04082286 0.75200003 16645372
0.010714287 0.04071429 0.75000006 16579579
0.012175239 0.04082286 0.75200003 16579579
0.01360762 0.04082286 0.75200003 16579579
0.015000001 0.04071429 0.75000006 16645116
0.016384762 0.040605716 0.74800003 16711165
0.017785715 0.040551431 0.74700004 16711422
0.019157145 0.040442862 0.74500006 16711420
0.020576192 0.040442862 0.74500006 16316923
0.021670477 0.039845716 0.73400003 15987959
0.023068571 0.039845716 0.73400003 15331315
0.024400003 0.039737146 0.73200005 14673388
0.025759049 0.039682858 0.73100001 14343398
0.027151428 0.039682858 0.73100001 14080991
0.028465716 0.039574288 0.72900003 13751257
0.029813336 0.039520003 0.72800004 13423571
0.031200001 0.039520003 0.72800004 13159629
0.032497145 0.039411429 0.72600001 12963531
0.033879999 0.039411429 0.72600001 12765642
0.035262857 0.039411429 0.72600001 12634054
0.03659524 0.039357144 0.72500002 12370883
0.03797619 0.039357144 0.72500002 12173246
0.039357144 0.039357144 0.72500002 11976377
0.040738095 0.039357144 0.72500002 11844534
0.042119049 0.039357144 0.72500002 11647155
0.043559998 0.039411429 0.72600001 11449523
0.04494286 0.039411429 0.72600001 11252403
0.046325717 0.039411429 0.72600001 11121070
0.047708571 0.039411429 0.72600001 10924457
0.049226668 0.039520003 0.72800004 10727078
0.050682858 0.039574288 0.72900003 10396322
0.05207143 0.039574288 0.72900003 10068633
0.053606667 0.039682858 0.73100001 9934993
0.055074289 0.039737146 0.73200005 9804172
0.056468572 0.039737146 0.73200005 8815496
0.057862859 0.039737146 0.73200005 7830905
0.059176192 0.039682858 0.73100001 8026217
0.060568571 0.039682858 0.73100001 8289392
0.06196095 0.039682858 0.73100001 8621432
-0.040128574 0.044671431 0.79500002 7048875
-0.038517144 0.04455905 0.79300004 10470622
-0.036913332 0.044446666 0.79100001 13952739
-0.035406668 0.044446666 0.79100001 14017257
-0.033814285 0.044334289 0.78900003 14082023
-0.03227048 0.0442781 0.78800005 14213094
-0.03069143 0.044165716 0.78600001 14344423
-0.029045716 0.043940958 0.78200006 14410728
-0.027485715 0.043828573 0.78000003 14476523
-0.026000001 0.043828573 0.78000003 14607599
-0.024357144 0.043547619 0.77500004 14673131
-0.022821905 0.043435238 0.77300006 14607335
-0.021321906 0.043379046 0.77200001 14607339
-0.0198 0.043266669 0.77000004 14541808
-0.018333334 0.043266669 0.77000004 14541805
-0.016822856 0.043154284 0.76800001 14476010
-0.01534 0.043098096 0.76700002 14476010
-0.013806666 0.042873334 0.76300001 14410474
-0.012320952 0.042760953 0.76100004 14410474
-0.010857143 0.042704765 0.76000005 14476010
-0.0093847616 0.04259238 0.75800002 14476009
-0.0079409527 0.04259238 0.75800002 14541800
-0.0064800004 0.042480003 0.75600004 14607852
-0.0050400002 0.042480003 0.75600004 14673648
-0.0036000002 0.042480003 0.75600004 14805489
-0.0021571429 0.042423811 0.75500005 15002355
-0.00071714289 0.04231143 0.75300002 15134708
0.00071714289 0.04231143 0.75300002 15528182
0.0021485714 0.042255241 0.75200003 15924217
0.0035714288 0.042142861 0.75000006 16186620
0.0050000004 0.042142861 0.75000006 16449277
0.0064285719 0.042142861 0.75000006 16449278
0.0078571439 0.042142861 0.75000006 16514813
0.0092609525 0.042030476 0.74800003 16580093
0.010671429 0.041974287 0.74700004 16645628
0.012110476 0.042030476 0.74800003 16645628
0.013535239 0.042030476 0.74800003 16645628
0.014940001 0.041974287 0.74700004 16645629
0.01631905 0.04186191 0.74500006 16711421
0.017690476 0.041749526 0.74300003 16449278
0.01908 0.041693337 0.74200004 16187131
0.020410476 0.041524764 0.73900002 15791864
0.021729525 0.041356195 0.73600006 15463413
0.023068571 0.04124381 0.73400003 14936563
0.024400003 0.041131433 0.73200005 14475755
0.025759049 0.041075241 0.73100001 14146276
0.027151428 0.041075241 0.73100001 13884380
0.028543809 0.041075241 0.73100001 13619668
0.029854286 0.04096286 0.72900003 13357778
0.031200001 0.040906668 0.72800004 13160401
0.032497145 0.040794283 0.72600001 12963789
0.033879999 0.040794283 0.72600001 12765642
0.035262857 0.040794283 0.72600001 12568006
0.03659524 0.040738095 0.72500002 12370627
0.03797619 0.040738095 0.72500002 12173502
0.039357144 0.040738095 0.72500002 11976378
0.040738095 0.040738095 0.72500002 11844534
0.042119049 0.040738095 0.72500002 11647155
0.043559998 0.040794283 0.72600001 11450032
0.04494286 0.040794283 0.72600001 11318446
0.046325717 0.040794283 0.72600001 11121579
0.047708571 0.040794283 0.72600001 10924201
0.049226668 0.040906668 0.72800004 10726822
0.050682858 0.04096286 0.72900003 10396580
0.052214287 0.041075241 0.73100001 10068634
0.053680003 0.041131433 0.73200005 9869456
0.055074289 0.041131433 0.73200005 9738124
0.056468572 0.041131433 0.73200005 8749448
0.057862859 0.041131433 0.73200005 7830913
0.059257146 0.041131433 0.73200005 8092027
0.060651433 0.041131433 0.73200005 8420217
0.062045716 0.041131433 0.73200005 8752247
-0.040229525 0.046301909 0.79700005 6852010
-0.038614288 0.046185717 0.79500002 10272986
-0.037006669 0.046069525 0.79300004 13756898
-0.035406668 0.045953333 0.79100001 14017514
-0.0339 0.045953333 0.79100001 14278632
-0.03227048 0.045779053 0.78800005 14278631
-0.03069143 0.045662858 0.78600001 14344679
-0.029120002 0.045546666 0.78400004 14410728
-0.027556192 0.045430478 0.78200006 14541802
-0.026000001 0.045314286 0.78000003 14607340
-0.024357144 0.04502381 0.77500004 14738410
-0.022821905 0.044907622 0.77300006 14672872
-0.021321906 0.044849522 0.77200001 14673130
-0.0198 0.044733334 0.77000004 14607853
-0.018285714 0.044617143 0.76800001 14607339
-0.016822856 0.044617143 0.76800001 14541544
-0.01534 0.04455905 0.76700002 14541545
-0.013806666 0.044326667 0.76300001 14476009
-0.012353334 0.044326667 0.76300001 14476009
-0.010857143 0.044152386 0.76000005 14476265
-0.0093847616 0.044036191 0.75800002 14476007
-0.0079409527 0.044036191 0.75800002 14475749
-0.0064800004 0.043919999 0.75600004 14542057
-0.0050400002 0.043919999 0.75600004 14673390
-0.0036000002 0.043919999 0.75600004 14870767
-0.0021571429 0.043861907 0.75500005 15002865
-0.00071714289 0.043745715 0.75300002 15199986
0.00071619049 0.043687619 0.75200003 15462900
0.0021485714 0.043687619 0.75200003 15791607
0.0035714288 0.043571431 0.75000006 15989242
0.0050000004 0.043571431 0.75000006 16186108
0.006411429 0.043455239 0.74800003 16252158
0.0078257145 0.043397143 0.74700004 16318205
0.0092485715 0.043397143 0.74700004 16514557
0.010642858 0.043280955 0.74500006 16711165
0.012061905 0.043280955 0.74500006 16711421
0.013480954 0.043280955 0.74500006 16711421
0.01486 0.043164764 0.74300003 16711421
0.016275238 0.043164764 0.74300003 16711419
0.017619047 0.042990476 0.74000001 16185849
0.019002859 0.042932384 0.73900002 15660791
0.02035524 0.042816196 0.73700005 15332340
0.021729525 0.0427581 0.73600006 15003630
0.023068571 0.042641908 0.73400003 14607336
0.024400003 0.042525716 0.73200005 14279141
0.025759049 0.042467616 0.73100001 14014945
0.027151428 0.042467616 0.73100001 13752795
0.028543809 0.042467616 0.73100001 13488340
0.029854286 0.042351428 0.72900003 13291474
0.031200001 0.042293333 0.72800004 13160400
0.032586671 0.042293333 0.72800004 13028812
0.033879999 0.042177141 0.72600001 12765640
0.035262857 0.042177141 0.72600001 12502468
0.03659524 0.042119049 0.72500002 12370625
0.03797619 0.042119049 0.72500002 12239038
0.039357144 0.042119049 0.72500002 12041915
0.040794283 0.042177141 0.72600001 11844279
0.042177141 0.042177141 0.72600001 11647155
0.043559998 0.042177141 0.72600001 11515568
0.04494286 0.042177141 0.72600001 11318957
0.046453338 0.042293333 0.72800004 11186602
0.047708571 0.042177141 0.72600001 10989479
0.049294289 0.042351428 0.72900003 10792872
0.050821904 0.042467616 0.73100001 10462376
0.05228572 0.042525716 0.73200005 10133913
0.053680003 0.042525716 0.73200005 9869449
0.055224765 0.042641908 0.73400003 9672327
0.056622859 0.042641908 0.73400003 8748933
0.058020953 0.042641908 0.73400003 7829884
0.059257146 0.042525716 0.73200005 8156787
0.060817145 0.042641908 0.73400003 8551542
0.062215243 0.042641908 0.73400003 8817786
-0.040128574 0.047700003 0.79500002 6852009
-0.038517144 0.047580004 0.79300004 10339286
-0.037006669 0.047580004 0.79300004 13757665
-0.035406668 0.047460001 0.79100001 14017772
-0.0339 0.047460001 0.79100001 14278890
-0.032311428 0.047340002 0.78900003 14279144
-0.03069143 0.04716 0.78600001 14344936
-0.029120002 0.047040001 0.78400004 14476008
-0.027556192 0.046920002 0.78200006 14541545
-0.026000001 0.046800002 0.78000003 14607594
-0.024357144 0.046500001 0.77500004 14673385
-0.022821905 0.046380006 0.77300006 14673385
-0.021321906 0.046320003 0.77200001 14673386
-0.0198 0.0462 0.77000004 14607595
-0.018285714 0.046079997 0.76800001 14541801
-0.016800953 0.046020001 0.76700002 14541799
-0.0153 0.045900002 0.76500005 14607592
-0.013806666 0.045779999 0.76300001 14541545
-0.012320952 0.04566 0.76100004 14541545
-0.010857143 0.045600004 0.76000005 14541545
-0.0093847616 0.045480002 0.75800002 14607078
-0.0079409527 0.045480002 0.75800002 14541795
-0.0064971428 0.045480002 0.75800002 14476519
-0.0050400002 0.045360003 0.75600004 14607596
-0.0036000002 0.045360003 0.75600004 14804973
-0.0021571429 0.045300003 0.75500005 14870767
-0.00071714289 0.045180004 0.75300002 15002096
0.00071619049 0.045120001 0.75200003 15265266
0.0021428573 0.045000002 0.75000006 15528437
0.0035714288 0.045000002 0.75000006 15791864
0.0050000004 0.045000002 0.75000006 15988987
0.006411429 0.044879999 0.74800003 16186110
0.0078257145 0.044819999 0.74700004 16383742
0.0092485715 0.044819999 0.74700004 16449022
0.010642858 0.044700004 0.74500006 16580350
0.012061905 0.044700004 0.74500006 16449278
0.013444763 0.044580001 0.74300003 16383742
0.01486 0.044580001 0.74300003 16252670
0.016253335 0.044520002 0.74200004 16121593
0.017619047 0.044399999 0.74000001 15726069
0.019002859 0.044340003 0.73900002 15330291
0.02035524 0.044220004 0.73700005 15068145
0.021729525 0.044160005 0.73600006 14805991
0.023068571 0.044040002 0.73400003 14409694
0.024400003 0.043920003 0.73200005 14082782
0.025794286 0.043920003 0.73200005 13818079
0.027151428 0.04386 0.73100001 13621210
0.028543809 0.04386 0.73100001 13423061
0.029854286 0.043740001 0.72900003 13226194
0.031242857 0.043740001 0.72900003 13094352
0.032586671 0.043680001 0.72800004 12897227
0.033879999 0.043559998 0.72600001 12699846
0.035262857 0.043559998 0.72600001 12502723
0.036645714 0.043559998 0.72600001 12305344
0.038028572 0.043559998 0.72600001 12173502
0.039411429 0.043559998 0.72600001 11975613
0.040794283 0.043559998 0.72600001 11778488
0.042177141 0.043559998 0.72600001 11581363
0.043559998 0.043559998 0.72600001 11450032
0.04506667 0.043680001 0.72800004 11318701
0.046453338 0.043680001 0.72800004 11186089
0.047840003 0.043680001 0.72800004 10989478
0.049294289 0.043740001 0.72900003 10793385
0.050821904 0.04386 0.73100001 10462125
0.05228572 0.043920003 0.73200005 10133912
0.053680003 0.043920003 0.73200005 9803907
0.055224765 0.044040002 0.73400003 9475715
0.056622859 0.044040002 0.73400003 8749443
0.058020953 0.044040002 0.73400003 8090999
0.059419051 0.044040002 0.73400003 8353644
0.060817145 0.044040002 0.73400003 8682868
0.062215243 0.044040002 0.73400003 8948605
-0.040027622 0.049090479 0.79300004 6917545
-0.038517144 0.049090479 0.79300004 10340311
-0.036913332 0.048966669 0.79100001 13822689
-0.035406668 0.048966669 0.79100001 14018284
-0.033814285 0.048842859 0.78900003 14278889
-0.032311428 0.048842859 0.78900003 14344935
-0.03069143 0.048657142 0.78600001 14410471
-0.029120002 0.048533335 0.78400004 14476008
-0.027556192 0.048409529 0.78200006 14607337
-0.026000001 0.048285715 0.78000003 14607851
-0.024420001 0.048100002 0.77700001 14673130
-0.022821905 0.047852382 0.77300006 14673130
-0.021321906 0.047790475 0.77200001 14673130
-0.0198 0.047666669 0.77000004 14607595
-0.018285714 0.047542859 0.76800001 14541799
-0.016800953 0.047480952 0.76700002 14607332
-0.01534 0.047480952 0.76700002 14672871
-0.013806666 0.047233336 0.76300001 14607337
-0.012320952 0.047109526 0.76100004 14607337
-0.010857143 0.047047619 0.76000005 14672874
-0.0094095245 0.047047619 0.76000005 14738410
-0.0079409527 0.046923809 0.75800002 14542058
-0.0064971428 0.046923809 0.75800002 14410987
-0.0050400002 0.046800002 0.75600004 14542061
-0.0036000002 0.046800002 0.75600004 14738926
-0.0021571429 0.046738099 0.75500005 14804719
-0.00071619049 0.046552382 0.75200003 14870256
0.00071619049 0.046552382 0.75200003 15066865
0.0021428573 0.046428576 0.75000006 15331060
0.0035714288 0.046428576 0.75000006 15594487
0.0049866666 0.046304762 0.74800003 15857145
0.0064028576 0.046242859 0.74700004 16120315
0.0078047626 0.046119049 0.74500006 16448508
0.0092238095 0.046119049 0.74500006 16449020
0.010642858 0.046119049 0.74500006 16514299
0.012029524 0.045995239 0.74300003 16252153
0.013444763 0.045995239 0.74300003 16054009
0.01484 0.045933336 0.74200004 15790584
0.016209524 0.045809526 0.74000001 15528438
0.017619047 0.045809526 0.74000001 15266291
0.018951431 0.045623813 0.73700005 15002093
0.02035524 0.045623813 0.73700005 14805222
0.021729525 0.04556191 0.73600006 14608098
0.023068571 0.045438096 0.73400003 14212062
0.024400003 0.045314286 0.73200005 13883869
0.025794286 0.045314286 0.73200005 13687005
0.027151428 0.045252379 0.73100001 13554904
0.028543809 0.045252379 0.73100001 13357780
0.029854286 0.045128573 0.72900003 13226450
0.031242857 0.045128573 0.72900003 13027792
0.032586671 0.04506667 0.72800004 12830923
0.033973332 0.04506667 0.72800004 12634310
0.035262857 0.04494286 0.72600001 12502466
0.036645714 0.04494286 0.72600001 12305598
0.038028572 0.04494286 0.72600001 12107965
0.039411429 0.04494286 0.72600001 11909308
0.040794283 0.04494286 0.72600001 11712694
0.042177141 0.04494286 0.72600001 11581361
0.043680001 0.04506667 0.72800004 11449775
0.04506667 0.04506667 0.72800004 11318445
0.046453338 0.04506667 0.72800004 11252138
0.047840003 0.04506667 0.72800004 10988967
0.049294289 0.045128573 0.72900003 10792615
0.050821904 0.045252379 0.73100001 10461864
0.05228572 0.045314286 0.73200005 10199448
0.053826667 0.045438096 0.73400003 9738376
0.055224765 0.045438096 0.73400003 9278597
0.056622859 0.045438096 0.73400003 8815490
0.058179051 0.04556191 0.73600006 8353917
0.059419051 0.045438096 0.73400003 8616056
0.060817145 0.045438096 0.73400003 8881532
0.062215243 0.045438096 0.73400003 9014144
-0.04164286 0.050728571 0.79500002 4281981
-0.040027622 0.050600957 0.79300004 6720938
-0.038517144 0.050600957 0.79300004 10207704
-0.036913332 0.050473336 0.79100001 13756898
-0.035406668 0.050473336 0.79100001 14018284
-0.033814285 0.050345715 0.78900003 14279145
-0.03227048 0.050281905 0.78800005 14344678
-0.03069143 0.050154287 0.78600001 14410471
-0.029120002 0.05002667 0.78400004 14476265
-0.027556192 0.049899053 0.78200006 14542058
-0.025966669 0.049707621 0.77900004 14607596
-0.024357144 0.049452383 0.77500004 14673132
-0.022821905 0.049324766 0.77300006 14673388
-0.021266669 0.049133338 0.77000004 14673643
-0.0198 0.049133338 0.77000004 14607851
-0.018285714 0.049005713 0.76800001 14541798
-0.016822856 0.049005713 0.76800001 14607074
-0.01534 0.048941903 0.76700002 14607078
-0.013806666 0.048686668 0.76300001 14607338
-0.012353334 0.048686668 0.76300001 14541802
-0.010857143 0.048495241 0.76000005 14607339
-0.0094095245 0.048495241 0.76000005 14607598
-0.0079409527 0.04836762 0.75800002 14542065
-0.0064971428 0.04836762 0.75800002 14476527
-0.0050400002 0.048240002 0.75600004 14542062
-0.0036000002 0.048240002 0.75600004 14673134
-0.0021514287 0.048048571 0.75300002 14738927
-0.00071619049 0.047984764 0.75200003 14804720
0.00071619049 0.047984764 0.75200003 15001585
0.0021428573 0.047857147 0.75000006 15133683
0.0035619049 0.047729526 0.74800003 15331318
0.0049800002 0.047665719 0.74700004 15528695
0.0064028576 0.047665719 0.74700004 15660537
0.0078047626 0.047538098 0.74500006 15792634
0.0092238095 0.047538098 0.74500006 15727355
0.010614286 0.047410477 0.74300003 15727864
0.012029524 0.047410477 0.74300003 15595253
0.013444763 0.047410477 0.74300003 15528436
0.0148 0.047219049 0.74000001 15331827
0.016209524 0.047219049 0.74000001 15135218
0.017595239 0.047155239 0.73900002 14871794
0.018951431 0.047027621 0.73700005 14674151
0.02032762 0.046963815 0.73600006 14476764
0.021670477 0.04683619 0.73400003 14344925
0.023068571 0.04683619 0.73400003 14080991
0.024400003 0.046708573 0.73200005 13817821
0.025794286 0.046708573 0.73200005 13686747
0.027151428 0.046644762 0.73100001 13488855
0.028543809 0.046644762 0.73100001 13357780
0.029854286 0.046517145 0.72900003 13161170
0.031242857 0.046517145 0.72900003 12962001
0.032586671 0.046453338 0.72800004 12764875
0.033973332 0.046453338 0.72800004 12568006
0.035262857 0.046325717 0.72600001 12436929
0.036645714 0.046325717 0.72600001 12239804
0.038028572 0.046325717 0.72600001 12042683
0.039411429 0.046325717 0.72600001 11843771
0.040794283 0.046325717 0.72600001 11647157
0.042177141 0.046325717 0.72600001 11515568
0.043680001 0.046453338 0.72800004 11449774
0.04506667 0.046453338 0.72800004 11318445
0.046517145 0.046517145 0.72900003 11252906
0.047905717 0.046517145 0.72900003 10989480
0.049429525 0.046644762 0.73100001 10792101
0.050891433 0.046708573 0.73200005 10461859
0.052428573 0.04683619 0.73400003 10199448
0.053826667 0.04683619 0.73400003 9738126
0.055375241 0.046963815 0.73600006 9278343
0.056777146 0.046963815 0.73600006 8880257
0.058179051 0.046963815 0.73600006 8486019
0.059580956 0.046963815 0.73600006 8881285
0.060982861 0.046963815 0.73600006 9342340
-0.04164286 0.052242856 0.79500002 4281718
-0.040027622 0.052111432 0.79300004 6588582
-0.038517144 0.052111432 0.79300004 10140886
-0.036913332 0.05198 0.79100001 13690081
-0.035406668 0.05198 0.79100001 13952749
-0.033814285 0.051848572 0.78900003 14278889
-0.03227048 0.051782858 0.78800005 14344678
-0.03069143 0.051651429 0.78600001 14410472
-0.029120002 0.051520005 0.78400004 14476522
-0.027556192 0.051388573 0.78200006 14542059
-0.026000001 0.051257145 0.78000003 14607853
-0.024294289 0.050797146 0.77300006 14673388
-0.022792382 0.050731428 0.77200001 14673644
-0.021266669 0.0506 0.77000004 14739181
-0.0198 0.0506 0.77000004 14673903
-0.018285714 0.050468571 0.76800001 14607594
-0.016800953 0.050402857 0.76700002 14607078
-0.01534 0.050402857 0.76700002 14607336
-0.013806666 0.050139997 0.76300001 14542058
-0.012320952 0.050008573 0.76100004 14541801
-0.010871429 0.050008573 0.76100004 14541801
-0.0094095245 0.049942859 0.76000005 14541803
-0.0079409527 0.04981143 0.75800002 14541805
-0.0064971428 0.04981143 0.75800002 14541805
-0.0050400002 0.049680002 0.75600004 14541804
-0.0035857144 0.049482856 0.75300002 14607597
-0.0021514287 0.049482856 0.75300002 14673133
-0.00071619049 0.049417142 0.75200003 14804718
0.00071428576 0.049285717 0.75000006 14870767
0.0021428573 0.049285717 0.75000006 15002352
0.0035619049 0.049154289 0.74800003 15133936
0.0049800002 0.049088575 0.74700004 15265265
0.0064028576 0.049088575 0.74700004 15199986
0.0078047626 0.048957143 0.74500006 15133939
0.0092238095 0.048957143 0.74500006 15068149
0.010614286 0.048825715 0.74300003 15002355
0.012029524 0.048825715 0.74300003 15002098
0.013390477 0.048628572 0.74000001 15002353
0.01478 0.048562858 0.73900002 14871792
0.016187619 0.048562858 0.73900002 14739693
0.01754762 0.048431434 0.73700005 14542059
0.018925715 0.04836572 0.73600006 14344420
0.02032762 0.04836572 0.73600006 14212574
0.021670477 0.048234288 0.73400003 14146782
0.023068571 0.048234288 0.73400003 13949918
0.024466667 0.048234288 0.73400003 13817820
0.025794286 0.048102859 0.73200005 13620954
0.027151428 0.048037142 0.73100001 13489367
0.028543809 0.048037142 0.73100001 13292500
0.029854286 0.047905717 0.72900003 13160658
0.031242857 0.047905717 0.72900003 12896209
0.032631427 0.047905717 0.72900003 12699339
0.033973332 0.047840003 0.72800004 12568005
0.035262857 0.047708571 0.72600001 12436673
0.036645714 0.047708571 0.72600001 12238782
0.038028572 0.047708571 0.72600001 12042428
0.039411429 0.047708571 0.72600001 11778490
0.040794283 0.047708571 0.72600001 11581366
0.042293333 0.047840003 0.72800004 11515570
0.043680001 0.047840003 0.72800004 11449519
0.045128573 0.047905717 0.72900003 11317933
0.046517145 0.047905717 0.72900003 11252138
0.048037142 0.048037142 0.73100001 11055528
0.049429525 0.048037142 0.73100001 10857893
0.050891433 0.048102859 0.73200005 10527395
0.052428573 0.048234288 0.73400003 10199452
0.053973336 0.04836572 0.73600006 9737877
0.055375241 0.04836572 0.73600006 9278346
0.056854289 0.048431434 0.73700005 8945023
0.058258101 0.048431434 0.73700005 8617087
0.05966191 0.048431434 0.73700005 9211008
0.061065719 0.048431434 0.73700005 9800834
0.062469527 0.048431434 0.73700005 9538691
-0.043157145 0.053757142 0.79500002 1975120
-0.04164286 0.053757142 0.79500002 4214896
-0.040027622 0.053621907 0.79300004 6456482
-0.038517144 0.053621907 0.79300004 9943253
-0.036913332 0.053486664 0.79100001 13426913
-0.035406668 0.053486664 0.79100001 13885678
-0.033814285 0.053351428 0.78900003 14344426
-0.03227048 0.053283811 0.78800005 14344679
-0.03069143 0.053148571 0.78600001 14410729
-0.029120002 0.053013336 0.78400004 14476523
-0.027626667 0.053013336 0.78400004 14542060
-0.026000001 0.052742857 0.78000003 14607854
-0.024294289 0.052269526 0.77300006 14673645
-0.022792382 0.052201904 0.77200001 14673645
-0.021266669 0.052066669 0.77000004 14739440
-0.0198 0.052066669 0.77000004 14673651
-0.018285714 0.05193143 0.76800001 14673390
-0.016800953 0.051863808 0.76700002 14607594
-0.01534 0.051863808 0.76700002 14607594
-0.013806666 0.051593333 0.76300001 14476522
-0.012320952 0.051458098 0.76100004 14410984
-0.010871429 0.051458098 0.76100004 14476263
-0.0094095245 0.05139048 0.76000005 14476008
-0.0079409527 0.051255237 0.75800002 14476266
-0.0064971428 0.051255237 0.75800002 14541802
-0.0050400002 0.051120002 0.75600004 14541803
-0.0035952383 0.051052384 0.75500005 14607595
-0.0021514287 0.050917145 0.75300002 14673132
-0.00071619049 0.050849527 0.75200003 14739437
0.00071428576 0.050714288 0.75000006 14805230
0.0021371427 0.050579049 0.74800003 14936556
0.003557143 0.050511431 0.74700004 14936811
0.0049800002 0.050511431 0.74700004 15002859
0.0063857147 0.050376195 0.74500006 14937067
0.0077838097 0.050240953 0.74300003 14937069
0.0091990475 0.050240953 0.74300003 14871023
0.010614286 0.050240953 0.74300003 14870767
0.012013334 0.050173335 0.74200004 14805232
0.013390477 0.050038096 0.74000001 14806255
0.01478 0.049970478 0.73900002 14674158
0.016187619 0.049970478 0.73900002 14607337
0.01754762 0.049835242 0.73700005 14409956
0.018925715 0.049767621 0.73600006 14212066
0.020272382 0.049632382 0.73400003 14146272
0.021670477 0.049632382 0.73400003 14080735
0.023005717 0.049497146 0.73200005 13883870
0.024400003 0.049497146 0.73200005 13752539
0.025759049 0.049429525 0.73100001 13620953
0.027151428 0.049429525 0.73100001 13489878
0.028543809 0.049429525 0.73100001 13291988
0.029854286 0.049294289 0.72900003 13029074
0.031242857 0.049294289 0.72900003 12896721
0.032631427 0.049294289 0.72900003 12700107
0.033973332 0.049226668 0.72800004 12501957
0.035360001 0.049226668 0.72800004 12371138
0.03674667 0.049226668 0.72800004 12172992
0.038133334 0.049226668 0.72800004 12042429
0.039520003 0.049226668 0.72800004 11844026
0.040906668 0.049226668 0.72800004 11646647
0.042293333 0.049226668 0.72800004 11515572
0.043740001 0.049294289 0.72900003 11383984
0.045128573 0.049294289 0.72900003 11317933
0.046644762 0.049429525 0.73100001 11186602
0.048037142 0.049429525 0.73100001 10989992
0.049429525 0.049429525 0.73100001 10858150
0.050891433 0.049497146 0.73200005 10527396
0.052428573 0.049632382 0.73400003 10199712
0.053973336 0.049767621 0.73600006 9672348
0.05545048 0.049835242 0.73700005 9213068
0.056854289 0.049835242 0.73700005 8813949
0.058258101 0.049835242 0.73700005 8486012
0.05966191 0.049835242 0.73700005 8947324
0.061065719 0.049835242 0.73700005 9342591
0.062469527 0.049835242 0.73700005 9276547
-0.042940002 0.054993331 0.79100001 1975122
-0.04164286 0.055271428 0.79500002 4148336
-0.040027622 0.055132385 0.79300004 6326179
-0.038517144 0.055132385 0.79300004 9745879
-0.036913332 0.054993331 0.79100001 13231074
-0.035317142 0.054854289 0.78900003 13820910
-0.033814285 0.054854289 0.78900003 14410474
-0.03227048 0.054784764 0.78800005 14410470
-0.03069143 0.054645717 0.78600001 14410472
-0.029120002 0.054506667 0.78400004 14476523
-0.027556192 0.054367624 0.78200006 14607596
-0.025966669 0.054159053 0.77900004 14607853
-0.024294289 0.05374191 0.77300006 14673645
-0.022792382 0.053672384 0.77200001 14673901
-0.021266669 0.053533334 0.77000004 14739438
-0.0198 0.053533334 0.77000004 14739183
-0.018285714 0.053394284 0.76800001 14738923
-0.016800953 0.053324763 0.76700002 14673384
-0.0153 0.05318572 0.76500005 14607593
-0.013806666 0.053046666 0.76300001 14476522
-0.012320952 0.05290762 0.76100004 14345449
-0.010871429 0.05290762 0.76100004 14410984
-0.0094095245 0.052838098 0.76000005 14476265
-0.0079409527 0.052699048 0.75800002 14476266
-0.0064971428 0.052699048 0.75800002 14541802
-0.0050400002 0.052560002 0.75600004 14542059
-0.0035952383 0.05249048 0.75500005 14607595
-0.0021514287 0.05235143 0.75300002 14673388
-0.00071619049 0.052281909 0.75200003 14739182
0.00071428576 0.052142859 0.75000006 14805487
0.0021371427 0.052003808 0.74800003 14871021
0.003557143 0.051934287 0.74700004 14804971
0.0049800002 0.051934287 0.74700004 14739179
0.0063857147 0.051795244 0.74500006 14738923
0.0077838097 0.05165619 0.74300003 14804716
0.0091990475 0.05165619 0.74300003 14739694
0.010614286 0.05165619 0.74300003 14739438
0.012013334 0.051586669 0.74200004 14673902
0.013372381 0.051378097 0.73900002 14607852
0.01478 0.051378097 0.73900002 14542059
0.016187619 0.051378097 0.73900002 14476007
0.01752381 0.051169526 0.73600006 14278116
0.018925715 0.051169526 0.73600006 14080994
0.020272382 0.051030476 0.73400003 14015456
0.021670477 0.051030476 0.73400003 14014942
0.023005717 0.050891433 0.73200005 13883613
0.024400003 0.050891433 0.73200005 13752284
0.025759049 0.050821904 0.73100001 13620954
0.027151428 0.050821904 0.73100001 13554646
0.028465716 0.050682858 0.72900003 13225938
0.029854286 0.050682858 0.72900003 12963279
0.031242857 0.050682858 0.72900003 12831693
0.032586671 0.050613336 0.72800004 12765385
0.033973332 0.050613336 0.72800004 12501701
0.035360001 0.050613336 0.72800004 12305346
0.03674667 0.050613336 0.72800004 12172735
0.038133334 0.050613336 0.72800004 12041149
0.039520003 0.050613336 0.72800004 11844027
0.040906668 0.050613336 0.72800004 11712439
0.042293333 0.050613336 0.72800004 11515828
0.043740001 0.050682858 0.72900003 11383729
0.045252379 0.050821904 0.73100001 11252654
0.046644762 0.050821904 0.73100001 11186603
0.048037142 0.050821904 0.73100001 10989992
0.049497146 0.050891433 0.73200005 10858665
0.051030476 0.051030476 0.73400003 10527658
0.052571431 0.051169526 0.73600006 10199456
0.053973336 0.051169526 0.73600006 9672342
0.05545048 0.051239051 0.73700005 9147014
0.056854289 0.051239051 0.73700005 8748406
0.058416191 0.051378097 0.73900002 8420731
0.05966191 0.051239051 0.73700005 8683903
0.061065719 0.051239051 0.73700005 8948353
0.062469527 0.051239051 0.73700005 9079938
-0.043265719 0.056928575 0.79700005 2237268
-0.04164286 0.056785714 0.79500002 4148336
-0.040027622 0.05664286 0.79300004 6130341
-0.038517144 0.05664286 0.79300004 9548250
-0.036913332 0.056499999 0.79100001 12969700
-0.035272382 0.056285717 0.78800005 13690350
-0.033771429 0.056285717 0.78800005 14476522
-0.03227048 0.056285717 0.78800005 14410470
-0.03069143 0.056142855 0.78600001 14410216
-0.029120002 0.056000002 0.78400004 14476523
-0.027556192 0.055857148 0.78200006 14607852
-0.025966669 0.055642858 0.77900004 14673389
-0.024294289 0.05521429 0.77300006 14673645
-0.022792382 0.055142857 0.77200001 14739437
-0.021266669 0.055000003 0.77000004 14739692
-0.0198 0.055000003 0.77000004 14739435
-0.018285714 0.054857146 0.76800001 14739177
-0.016800953 0.054785714 0.76700002 14673383
-0.0153 0.05464286 0.76500005 14607849
-0.013806666 0.054500002 0.76300001 14542315
-0.012320952 0.054357145 0.76100004 14477034
-0.010871429 0.054357145 0.76100004 14476778
-0.0094095245 0.054285716 0.76000005 14476778
-0.0079409527 0.054142859 0.75800002 14476267
-0.0064971428 0.054142859 0.75800002 14542059
-0.0050400002 0.054000005 0.75600004 14542059
-0.0035952383 0.053928573 0.75500005 14607852
-0.0021514287 0.053785715 0.75300002 14673389
-0.00071619049 0.053714287 0.75200003 14673647
0.00071428576 0.053571433 0.75000006 14674161
0.0021371427 0.053428572 0.74800003 14740206
0.003557143 0.053357143 0.74700004 14673131
0.0049666674 0.053214289 0.74500006 14607083
0.0063857147 0.053214289 0.74500006 14673132
0.0077838097 0.053071432 0.74300003 14738924
0.0091990475 0.053071432 0.74300003 14673389
0.010614286 0.053071432 0.74300003 14607853
0.012013334 0.052999999 0.74200004 14542317
0.013372381 0.052785717 0.73900002 14476778
0.01478 0.052785717 0.73900002 14410472
0.01614381 0.052642863 0.73700005 14344678
0.01752381 0.052571431 0.73600006 14212581
0.018874286 0.052428573 0.73400003 14080994
0.020272382 0.052428573 0.73400003 14015456
0.021670477 0.052428573 0.73400003 13949406
0.023005717 0.05228572 0.73200005 13818077
0.024400003 0.05228572 0.73200005 13686492
0.025759049 0.052214287 0.73100001 13554908
0.027151428 0.052214287 0.73100001 13423062
0.028465716 0.05207143 0.72900003 13225937
0.029854286 0.05207143 0.72900003 12963277
0.031242857 0.05207143 0.72900003 12831689
0.032631427 0.05207143 0.72900003 12699847
0.033973332 0.052000001 0.72800004 12501957
0.035360001 0.052000001 0.72800004 12305089
0.03674667 0.052000001 0.72800004 12107198
0.038133334 0.052000001 0.72800004 11975101
0.039574288 0.05207143 0.72900003 11843772
0.040906668 0.052000001 0.72800004 11712696
0.042351428 0.05207143 0.72900003 11515317
0.04386 0.052214287 0.73100001 11383730
0.045252379 0.052214287 0.73100001 11252400
0.046644762 0.052214287 0.73100001 11186604
0.048102859 0.05228572 0.73200005 10989993
0.049497146 0.05228572 0.73200005 10859181
0.051030476 0.052428573 0.73400003 10461873
0.052571431 0.052571431 0.73600006 10133921
0.054046672 0.052642863 0.73700005 9606289
0.05545048 0.052642863 0.73700005 9146496
0.057008572 0.052785717 0.73900002 8748656
0.058416191 0.052785717 0.73900002 8420985
0.059823811 0.052785717 0.73900002 8618371
0.061231427 0.052785717 0.73900002 8882050
-0.043265719 0.058446668 0.79700005 2500433
-0.041747622 0.058446668 0.79700005 4213868
-0.040128574 0.0583 0.79500002 5931682
-0.038517144 0.058153339 0.79300004 9285081
-0.036913332 0.058006667 0.79100001 12707556
-0.035272382 0.05778667 0.78800005 13626352
-0.033771429 0.05778667 0.78800005 14607595
-0.03227048 0.05778667 0.78800005 14476007
-0.03069143 0.057639997 0.78600001 14410217
-0.029120002 0.057493336 0.78400004 14542059
-0.027556192 0.057346672 0.78200006 14673132
-0.025966669 0.057126667 0.77900004 14673646
-0.024294289 0.05668667 0.77300006 14739181
-0.022792382 0.056613334 0.77200001 14739693
-0.021266669 0.056466669 0.77000004 14805228
-0.0198 0.056466669 0.77000004 14739692
-0.018285714 0.05632 0.76800001 14738922
-0.016800953 0.056246668 0.76700002 14673385
-0.0153 0.056100003 0.76500005 14607850
-0.013806666 0.055953331 0.76300001 14608107
-0.012353334 0.055953331 0.76300001 14608107
-0.010871429 0.05580667 0.76100004 14542571
-0.0094095245 0.055733338 0.76000005 14542059
-0.0079409527 0.055586666 0.75800002 14541803
-0.0064971428 0.055586666 0.75800002 14541803
-0.0050400002 0.055440001 0.75600004 14607340
-0.0035857144 0.05522 0.75300002 14673388
-0.0021485714 0.055146668 0.75200003 14673388
-0.00071428576 0.055000003 0.75000006 14673132
0.00071238098 0.054853335 0.74800003 14607341
0.0021342859 0.054780003 0.74700004 14607084
0.003557143 0.054780003 0.74700004 14541290
0.0049666674 0.054633338 0.74500006 14475754
0.0063857147 0.054633338 0.74500006 14542059
0.0077838097 0.05448667 0.74300003 14673131
0.0091990475 0.05448667 0.74300003 14607595
0.010614286 0.05448667 0.74300003 14541803
0.012013334 0.054413334 0.74200004 14410730
0.013390477 0.054266665 0.74000001 14344936
0.01478 0.054193333 0.73900002 14279142
0.016187619 0.054193333 0.73900002 14278885
0.01752381 0.053973336 0.73600006 14147299
0.018925715 0.053973336 0.73600006 14081249
0.020272382 0.053826667 0.73400003 13949919
0.021670477 0.053826667 0.73400003 13883613
0.023005717 0.053680003 0.73200005 13752539
0.024400003 0.053680003 0.73200005 13687003
0.025759049 0.053606667 0.73100001 13489114
0.027151428 0.053606667 0.73100001 13357782
0.028465716 0.053460002 0.72900003 13160657
0.029854286 0.053460002 0.72900003 13028813
0.031242857 0.053460002 0.72900003 12831690
0.032631427 0.053460002 0.72900003 12699590
0.033973332 0.05338667 0.72800004 12502467
0.035360001 0.05338667 0.72800004 12370368
0.03674667 0.05338667 0.72800004 12107198
0.038133334 0.05338667 0.72800004 11909563
0.039574288 0.053460002 0.72900003 11843769
0.04096286 0.053460002 0.72900003 11777976
0.042351428 0.053460002 0.72900003 11579830
0.04386 0.053606667 0.73100001 11383218
0.045252379 0.053606667 0.73100001 11317678
0.046644762 0.053606667 0.73100001 11252139
0.048102859 0.053680003 0.73200005 11055529
0.049497146 0.053680003 0.73200005 10858409
0.051030476 0.053826667 0.73400003 10461866
0.052571431 0.053973336 0.73600006 10133919
0.054046672 0.054046672 0.73700005 9605780
0.05545048 0.054046672 0.73700005 9146759
0.057008572 0.054193333 0.73900002 8749179
0.058416191 0.054193333 0.73900002 8420990
0.059823811 0.054193333 0.73900002 8618626
0.061231427 0.054193333 0.73900002 8816513
-0.041747622 0.059964765 0.79700005 4278120
-0.040128574 0.059814285 0.79500002 6060960
-0.038517144 0.059663814 0.79300004 9219288
-0.036913332 0.059513334 0.79100001 12445413
-0.035272382 0.059287623 0.78800005 13560051
-0.033771429 0.059287623 0.78800005 14738925
-0.032188572 0.059137143 0.78600001 14541544
-0.03069143 0.059137143 0.78600001 14344937
-0.029120002 0.058986671 0.78400004 14476267
-0.027556192 0.058836192 0.78200006 14673133
-0.025966669 0.05861048 0.77900004 14673647
-0.024294289 0.058159053 0.77300006 14739182
-0.022792382 0.05808381 0.77200001 14739438
-0.021266669 0.057933334 0.77000004 14739437
-0.0198 0.057933334 0.77000004 14739437
-0.018285714 0.057782859 0.76800001 14673388
-0.016800953 0.057707619 0.76700002 14607851
-0.0153 0.057557147 0.76500005 14542315
-0.013806666 0.057406668 0.76300001 14542315
-0.012353334 0.057406668 0.76300001 14607851
-0.010871429 0.057256192 0.76100004 14607852
-0.0094095245 0.057180956 0.76000005 14607339
-0.0079409527 0.057030477 0.75800002 14607339
-0.0064800004 0.056880001 0.75600004 14607596
-0.0050400002 0.056880001 0.75600004 14607853
-0.0035857144 0.056654289 0.75300002 14673644
-0.0021485714 0.05657905 0.75200003 14673131
-0.00071428576 0.056428574 0.75000006 14607594
0.00071238098 0.056278098 0.74800003 14541546
0.0021342859 0.056202862 0.74700004 14475754
0.003557143 0.056202862 0.74700004 14475754
0.0049666674 0.056052383 0.74500006 14410218
0.0063857147 0.056052383 0.74500006 14476266
0.0077838097 0.055901907 0.74300003 14541802
0.0091990475 0.055901907 0.74300003 14476266
0.010600001 0.055826671 0.74200004 14476009
0.011980952 0.055676188 0.74000001 14410472
0.013372381 0.055600952 0.73900002 14279142
0.01478 0.055600952 0.73900002 14278885
0.016187619 0.055600952 0.73900002 14213091
0.01752381 0.055375241 0.73600006 14147298
0.018874286 0.055224765 0.73400003 14147296
0.020272382 0.055224765 0.73400003 14015454
0.02161143 0.055074289 0.73200005 13883612
0.023005717 0.055074289 0.73200005 13752538
0.024400003 0.055074289 0.73200005 13621977
0.025759049 0.054999046 0.73100001 13489113
0.027151428 0.054999046 0.73100001 13292757
0.028465716 0.054848574 0.72900003 13160402
0.029854286 0.054848574 0.72900003 12963534
0.031242857 0.054848574 0.72900003 12765387
0.032631427 0.054848574 0.72900003 12568262
0.034019999 0.054848574 0.72900003 12436418
0.035408571 0.054848574 0.72900003 12239296
0.036797144 0.054848574 0.72900003 12041662
0.038185716 0.054848574 0.72900003 11909818
0.039574288 0.054848574 0.72900003 11778487
0.04096286 0.054848574 0.72900003 11712439
0.042351428 0.054848574 0.72900003 11580344
0.04386 0.054999046 0.73100001 11383474
0.045252379 0.054999046 0.73100001 11252141
0.046708573 0.055074289 0.73200005 11186347
0.048102859 0.055074289 0.73200005 10989737
0.049497146 0.055074289 0.73200005 10792358
0.051030476 0.055224765 0.73400003 10462371
0.052571431 0.055375241 0.73600006 10199453
0.054046672 0.05545048 0.73700005 9671575
0.05545048 0.05545048 0.73700005 9147279
0.057008572 0.055600952 0.73900002 8749191
0.058416191 0.055600952 0.73900002 8421252
0.059823811 0.055600952 0.73900002 8553345
0.061231427 0.055600952 0.73900002 8750976
-0.041747622 0.061482862 0.79700005 4342641
-0.040128574 0.061328575 0.79500002 6192033
-0.038419999 0.061019998 0.79100001 9153488
-0.036913332 0.061019998 0.79100001 12181217
-0.035272382 0.060788572 0.78800005 13495539
-0.033771429 0.060788572 0.78800005 14869997
-0.03227048 0.060788572 0.78800005 14607080
-0.03069143 0.060634285 0.78600001 14344937
-0.029120002 0.060480002 0.78400004 14475755
-0.027485715 0.060171433 0.78000003 14673388
-0.025966669 0.060094289 0.77900004 14673902
-0.024294289 0.059631433 0.77300006 14739439
-0.022792382 0.059554286 0.77200001 14739439
-0.021266669 0.059400003 0.77000004 14739438
-0.01974857 0.059245713 0.76800001 14673902
-0.018285714 0.059245713 0.76800001 14673389
-0.016757144 0.059014291 0.76500005 14542060
-0.015260001 0.05886 0.76300001 14476779
-0.013806666 0.05886 0.76300001 14542571
-0.012353334 0.05886 0.76300001 14673387
-0.010871429 0.058705717 0.76100004 14673387
-0.0094095245 0.058628574 0.76000005 14673386
-0.0079409527 0.058474287 0.75800002 14673385
-0.0064800004 0.058320004 0.75600004 14673385
-0.0050333338 0.058242857 0.75500005 14673642
-0.0035857144 0.058088571 0.75300002 14738920
-0.0021485714 0.058011431 0.75200003 14673127
-0.00071428576 0.057857145 0.75000006 14607336
0.00071238098 0.057702858 0.74800003 14475497
0.0021371427 0.057702858 0.74800003 14410218
0.003557143 0.057625718 0.74700004 14410731
0.0049800002 0.057625718 0.74700004 14410730
0.0063857147 0.057471432 0.74500006 14410730
0.0077838097 0.057317145 0.74300003 14410729
0.0091990475 0.057317145 0.74300003 14410728
0.010600001 0.057240006 0.74200004 14476007
0.011980952 0.057085715 0.74000001 14344934
0.013372381 0.057008572 0.73900002 14278885
0.01478 0.057008572 0.73900002 14213348
0.016187619 0.057008572 0.73900002 14212835
0.01752381 0.056777146 0.73600006 14212833
0.018925715 0.056777146 0.73600006 14212575
0.020272382 0.056622859 0.73400003 14081245
0.021670477 0.056622859 0.73400003 13949659
0.023005717 0.056468572 0.73200005 13752794
0.024400003 0.056468572 0.73200005 13620952
0.025759049 0.056391429 0.73100001 13423831
0.027151428 0.056391429 0.73100001 13292500
0.028465716 0.056237146 0.72900003 13094865
0.029854286 0.056237146 0.72900003 12962765
0.031242857 0.056237146 0.72900003 12699337
0.032631427 0.056237146 0.72900003 12502726
0.034019999 0.056237146 0.72900003 12305090
0.035408571 0.056237146 0.72900003 12173248
0.036797144 0.056237146 0.72900003 12041662
0.038185716 0.056237146 0.72900003 11909819
0.039574288 0.056237146 0.72900003 11778745
0.04096286 0.056237146 0.72900003 11712184
0.042351428 0.056237146 0.72900003 11580856
0.04386 0.056391429 0.73100001 11449267
0.045252379 0.056391429 0.73100001 11252655
0.046708573 0.056468572 0.73200005 11120812
0.048102859 0.056468572 0.73200005 10923946
0.049497146 0.056468572 0.73200005 10791589
0.051030476 0.056622859 0.73400003 10528417
0.052428573 0.056622859 0.73400003 10265243
0.054046672 0.056854289 0.73700005 9737366
0.05545048 0.056854289 0.73700005 9212816
0.057008572 0.057008572 0.73900002 8814730
0.058416191 0.057008572 0.73900002 8420996
0.059904762 0.057085715 0.74000001 8553855
0.061314281 0.057085715 0.74000001 8751233
-0.040128574 0.062842853 0.79500002 6388642
-0.038419999 0.062526666 0.79100001 9086409
-0.036913332 0.062526666 0.79100001 11786206
-0.035272382 0.062289529 0.78800005 13298419
-0.033771429 0.062289529 0.78800005 14870254
-0.03227048 0.062289529 0.78800005 14607337
-0.03069143 0.062131427 0.78600001 14344938
-0.029120002 0.061973337 0.78400004 14476011
-0.027556192 0.061815243 0.78200006 14673900
-0.025966669 0.061578099 0.77900004 14739438
-0.024294289 0.061103813 0.77300006 14805231
-0.022792382 0.061024766 0.77200001 14805233
-0.021321906 0.061024766 0.77200001 14805488
-0.0198 0.060866669 0.77000004 14739183
-0.018285714 0.060708571 0.76800001 14738926
-0.016757144 0.06047143 0.76500005 14607853
-0.015260001 0.060313337 0.76300001 14542572
-0.013806666 0.060313337 0.76300001 14608107
-0.012353334 0.060313337 0.76300001 14673643
-0.010871429 0.060155239 0.76100004 14673387
-0.0094095245 0.060076196 0.76000005 14673129
-0.0079409527 0.059918094 0.75800002 14673383
-0.0064800004 0.059760004 0.75600004 14673383
-0.0050333338 0.059680957 0.75500005 14673640
-0.0035857144 0.059522856 0.75300002 14672869
-0.0021485714 0.059443813 0.75200003 14607075
-0.00071428576 0.059285719 0.75000006 14541542
0.00071238098 0.059127621 0.74800003 14541545
0.0021371427 0.059127621 0.74800003 14476011
0.003557143 0.059048574 0.74700004 14476269
0.0049800002 0.059048574 0.74700004 14476523
0.0063857147 0.058890481 0.74500006 14476266
0.0077838097 0.058732383 0.74300003 14410728
0.0091866674 0.058653336 0.74200004 14410727
0.010600001 0.058653336 0.74200004 14476005
0.011980952 0.058495238 0.74000001 14344676
0.013372381 0.058416191 0.73900002 14278628
0.01478 0.058416191 0.73900002 14212836
0.016187619 0.058416191 0.73900002 14212834
0.01752381 0.058179051 0.73600006 14147297
0.018925715 0.058179051 0.73600006 14081247
0.020272382 0.058020953 0.73400003 14015453
0.02161143 0.057862859 0.73200005 13884379
0.023005717 0.057862859 0.73200005 13686746
0.024400003 0.057862859 0.73200005 13554903
0.025759049 0.057783809 0.73100001 13423829
0.027151428 0.057783809 0.73100001 13292498
0.028465716 0.057625718 0.72900003 13094352
0.029854286 0.057625718 0.72900003 12896716
0.031242857 0.057625718 0.72900003 12699592
0.032631427 0.057625718 0.72900003 12502725
