# .PCD v0.7 - Point Cloud Data file format
VERSION 0.7
FIELDS x y z rgba
SIZE 4 4 4 4
TYPE F F F U
COUNT 1 1 1 1
WIDTH 1057
HEIGHT 1
VIEWPOINT 0 0 0 1 0 0 0
POINTS 1057
DATA ascii
0.084660001 -0.06047143 0.74700004 12305844
0.086082861 -0.06047143 0.74700004 12370868
0.087505721 -0.06047143 0.74700004 12436147
0.08892858 -0.06047143 0.74700004 12631475
0.090472385 -0.060552381 0.74800003 12827066
0.091897145 -0.060552381 0.74800003 12959937
0.093321912 -0.060552381 0.74800003 13158591
-0.058357142 -0.064581908 0.81700003 11853003
-0.056453332 -0.06418667 0.81200004 13159363
-0.054636195 -0.063870475 0.80800003 12631740
-0.052834287 -0.063554287 0.80400002 12107971
-0.051047619 -0.063238099 0.80000001 12174026
-0.049400002 -0.063079998 0.79800004 12239050
-0.047820002 -0.063000955 0.79700005 12634314
-0.045779053 -0.062289529 0.78800005 13093588
-0.044053335 -0.061973337 0.78400004 13424605
-0.042451434 -0.061815243 0.78200006 13752286
-0.040857144 -0.061657146 0.78000003 13818848
-0.039219998 -0.061419997 0.77700001 13883871
-0.037642859 -0.061261907 0.77500004 13884127
-0.036073335 -0.061103813 0.77300006 13884127
-0.034466669 -0.060866669 0.77000004 13884128
-0.032914288 -0.060708571 0.76800001 13949922
-0.03145143 -0.060708571 0.76800001 13950180
-0.029949524 -0.060629524 0.76700002 13949926
-0.028414287 -0.06047143 0.76500005 14148072
-0.026957145 -0.06047143 0.76500005 14410213
-0.025366668 -0.060155239 0.76100004 14278626
-0.023917144 -0.060155239 0.76100004 14147298
-0.022438096 -0.060076196 0.76000005 14015970
-0.020935237 -0.059918094 0.75800002 13949923
-0.019491429 -0.059918094 0.75800002 13949668
-0.018000001 -0.059760004 0.75600004 13949922
-0.016538097 -0.059680957 0.75500005 13884640
-0.015040001 -0.059443813 0.75200003 13884127
-0.01360762 -0.059443813 0.75200003 13818333
-0.012142858 -0.059285719 0.75000006 13817822
-0.010714287 -0.059285719 0.75000006 13752031
-0.0092857154 -0.059285719 0.75000006 13686493
-0.007836191 -0.059127621 0.74800003 13555418
-0.006411429 -0.059127621 0.74800003 13424090
-0.0049800002 -0.059048574 0.74700004 13489369
-0.003557143 -0.059048574 0.74700004 13554905
-0.0021285715 -0.058890481 0.74500006 13489368
-0.00070952385 -0.058890481 0.74500006 13489367
0.00070952385 -0.058890481 0.74500006 13358039
0.0021285715 -0.058890481 0.74500006 13292248
0.0035380954 -0.058732383 0.74300003 13226202
0.0049533336 -0.058732383 0.74300003 13160661
0.0063685714 -0.058732383 0.74300003 13029840
0.0077733337 -0.058653336 0.74200004 12897232
0.0091866674 -0.058653336 0.74200004 12632272
0.010600001 -0.058653336 0.74200004 12435657
0.012013334 -0.058653336 0.74200004 12304579
0.013426667 -0.058653336 0.74200004 12174273
0.01484 -0.058653336 0.74200004 12306112
0.016253335 -0.058653336 0.74200004 12436675
0.017666668 -0.058653336 0.74200004 12370631
0.019028571 -0.058495238 0.74000001 12304838
0.020438096 -0.058495238 0.74000001 12370373
0.021847619 -0.058495238 0.74000001 12501709
0.023257142 -0.058495238 0.74000001 12900054
0.024666665 -0.058495238 0.74000001 13290953
0.026076192 -0.058495238 0.74000001 12699069
0.027485715 -0.058495238 0.74000001 12106429
0.028895238 -0.058495238 0.74000001 11975102
0.030263809 -0.058416191 0.73900002 11844025
0.031714283 -0.058495238 0.74000001 11778228
0.03307905 -0.058416191 0.73900002 11778231
0.034533337 -0.058495238 0.74000001 11712955
0.03589429 -0.058416191 0.73900002 11712442
0.037301905 -0.058416191 0.73900002 11581113
0.038709525 -0.058416191 0.73900002 11449784
0.040117145 -0.058416191 0.73900002 11383990
0.041524764 -0.058416191 0.73900002 11383734
0.042932384 -0.058416191 0.73900002 11317685
0.044340003 -0.058416191 0.73900002 11317682
0.045747619 -0.058416191 0.73900002 11252143
0.047155239 -0.058416191 0.73900002 11186605
0.048562858 -0.058416191 0.73900002 11120811
0.049970478 -0.058416191 0.73900002 11120808
0.051378097 -0.058416191 0.73900002 11055269
0.052857142 -0.058495238 0.74000001 10988970
0.054266665 -0.058495238 0.74000001 11054000
0.055676188 -0.058495238 0.74000001 11185069
0.057085715 -0.058495238 0.74000001 11054250
0.058653336 -0.058653336 0.74200004 10988204
0.06006667 -0.058653336 0.74200004 10922671
0.061562862 -0.058732383 0.74300003 10922668
0.062978096 -0.058732383 0.74300003 10857385
0.064393342 -0.058732383 0.74300003 10857129
0.065808572 -0.058732383 0.74300003 10856872
0.067223817 -0.058732383 0.74300003 10856612
0.068823814 -0.058890481 0.74500006 10921888
0.070242859 -0.058890481 0.74500006 10988708
0.071469523 -0.058732383 0.74300003 11055016
0.073080957 -0.058890481 0.74500006 11186603
0.074700005 -0.059048574 0.74700004 11318190
0.076122858 -0.059048574 0.74700004 11515053
0.077545717 -0.059048574 0.74700004 11646637
0.078968577 -0.059048574 0.74700004 11777709
0.080391429 -0.059048574 0.74700004 11909805
0.081814289 -0.059048574 0.74700004 12040878
0.083237141 -0.059048574 0.74700004 12041135
0.084660001 -0.059048574 0.74700004 12040365
0.086082861 -0.059048574 0.74700004 12105387
0.087505721 -0.059048574 0.74700004 12238264
0.089047618 -0.059127621 0.74800003 12897478
0.090472385 -0.059127621 0.74800003 13618887
0.091897145 -0.059127621 0.74800003 13553865
-0.061770476 -0.063334286 0.82100004 7241879
-0.060060002 -0.063180007 0.81900007 12445105
-0.058500003 -0.063180007 0.81900007 12571339
-0.056800954 -0.063025713 0.81700003 12698048
-0.05490667 -0.062640004 0.81200004 12369078
-0.053360004 -0.062640004 0.81200004 12040895
-0.050920002 -0.061560001 0.79800004 11910345
-0.049400002 -0.061560001 0.79800004 11845321
-0.047340002 -0.060865719 0.78900003 12108745
-0.045779053 -0.060788572 0.78800005 12437971
-0.044053335 -0.060480002 0.78400004 13096413
-0.04234286 -0.060171433 0.78000003 13752286
-0.040857144 -0.060171433 0.78000003 13818080
-0.039219998 -0.059939999 0.77700001 13883871
-0.037642859 -0.059785716 0.77500004 13883871
-0.036073335 -0.059631433 0.77300006 13884127
-0.034466669 -0.059400003 0.77000004 13884128
-0.032914288 -0.059245713 0.76800001 13949922
-0.03145143 -0.059245713 0.76800001 13949925
-0.029949524 -0.059168573 0.76700002 14015206
-0.028414287 -0.059014291 0.76500005 14148072
-0.026886668 -0.05886 0.76300001 14344676
-0.025366668 -0.058705717 0.76100004 14213088
-0.023885716 -0.058628574 0.76000005 14147297
-0.022438096 -0.058628574 0.76000005 14081506
-0.020935237 -0.058474287 0.75800002 14015715
-0.019440001 -0.058320004 0.75600004 13950181
-0.017976193 -0.058242857 0.75500005 13950179
-0.016538097 -0.058242857 0.75500005 13950177
-0.015040001 -0.058011431 0.75200003 13884127
-0.01360762 -0.058011431 0.75200003 13884381
-0.012142858 -0.057857145 0.75000006 13884636
-0.010714287 -0.057857145 0.75000006 13752540
-0.0092857154 -0.057857145 0.75000006 13686747
-0.007836191 -0.057702858 0.74800003 13620954
-0.006411429 -0.057702858 0.74800003 13555417
-0.0049866666 -0.057702858 0.74800003 13555161
-0.003557143 -0.057625718 0.74700004 13555161
-0.0021285715 -0.057471432 0.74500006 13489370
-0.00070952385 -0.057471432 0.74500006 13489368
0.00070952385 -0.057471432 0.74500006 13358039
0.0021285715 -0.057471432 0.74500006 13226453
0.0035380954 -0.057317145 0.74300003 13029588
0.0049533336 -0.057317145 0.74300003 12832719
0.0063600005 -0.057240006 0.74200004 12700107
0.0077733337 -0.057240006 0.74200004 12567754
0.0091866674 -0.057240006 0.74200004 12567241
0.010600001 -0.057240006 0.74200004 12566985
0.012013334 -0.057240006 0.74200004 12501962
0.013426667 -0.057240006 0.74200004 12437192
0.01484 -0.057240006 0.74200004 12437191
0.016253335 -0.057240006 0.74200004 12436936
0.017666668 -0.057240006 0.74200004 12370633
0.01908 -0.057240006 0.74200004 12305350
0.020493334 -0.057240006 0.74200004 12370628
0.021847619 -0.057085715 0.74000001 12436688
0.023257142 -0.057085715 0.74000001 12702429
0.024666665 -0.057085715 0.74000001 13029582
0.026040953 -0.057008572 0.73900002 12567231
0.027485715 -0.057085715 0.74000001 12106687
0.028895238 -0.057085715 0.74000001 11975360
0.030263809 -0.057008572 0.73900002 11909561
0.031714283 -0.057085715 0.74000001 11844019
0.03307905 -0.057008572 0.73900002 11844023
0.03448667 -0.057008572 0.73900002 11778492
0.03589429 -0.057008572 0.73900002 11778492
0.037301905 -0.057008572 0.73900002 11712445
0.038709525 -0.057008572 0.73900002 11646651
0.040117145 -0.057008572 0.73900002 11515321
0.041524764 -0.057008572 0.73900002 11449528
0.042932384 -0.057008572 0.73900002 11383735
0.044340003 -0.057008572 0.73900002 11318195
0.045747619 -0.057008572 0.73900002 11252400
0.047155239 -0.057008572 0.73900002 11252142
0.048562858 -0.057008572 0.73900002 11186349
0.049970478 -0.057008572 0.73900002 11120809
0.051378097 -0.057008572 0.73900002 10989222
0.052857142 -0.057085715 0.74000001 10857646
0.054266665 -0.057085715 0.74000001 10922935
0.055676188 -0.057085715 0.74000001 10988467
0.057085715 -0.057085715 0.74000001 10922672
0.058653336 -0.057240006 0.74200004 10856881
0.06006667 -0.057240006 0.74200004 10791091
0.061480001 -0.057240006 0.74200004 10790830
0.062978096 -0.057317145 0.74300003 10725289
0.064393342 -0.057317145 0.74300003 10725543
0.065808572 -0.057317145 0.74300003 10725285
0.067223817 -0.057317145 0.74300003 10725023
0.068823814 -0.057471432 0.74500006 10790553
0.070242859 -0.057471432 0.74500006 10791328
0.071661904 -0.057471432 0.74500006 10857128
0.073080957 -0.057471432 0.74500006 10923177
0.074700005 -0.057625718 0.74700004 11054763
0.076122858 -0.057625718 0.74700004 11252137
0.077545717 -0.057625718 0.74700004 11383975
0.078968577 -0.057625718 0.74700004 11515816
0.080391429 -0.057625718 0.74700004 11646890
0.081814289 -0.057625718 0.74700004 11778217
0.083237141 -0.057625718 0.74700004 11646633
0.084660001 -0.057625718 0.74700004 11449510
0.086082861 -0.057625718 0.74700004 11973795
0.087505721 -0.057625718 0.74700004 12564926
0.08892858 -0.057625718 0.74700004 13161689
0.090351433 -0.057625718 0.74700004 13753813
0.091774292 -0.057625718 0.74700004 13685457
-0.061770476 -0.061770476 0.82100004 8964794
-0.06020667 -0.061770476 0.82100004 14276546
-0.058500003 -0.061620004 0.81900007 13289931
-0.056800954 -0.061469521 0.81700003 12304835
-0.055109527 -0.061319049 0.81500006 12106683
-0.053491428 -0.06124381 0.81400001 11975616
-0.051940955 -0.06124381 0.81400001 11713477
-0.049400002 -0.060040005 0.79800004 11450818
-0.04716 -0.059137143 0.78600001 11581632
-0.045662858 -0.059137143 0.78600001 11780814
-0.044053335 -0.058986671 0.78400004 12768477
-0.04234286 -0.058685716 0.78000003 13751773
-0.040857144 -0.058685716 0.78000003 13818077
-0.039219998 -0.058459997 0.77700001 13949150
-0.037642859 -0.058309525 0.77500004 13883615
-0.036026664 -0.05808381 0.77200001 13884127
-0.034466669 -0.057933334 0.77000004 13884128
-0.032914288 -0.057782859 0.76800001 13949923
-0.031410474 -0.057707619 0.76700002 14015461
-0.029949524 -0.057707619 0.76700002 14081513
-0.028414287 -0.057557147 0.76500005 14213869
-0.026886668 -0.057406668 0.76300001 14344681
-0.025366668 -0.057256192 0.76100004 14213093
-0.023885716 -0.057180956 0.76000005 14147300
-0.022438096 -0.057180956 0.76000005 14081508
-0.020935237 -0.057030477 0.75800002 14081252
-0.019440001 -0.056880001 0.75600004 14015716
-0.018000001 -0.056880001 0.75600004 14015715
-0.016538097 -0.056804765 0.75500005 13950177
-0.01506 -0.056654289 0.75300002 13950176
-0.01360762 -0.05657905 0.75200003 13950175
-0.012142858 -0.056428574 0.75000006 13950174
-0.010714287 -0.056428574 0.75000006 13818589
-0.0092857154 -0.056428574 0.75000006 13752284
-0.007836191 -0.056278098 0.74800003 13752283
-0.0064028576 -0.056202862 0.74700004 13752027
-0.0049800002 -0.056202862 0.74700004 13620955
-0.003557143 -0.056202862 0.74700004 13555162
-0.0021285715 -0.056052383 0.74500006 13489370
-0.00070952385 -0.056052383 0.74500006 13489370
0.00070952385 -0.056052383 0.74500006 13292506
0.0021228571 -0.055901907 0.74300003 13160149
0.0035380954 -0.055901907 0.74300003 12831440
0.0049533336 -0.055901907 0.74300003 12568012
0.0063600005 -0.055826671 0.74200004 12370120
0.0077733337 -0.055826671 0.74200004 12240074
0.0091866674 -0.055826671 0.74200004 12436685
0.010600001 -0.055826671 0.74200004 12699595
0.012013334 -0.055826671 0.74200004 12700362
0.013426667 -0.055826671 0.74200004 12699849
0.01484 -0.055826671 0.74200004 12568264
0.016253335 -0.055826671 0.74200004 12502473
0.017666668 -0.055826671 0.74200004 12370890
0.019028571 -0.055676188 0.74000001 12305352
0.020438096 -0.055676188 0.74000001 12305095
0.021847619 -0.055676188 0.74000001 12370638
0.023257142 -0.055676188 0.74000001 12570581
0.024633335 -0.055600952 0.73900002 12832973
0.026040953 -0.055600952 0.73900002 12435397
0.027448572 -0.055600952 0.73900002 12106947
0.028895238 -0.055676188 0.74000001 12041154
0.030263809 -0.055600952 0.73900002 12040893
0.031671431 -0.055600952 0.73900002 11975353
0.03307905 -0.055600952 0.73900002 11909819
0.03448667 -0.055600952 0.73900002 11844286
0.03589429 -0.055600952 0.73900002 11844029
0.037301905 -0.055600952 0.73900002 11844029
0.038709525 -0.055600952 0.73900002 11843771
0.040117145 -0.055600952 0.73900002 11712697
0.041524764 -0.055600952 0.73900002 11580856
0.042932384 -0.055600952 0.73900002 11449528
0.044340003 -0.055600952 0.73900002 11383990
0.045747619 -0.055600952 0.73900002 11318451
0.047155239 -0.055600952 0.73900002 11317681
0.048562858 -0.055600952 0.73900002 11186607
0.049970478 -0.055600952 0.73900002 11120812
0.051378097 -0.055600952 0.73900002 10923433
0.052857142 -0.055676188 0.74000001 10726574
0.054266665 -0.055676188 0.74000001 10791859
0.055676188 -0.055676188 0.74000001 10857391
0.057240006 -0.055826671 0.74200004 10791340
0.058653336 -0.055826671 0.74200004 10791342
0.06006667 -0.055826671 0.74200004 10725295
0.061480001 -0.055826671 0.74200004 10659755
0.062978096 -0.055901907 0.74300003 10594216
0.064393342 -0.055901907 0.74300003 10594215
0.065808572 -0.055901907 0.74300003 10594214
0.067223817 -0.055901907 0.74300003 10659489
0.068823814 -0.056052383 0.74500006 10659485
0.070242859 -0.056052383 0.74500006 10659745
0.071661904 -0.056052383 0.74500006 10660005
0.073080957 -0.056052383 0.74500006 10725541
0.074700005 -0.056202862 0.74700004 10856614
0.076224767 -0.056278098 0.74800003 10988196
0.077545717 -0.056202862 0.74700004 11119779
0.078968577 -0.056202862 0.74700004 11251365
0.080391429 -0.056202862 0.74700004 11382950
0.081814289 -0.056202862 0.74700004 11578274
0.08334858 -0.056278098 0.74800003 11249310
0.084773332 -0.056278098 0.74800003 10923178
0.086198099 -0.056278098 0.74800003 11907766
0.087622859 -0.056278098 0.74800003 12897736
0.089047618 -0.056278098 0.74800003 13426138
0.090351433 -0.056202862 0.74700004 13949653
0.091774292 -0.056202862 0.74700004 13817296
-0.061920948 -0.060353335 0.82300001 10541278
-0.060353335 -0.060353335 0.82300001 14083796
-0.058642861 -0.06020667 0.82100004 13223883
-0.056940004 -0.060060002 0.81900007 12370374
-0.055244766 -0.059913337 0.81700003 12238017
-0.053557146 -0.059766669 0.81500006 12106945
-0.052004766 -0.059766669 0.81500006 11910082
-0.048657142 -0.057639997 0.78600001 11712956
-0.04716 -0.057639997 0.78600001 11844279
-0.045662858 -0.057639997 0.78600001 11975882
-0.044053335 -0.057493336 0.78400004 12767454
-0.042451434 -0.057346672 0.78200006 13554652
-0.040857144 -0.0572 0.78000003 13687259
-0.039320953 -0.057126667 0.77900004 13884125
-0.037545718 -0.05668667 0.77300006 13884383
-0.036026664 -0.056613334 0.77200001 13884640
-0.034466669 -0.056466669 0.77000004 13950177
-0.032914288 -0.05632 0.76800001 13950179
-0.031410474 -0.056246668 0.76700002 14081254
-0.02987143 -0.056100003 0.76500005 14147820
-0.028414287 -0.056100003 0.76500005 14279154
-0.026886668 -0.055953331 0.76300001 14410478
-0.025333336 -0.055733338 0.76000005 14278634
-0.023885716 -0.055733338 0.76000005 14147304
-0.022379048 -0.055586666 0.75800002 14081254
-0.020935237 -0.055586666 0.75800002 14080997
-0.019440001 -0.055440001 0.75600004 14015716
-0.018000001 -0.055440001 0.75600004 14015715
-0.016538097 -0.055366673 0.75500005 13950178
-0.015040001 -0.055146668 0.75200003 13950434
-0.01360762 -0.055146668 0.75200003 13950434
-0.012142858 -0.055000003 0.75000006 13950432
-0.010714287 -0.055000003 0.75000006 13884127
-0.0092857154 -0.055000003 0.75000006 13818077
-0.007836191 -0.054853335 0.74800003 13752284
-0.0064028576 -0.054780003 0.74700004 13752285
-0.0049800002 -0.054780003 0.74700004 13686494
-0.003557143 -0.054780003 0.74700004 13620700
-0.0021285715 -0.054633338 0.74500006 13424090
-0.00070952385 -0.054633338 0.74500006 13293020
0.00070952385 -0.054633338 0.74500006 13094878
0.0021228571 -0.05448667 0.74300003 12831957
0.0035380954 -0.05448667 0.74300003 12698573
0.0049533336 -0.05448667 0.74300003 12566217
0.0063600005 -0.054413334 0.74200004 12501445
0.0077733337 -0.054413334 0.74200004 12502219
0.0091619045 -0.054266665 0.74000001 12634065
0.010571429 -0.054266665 0.74000001 12831694
0.012013334 -0.054413334 0.74200004 12765899
0.013390477 -0.054266665 0.74000001 12700362
0.01484 -0.054413334 0.74200004 12634057
0.016253335 -0.054413334 0.74200004 12568010
0.017666668 -0.054413334 0.74200004 12436683
0.019028571 -0.054266665 0.74000001 12370890
0.020438096 -0.054266665 0.74000001 12370634
0.021818096 -0.054193333 0.73900002 12370123
0.023225715 -0.054193333 0.73900002 12701645
0.024633335 -0.054193333 0.73900002 13029580
0.026040953 -0.054193333 0.73900002 12633548
0.027448572 -0.054193333 0.73900002 12238536
0.028856192 -0.054193333 0.73900002 12172740
0.030263809 -0.054193333 0.73900002 12106946
0.031671431 -0.054193333 0.73900002 12041408
0.03307905 -0.054193333 0.73900002 11976128
0.03448667 -0.054193333 0.73900002 11910336
0.03589429 -0.054193333 0.73900002 11910079
0.037301905 -0.054193333 0.73900002 11843774
0.038709525 -0.054193333 0.73900002 11844027
0.040117145 -0.054193333 0.73900002 11712697
0.041524764 -0.054193333 0.73900002 11581113
0.042932384 -0.054193333 0.73900002 11515322
0.044340003 -0.054193333 0.73900002 11449784
0.045747619 -0.054193333 0.73900002 11318199
0.047155239 -0.054193333 0.73900002 11252404
0.048562858 -0.054193333 0.73900002 11186609
0.049970478 -0.054193333 0.73900002 11121070
0.051447619 -0.054266665 0.74000001 10923692
0.052857142 -0.054266665 0.74000001 10792365
0.054266665 -0.054266665 0.74000001 10791855
0.055676188 -0.054266665 0.74000001 10857388
0.057240006 -0.054413334 0.74200004 10791337
0.058653336 -0.054413334 0.74200004 10725802
0.06006667 -0.054413334 0.74200004 10659500
0.061562862 -0.05448667 0.74300003 10593705
0.062978096 -0.05448667 0.74300003 10528167
0.064393342 -0.05448667 0.74300003 10528167
0.065808572 -0.05448667 0.74300003 10462376
0.067404769 -0.054633338 0.74500006 10462372
0.068823814 -0.054633338 0.74500006 10462369
0.070242859 -0.054633338 0.74500006 10528161
0.071661904 -0.054633338 0.74500006 10528162
0.073277146 -0.054780003 0.74700004 10593697
0.0748 -0.054853335 0.74800003 10659489
0.076224767 -0.054853335 0.74800003 10725280
0.077649526 -0.054853335 0.74800003 10790816
0.079074286 -0.054853335 0.74800003 10921889
0.080499046 -0.054853335 0.74800003 10790563
0.081923813 -0.054853335 0.74800003 10724763
0.08334858 -0.054853335 0.74800003 11314579
0.084773332 -0.054853335 0.74800003 11839150
0.086198099 -0.054853335 0.74800003 12830922
0.087622859 -0.054853335 0.74800003 13820371
0.089047618 -0.054853335 0.74800003 13950684
-0.063642859 -0.058928575 0.82500005 10333592
-0.061920948 -0.058785714 0.82300001 12117987
-0.060353335 -0.058785714 0.82300001 13949910
-0.058642861 -0.058642861 0.82100004 13157834
-0.056940004 -0.058500003 0.81900007 12436168
-0.055380005 -0.058500003 0.81900007 12304070
-0.053688571 -0.058357142 0.81700003 12238276
-0.052132383 -0.058357142 0.81700003 12106947
-0.050452381 -0.058214288 0.81500006 11976126
-0.047040001 -0.056000002 0.78400004 12041913
-0.045546666 -0.056000002 0.78400004 12173258
-0.044053335 -0.056000002 0.78400004 12766427
-0.042451434 -0.055857148 0.78200006 13422811
-0.040857144 -0.055714291 0.78000003 13621979
-0.039320953 -0.055642858 0.77900004 13818589
-0.037545718 -0.05521429 0.77300006 13884639
-0.036073335 -0.05521429 0.77300006 13950176
-0.034466669 -0.055000003 0.77000004 13950177
-0.032871429 -0.054785714 0.76700002 14015716
-0.031410474 -0.054785714 0.76700002 14147047
-0.02987143 -0.05464286 0.76500005 14278635
-0.028414287 -0.05464286 0.76500005 14345711
-0.026886668 -0.054500002 0.76300001 14475756
-0.025333336 -0.054285716 0.76000005 14344170
-0.023885716 -0.054285716 0.76000005 14212584
-0.022379048 -0.054142859 0.75800002 14146790
-0.020935237 -0.054142859 0.75800002 14081252
-0.019440001 -0.054000005 0.75600004 14015715
-0.018000001 -0.054000005 0.75600004 14015714
-0.016538097 -0.053928573 0.75500005 14016226
-0.015040001 -0.053714287 0.75200003 14016226
-0.01360762 -0.053714287 0.75200003 13950691
-0.012142858 -0.053571433 0.75000006 13950178
-0.010714287 -0.053571433 0.75000006 13949665
-0.0092609525 -0.053428572 0.74800003 13949151
-0.007836191 -0.053428572 0.74800003 13818077
-0.0064028576 -0.053357143 0.74700004 13752284
-0.0049800002 -0.053357143 0.74700004 13686492
-0.0035476193 -0.053214289 0.74500006 13686748
-0.0021285715 -0.053214289 0.74500006 13424860
-0.00070952385 -0.053214289 0.74500006 13160663
0.00070952385 -0.053214289 0.74500006 12831697
0.0021228571 -0.053071432 0.74300003 12567761
0.0035380954 -0.053071432 0.74300003 12565968
0.0049533336 -0.053071432 0.74300003 12568269
0.0063600005 -0.052999999 0.74200004 12701386
0.0077523813 -0.052857142 0.74000001 12832205
0.0091619045 -0.052857142 0.74000001 12897489
0.010571429 -0.052857142 0.74000001 12962767
0.011980952 -0.052857142 0.74000001 12831693
0.013390477 -0.052857142 0.74000001 12765900
0.0148 -0.052857142 0.74000001 12700107
0.016253335 -0.052999999 0.74200004 12633803
0.017619047 -0.052857142 0.74000001 12568011
0.019028571 -0.052857142 0.74000001 12501960
0.020438096 -0.052857142 0.74000001 12436164
0.021818096 -0.052785717 0.73900002 12436171
0.023225715 -0.052785717 0.73900002 12832721
0.024633335 -0.052785717 0.73900002 13226190
0.026040953 -0.052785717 0.73900002 12766156
0.027448572 -0.052785717 0.73900002 12370633
0.028856192 -0.052785717 0.73900002 12238534
0.030263809 -0.052785717 0.73900002 12172997
0.031671431 -0.052785717 0.73900002 12107461
0.03307905 -0.052785717 0.73900002 12107460
0.03448667 -0.052785717 0.73900002 12042178
0.03589429 -0.052785717 0.73900002 11975617
0.037301905 -0.052785717 0.73900002 11909312
0.038709525 -0.052785717 0.73900002 11909565
0.040117145 -0.052785717 0.73900002 11778491
0.041524764 -0.052785717 0.73900002 11646907
0.042932384 -0.052785717 0.73900002 11581371
0.044340003 -0.052785717 0.73900002 11515577
0.045747619 -0.052785717 0.73900002 11383736
0.047155239 -0.052785717 0.73900002 11252406
0.048562858 -0.052785717 0.73900002 11186612
0.049970478 -0.052785717 0.73900002 11120816
0.051378097 -0.052785717 0.73900002 10989485
0.052857142 -0.052857142 0.74000001 10923182
0.054266665 -0.052857142 0.74000001 10857647
0.055676188 -0.052857142 0.74000001 10857131
0.057240006 -0.052999999 0.74200004 10791591
0.058653336 -0.052999999 0.74200004 10725288
0.06006667 -0.052999999 0.74200004 10593961
0.061480001 -0.052999999 0.74200004 10527910
0.062978096 -0.053071432 0.74300003 10462372
0.064393342 -0.053071432 0.74300003 10462117
0.065808572 -0.053071432 0.74300003 10396326
0.067404769 -0.053214289 0.74500006 10330787
0.068823814 -0.053214289 0.74500006 10331040
0.070431434 -0.053357143 0.74700004 10396576
0.071661904 -0.053214289 0.74500006 10396575
0.073277146 -0.053357143 0.74700004 10462367
0.0748 -0.053428572 0.74800003 10462879
0.076224767 -0.053428572 0.74800003 10462622
0.077649526 -0.053428572 0.74800003 10528157
0.079074286 -0.053428572 0.74800003 10592925
0.080499046 -0.053428572 0.74800003 10264477
0.081923813 -0.053428572 0.74800003 9937059
0.083571434 -0.053571433 0.75000006 11379114
0.085000008 -0.053571433 0.75000006 12828864
0.086428575 -0.053571433 0.75000006 13754326
0.087622859 -0.053428572 0.74800003 14737625
0.089047618 -0.053428572 0.74800003 14475229
-0.063797139 -0.057496194 0.82700002 11983039
-0.062071431 -0.057357144 0.82500005 12702952
-0.060500003 -0.057357144 0.82500005 13488600
-0.058785714 -0.057218097 0.82300001 13027529
-0.057079051 -0.057079051 0.82100004 12633034
-0.055515241 -0.057079051 0.82100004 12566987
-0.053688571 -0.056800954 0.81700003 12500936
-0.052004766 -0.056661908 0.81500006 12501189
-0.050452381 -0.056661908 0.81500006 12566976
-0.04716 -0.054645717 0.78600001 12566972
-0.045662858 -0.054645717 0.78600001 12632778
-0.044053335 -0.054506667 0.78400004 12962777
-0.042451434 -0.054367624 0.78200006 13291226
-0.040857144 -0.054228574 0.78000003 13556187
-0.039219998 -0.054019999 0.77700001 13818845
-0.037545718 -0.05374191 0.77300006 13884383
-0.036026664 -0.053672384 0.77200001 13949920
-0.034466669 -0.053533334 0.77000004 13949922
-0.032914288 -0.053394284 0.76800001 14015461
-0.031410474 -0.053324763 0.76700002 14081256
-0.02987143 -0.05318572 0.76500005 14212842
-0.028414287 -0.05318572 0.76500005 14344173
-0.026886668 -0.053046666 0.76300001 14541035
-0.025333336 -0.052838098 0.76000005 14344170
-0.023885716 -0.052838098 0.76000005 14212584
-0.022379048 -0.052699048 0.75800002 14147046
-0.020935237 -0.052699048 0.75800002 14081764
-0.019440001 -0.052560002 0.75600004 14081506
-0.018000001 -0.052560002 0.75600004 14015970
-0.016538097 -0.05249048 0.75500005 13950179
-0.01506 -0.05235143 0.75300002 13950179
-0.01360762 -0.052281909 0.75200003 13950180
-0.012142858 -0.052142859 0.75000006 13950179
-0.010714287 -0.052142859 0.75000006 13884131
-0.0092609525 -0.052003808 0.74800003 13883872
-0.0078257145 -0.051934287 0.74700004 13752542
-0.0064028576 -0.051934287 0.74700004 13621468
-0.0049800002 -0.051934287 0.74700004 13621467
-0.0035476193 -0.051795244 0.74500006 13556189
-0.0021285715 -0.051795244 0.74500006 13095135
-0.00070952385 -0.051795244 0.74500006 12568786
0.00070761907 -0.05165619 0.74300003 12633797
0.0021228571 -0.05165619 0.74300003 12631244
0.0035380954 -0.05165619 0.74300003 12699092
0.0049466668 -0.051586669 0.74200004 12766929
0.0063600005 -0.051586669 0.74200004 12832463
0.0077523813 -0.051447619 0.74000001 12897744
0.0091619045 -0.051447619 0.74000001 12963025
0.010571429 -0.051447619 0.74000001 12963024
0.011980952 -0.051447619 0.74000001 12831695
0.013390477 -0.051447619 0.74000001 12765902
0.0148 -0.051447619 0.74000001 12634574
0.016253335 -0.051586669 0.74200004 12568781
0.017619047 -0.051447619 0.74000001 12568268
0.019028571 -0.051447619 0.74000001 12567749
0.020438096 -0.051447619 0.74000001 12567743
0.021818096 -0.051378097 0.73900002 12568010
0.023225715 -0.051378097 0.73900002 12831958
0.024633335 -0.051378097 0.73900002 13160657
0.026040953 -0.051378097 0.73900002 12832716
0.027448572 -0.051378097 0.73900002 12568522
0.028856192 -0.051378097 0.73900002 12370632
0.030263809 -0.051378097 0.73900002 12239049
0.031671431 -0.051378097 0.73900002 12238795
0.03307905 -0.051378097 0.73900002 12173256
0.03448667 -0.051378097 0.73900002 12042181
0.03589429 -0.051378097 0.73900002 11975875
0.037301905 -0.051378097 0.73900002 11909826
0.038709525 -0.051378097 0.73900002 11844032
0.040117145 -0.051378097 0.73900002 11778238
0.041524764 -0.051378097 0.73900002 11712701
0.042932384 -0.051378097 0.73900002 11581372
0.044340003 -0.051378097 0.73900002 11515834
0.045747619 -0.051378097 0.73900002 11384249
0.047155239 -0.051378097 0.73900002 11318200
0.048562858 -0.051378097 0.73900002 11186616
0.049970478 -0.051378097 0.73900002 11120563
0.051378097 -0.051378097 0.73900002 11054766
0.052857142 -0.051447619 0.74000001 10923182
0.054413334 -0.051586669 0.74200004 10857391
0.055826671 -0.051586669 0.74200004 10791594
0.057240006 -0.051586669 0.74200004 10725798
0.058653336 -0.051586669 0.74200004 10659494
0.06006667 -0.051586669 0.74200004 10528166
0.061562862 -0.05165619 0.74300003 10462116
0.062978096 -0.05165619 0.74300003 10396578
0.064393342 -0.05165619 0.74300003 10396067
0.065808572 -0.05165619 0.74300003 10330276
0.067404769 -0.051795244 0.74500006 10264482
0.068823814 -0.051795244 0.74500006 10264480
0.070431434 -0.051934287 0.74700004 10264478
0.071854293 -0.051934287 0.74700004 10264733
0.073277146 -0.051934287 0.74700004 10264989
0.075000003 -0.052142859 0.75000006 10264733
0.076224767 -0.052003808 0.74800003 10264475
0.077857152 -0.052142859 0.75000006 10264218
0.079285719 -0.052142859 0.75000006 10329497
0.080714293 -0.052142859 0.75000006 10196120
0.082142867 -0.052142859 0.75000006 10062764
0.083794288 -0.052281909 0.75200003 11844545
0.085000008 -0.052142859 0.75000006 13691602
0.086428575 -0.052142859 0.75000006 14081251
-0.065530479 -0.056056194 0.82900006 6921894
-0.063797139 -0.055920955 0.82700002 13690564
-0.062221903 -0.055920955 0.82700002 13359330
-0.060500003 -0.055785719 0.82500005 13029335
-0.058928575 -0.055785719 0.82500005 12963020
-0.057218097 -0.055650476 0.82300001 12896972
-0.055515241 -0.055515241 0.82100004 12831180
-0.053557146 -0.055109527 0.81500006 12831177
-0.051940955 -0.055041905 0.81400001 12962246
-0.050390474 -0.055041905 0.81400001 13159111
-0.047040001 -0.053013336 0.78400004 13094087
-0.045546666 -0.053013336 0.78400004 13093838
-0.044053335 -0.053013336 0.78400004 13093844
-0.042451434 -0.052878097 0.78200006 13159896
-0.040804762 -0.05267524 0.77900004 13490396
-0.039219998 -0.052540001 0.77700001 13818845
-0.037545718 -0.052269526 0.77300006 13884127
-0.036073335 -0.052269526 0.77300006 13949664
-0.034466669 -0.052066669 0.77000004 13949922
-0.032914288 -0.05193143 0.76800001 14015460
-0.031410474 -0.051863808 0.76700002 14081255
-0.02987143 -0.051728573 0.76500005 14213097
-0.028414287 -0.051728573 0.76500005 14409707
-0.026886668 -0.051593333 0.76300001 14606314
-0.025333336 -0.05139048 0.76000005 14409706
-0.023885716 -0.05139048 0.76000005 14278376
-0.022379048 -0.051255237 0.75800002 14212838
-0.020935237 -0.051255237 0.75800002 14147044
-0.019440001 -0.051120002 0.75600004 14081507
-0.018000001 -0.051120002 0.75600004 14081508
-0.016538097 -0.051052384 0.75500005 13950181
-0.01506 -0.050917145 0.75300002 13884388
-0.01360762 -0.050849527 0.75200003 13884388
-0.012142858 -0.050714288 0.75000006 13949666
-0.010685714 -0.050579049 0.74800003 13884129
-0.0092609525 -0.050579049 0.74800003 13883871
-0.0078257145 -0.050511431 0.74700004 13687261
-0.0064028576 -0.050511431 0.74700004 13555931
-0.0049800002 -0.050511431 0.74700004 13490394
-0.0035476193 -0.050376195 0.74500006 13489876
-0.0021285715 -0.050376195 0.74500006 12765134
-0.00070952385 -0.050376195 0.74500006 12043467
0.00070952385 -0.050376195 0.74500006 12370376
0.0021228571 -0.050240953 0.74300003 12765389
0.0035380954 -0.050240953 0.74300003 12898259
0.0049533336 -0.050240953 0.74300003 13029074
0.0063600005 -0.050173335 0.74200004 13029074
0.0077523813 -0.050038096 0.74000001 13029073
0.0091619045 -0.050038096 0.74000001 13029073
0.010571429 -0.050038096 0.74000001 13028816
0.011980952 -0.050038096 0.74000001 12897487
0.013390477 -0.050038096 0.74000001 12765903
0.0148 -0.050038096 0.74000001 12634832
0.016209524 -0.050038096 0.74000001 12569040
0.017619047 -0.050038096 0.74000001 12634577
0.019028571 -0.050038096 0.74000001 12699852
0.020438096 -0.050038096 0.74000001 12699847
0.021818096 -0.049970478 0.73900002 12699598
0.023225715 -0.049970478 0.73900002 12896981
0.024633335 -0.049970478 0.73900002 13094866
0.026040953 -0.049970478 0.73900002 12899280
0.027448572 -0.049970478 0.73900002 12764877
0.028856192 -0.049970478 0.73900002 12568010
0.030263809 -0.049970478 0.73900002 12370892
0.031671431 -0.049970478 0.73900002 12305102
0.03307905 -0.049970478 0.73900002 12305100
0.03448667 -0.049970478 0.73900002 12108490
0.03589429 -0.049970478 0.73900002 11976646
0.037301905 -0.049970478 0.73900002 11910594
0.038709525 -0.049970478 0.73900002 11844799
0.040117145 -0.049970478 0.73900002 11779005
0.041524764 -0.049970478 0.73900002 11778493
0.042932384 -0.049970478 0.73900002 11647420
0.044340003 -0.049970478 0.73900002 11515835
0.045747619 -0.049970478 0.73900002 11450297
0.047155239 -0.049970478 0.73900002 11383737
0.048562858 -0.049970478 0.73900002 11252153
0.049970478 -0.049970478 0.73900002 11186101
0.051378097 -0.049970478 0.73900002 11054769
0.052857142 -0.050038096 0.74000001 10988720
0.054266665 -0.050038096 0.74000001 10857135
0.055676188 -0.050038096 0.74000001 10791338
0.057240006 -0.050173335 0.74200004 10660005
0.058653336 -0.050173335 0.74200004 10593701
0.06006667 -0.050173335 0.74200004 10528165
0.061562862 -0.050240953 0.74300003 10461859
0.062978096 -0.050240953 0.74300003 10396577
0.064393342 -0.050240953 0.74300003 10330529
0.065808572 -0.050240953 0.74300003 10264737
0.067404769 -0.050376195 0.74500006 10198943
0.068823814 -0.050376195 0.74500006 10133150
0.070431434 -0.050511431 0.74700004 10133149
0.071854293 -0.050511431 0.74700004 10133403
0.07337524 -0.050579049 0.74800003 10133403
0.075000003 -0.050714288 0.75000006 10133402
0.076428577 -0.050714288 0.75000006 10132887
0.078064762 -0.050849527 0.75200003 10067093
0.079497144 -0.050849527 0.75200003 10065300
0.080929525 -0.050849527 0.75200003 10128276
0.082361907 -0.050849527 0.75200003 10265012
0.083905719 -0.050917145 0.75300002 12375764
0.085340001 -0.050917145 0.75300002 14538716
0.086774282 -0.050917145 0.75300002 14408164
0.088208571 -0.050917145 0.75300002 14279141
-0.065530479 -0.054477148 0.82900006 8633271
-0.063951433 -0.054477148 0.82900006 14153161
-0.062221903 -0.054345712 0.82700002 13620444
-0.060646668 -0.054345712 0.82700002 13028822
-0.059071429 -0.054345712 0.82700002 13028816
-0.057357144 -0.054214288 0.82500005 13028815
-0.055650476 -0.054082859 0.82300001 13094094
-0.053820003 -0.053820003 0.81900007 13159371
-0.052004766 -0.053557146 0.81500006 13290440
-0.050452381 -0.053557146 0.81500006 13421517
-0.048840001 -0.053491428 0.81400001 13421779
-0.047289524 -0.053491428 0.81400001 13422033
-0.043940958 -0.051388573 0.78200006 13356240
-0.042451434 -0.051388573 0.78200006 13290711
-0.040804762 -0.051191431 0.77900004 13555678
-0.039219998 -0.051059999 0.77700001 13818846
-0.03774 -0.051059999 0.77700001 13884639
-0.036260001 -0.051059999 0.77700001 13950432
-0.034466669 -0.0506 0.77000004 14015714
-0.032914288 -0.050468571 0.76800001 14081252
-0.031410474 -0.050402857 0.76700002 14147047
-0.02987143 -0.050271433 0.76500005 14213352
-0.028339999 -0.050139997 0.76300001 14344682
-0.026886668 -0.050139997 0.76300001 14542570
-0.025333336 -0.049942859 0.76000005 14410218
-0.023822857 -0.04981143 0.75800002 14278888
-0.022379048 -0.04981143 0.75800002 14212838
-0.020880001 -0.049680002 0.75600004 14147045
-0.019414287 -0.049614292 0.75500005 14081509
-0.017976193 -0.049614292 0.75500005 14081510
-0.016538097 -0.049614292 0.75500005 14015463
-0.01506 -0.049482856 0.75300002 13949925
-0.01360762 -0.049417142 0.75200003 14015460
-0.012142858 -0.049285717 0.75000006 14080738
-0.010714287 -0.049285717 0.75000006 13949664
-0.0092609525 -0.049154289 0.74800003 13818590
-0.0078257145 -0.049088575 0.74700004 13687004
-0.0064028576 -0.049088575 0.74700004 13555674
-0.0049800002 -0.049088575 0.74700004 13227481
-0.0035476193 -0.048957143 0.74500006 12965067
-0.0021285715 -0.048957143 0.74500006 12699326
-0.00070952385 -0.048957143 0.74500006 12369860
0.00070761907 -0.048825715 0.74300003 12634571
0.0021228571 -0.048825715 0.74300003 12964558
0.0035380954 -0.048825715 0.74300003 13029330
0.0049466668 -0.048760001 0.74200004 13095124
0.0063600005 -0.048760001 0.74200004 13094614
0.0077523813 -0.048628572 0.74000001 13094611
0.0091619045 -0.048628572 0.74000001 13029073
0.010557143 -0.048562858 0.73900002 13029072
0.011964763 -0.048562858 0.73900002 12963280
0.013372381 -0.048562858 0.73900002 12896977
0.01478 -0.048562858 0.73900002 12897234
0.016187619 -0.048562858 0.73900002 12831956
0.017595239 -0.048562858 0.73900002 12373206
0.019002859 -0.048562858 0.73900002 11914451
0.020410476 -0.048562858 0.73900002 11389392
0.021818096 -0.048562858 0.73900002 10864594
0.023225715 -0.048562858 0.73900002 10734292
0.024633335 -0.048562858 0.73900002 10604244
0.026040953 -0.048562858 0.73900002 10273748
0.027448572 -0.048562858 0.73900002 10009040
0.028856192 -0.048562858 0.73900002 9811660
0.030263809 -0.048562858 0.73900002 9679823
0.031671431 -0.048562858 0.73900002 9615058
0.03307905 -0.048562858 0.73900002 9615824
0.03448667 -0.048562858 0.73900002 10665423
0.03589429 -0.048562858 0.73900002 11780552
0.037301905 -0.048562858 0.73900002 11780034
0.038709525 -0.048562858 0.73900002 11779775
0.040117145 -0.048562858 0.73900002 11779005
0.041524764 -0.048562858 0.73900002 11778749
0.042932384 -0.048562858 0.73900002 11647165
0.044340003 -0.048562858 0.73900002 11515835
0.045747619 -0.048562858 0.73900002 11515578
0.047155239 -0.048562858 0.73900002 11515066
0.048562858 -0.048562858 0.73900002 11317946
0.049970478 -0.048562858 0.73900002 11186359
0.051447619 -0.048628572 0.74000001 11054772
0.052857142 -0.048628572 0.74000001 10988977
0.054266665 -0.048628572 0.74000001 10857135
0.055826671 -0.048760001 0.74200004 10791338
0.057240006 -0.048760001 0.74200004 10659749
0.058653336 -0.048760001 0.74200004 10593701
0.06006667 -0.048760001 0.74200004 10462117
0.061562862 -0.048825715 0.74300003 10396322
0.062978096 -0.048825715 0.74300003 10264992
0.064393342 -0.048825715 0.74300003 10199455
0.065808572 -0.048825715 0.74300003 10133662
0.067223817 -0.048825715 0.74300003 10133405
0.069008574 -0.049088575 0.74700004 10067613
0.070431434 -0.049088575 0.74700004 10067611
0.071854293 -0.049088575 0.74700004 10001818
0.07337524 -0.049154289 0.74800003 9936281
0.075200006 -0.049417142 0.75200003 9936024
0.076632388 -0.049417142 0.75200003 9870228
0.078064762 -0.049417142 0.75200003 9737360
0.079497144 -0.049417142 0.75200003 9604752
0.080929525 -0.049417142 0.75200003 10394000
0.08247143 -0.049482856 0.75300002 11253947
0.083905719 -0.049482856 0.75300002 12968423
0.085340001 -0.049482856 0.75300002 14673382
0.086774282 -0.049482856 0.75300002 14410726
0.088208571 -0.049482856 0.75300002 14213610
-0.065530479 -0.052898098 0.82900006 10410448
-0.063951433 -0.052898098 0.82900006 14669267
-0.062372386 -0.052898098 0.82900006 13881815
-0.060646668 -0.052770477 0.82700002 13095380
-0.059071429 -0.052770477 0.82700002 13160913
-0.057357144 -0.05264286 0.82500005 13226192
-0.055785719 -0.05264286 0.82500005 13357008
-0.053951431 -0.052387621 0.82100004 13489104
-0.052132383 -0.052132383 0.81700003 13621200
-0.050576191 -0.052132383 0.81700003 13752274
-0.048840001 -0.051940955 0.81400001 13752532
-0.045546666 -0.05002667 0.78400004 13751507
-0.044053335 -0.05002667 0.78400004 13619667
-0.042451434 -0.049899053 0.78200006 13489367
-0.040857144 -0.049771432 0.78000003 13686748
-0.039219998 -0.04958 0.77700001 13883870
-0.037545718 -0.049324766 0.77300006 13950432
-0.036073335 -0.049324766 0.77300006 14015969
-0.034466669 -0.049133338 0.77000004 14081506
-0.032914288 -0.049005713 0.76800001 14147301
-0.031410474 -0.048941903 0.76700002 14213095
-0.02987143 -0.048814289 0.76500005 14279145
-0.028339999 -0.048686668 0.76300001 14345195
-0.026816191 -0.048559051 0.76100004 14476266
-0.025333336 -0.048495241 0.76000005 14345194
-0.023822857 -0.04836762 0.75800002 14278633
-0.02232 -0.048240002 0.75600004 14212839
-0.020880001 -0.048240002 0.75600004 14147046
-0.019414287 -0.048176192 0.75500005 14081509
-0.017976193 -0.048176192 0.75500005 14081253
-0.016494285 -0.048048571 0.75300002 14015462
-0.015040001 -0.047984764 0.75200003 14015460
-0.01360762 -0.047984764 0.75200003 14081251
-0.012142858 -0.047857147 0.75000006 14212065
-0.010685714 -0.047729526 0.74800003 14015455
-0.0092609525 -0.047729526 0.74800003 13818333
-0.0078257145 -0.047665719 0.74700004 13687004
-0.0064028576 -0.047665719 0.74700004 13555161
-0.0049666674 -0.047538098 0.74500006 13027543
-0.0035476193 -0.047538098 0.74500006 12502735
-0.0021285715 -0.047538098 0.74500006 12633544
-0.00070952385 -0.047538098 0.74500006 12766157
0.00070952385 -0.047538098 0.74500006 12964305
0.0021228571 -0.047410477 0.74300003 13161170
0.0035380954 -0.047410477 0.74300003 13160402
0.0049533336 -0.047410477 0.74300003 13160403
0.0063600005 -0.04734667 0.74200004 13160405
0.0077733337 -0.04734667 0.74200004 13160148
0.0091619045 -0.047219049 0.74000001 13094611
0.010557143 -0.047155239 0.73900002 13029075
0.011964763 -0.047155239 0.73900002 13029075
0.013372381 -0.047155239 0.73900002 13094867
0.01478 -0.047155239 0.73900002 13095122
0.016187619 -0.047155239 0.73900002 13160911
0.017595239 -0.047155239 0.73900002 12178124
0.019002859 -0.047155239 0.73900002 11190981
0.02035524 -0.047027621 0.73700005 10073022
0.02175905 -0.047027621 0.73700005 9021112
0.023162859 -0.047027621 0.73700005 8559282
0.024566669 -0.047027621 0.73700005 8100527
0.025970478 -0.047027621 0.73700005 7707564
0.027374288 -0.047027621 0.73700005 7310504
0.028778099 -0.047027621 0.73700005 7110052
0.030181907 -0.047027621 0.73700005 6979746
0.031585716 -0.047027621 0.73700005 6980768
0.032989528 -0.047027621 0.73700005 6985646
0.034393337 -0.047027621 0.73700005 9284539
0.035797145 -0.047027621 0.73700005 11582912
0.037301905 -0.047155239 0.73900002 11649734
0.038709525 -0.047155239 0.73900002 11779266
0.040117145 -0.047155239 0.73900002 11779007
0.041524764 -0.047155239 0.73900002 11778238
0.042932384 -0.047155239 0.73900002 11646909
0.044340003 -0.047155239 0.73900002 11581115
0.045747619 -0.047155239 0.73900002 11581114
0.047155239 -0.047155239 0.73900002 11646137
0.048562858 -0.047155239 0.73900002 11449273
0.049970478 -0.047155239 0.73900002 11251895
0.051378097 -0.047155239 0.73900002 11120565
0.052857142 -0.047219049 0.74000001 10988977
0.054266665 -0.047219049 0.74000001 10857390
0.055676188 -0.047219049 0.74000001 10791082
0.057240006 -0.04734667 0.74200004 10659495
0.058653336 -0.04734667 0.74200004 10593445
0.06006667 -0.04734667 0.74200004 10461860
0.061480001 -0.04734667 0.74200004 10330529
0.062978096 -0.047410477 0.74300003 10199454
0.064393342 -0.047410477 0.74300003 10133662
0.065808572 -0.047410477 0.74300003 10068125
0.067223817 -0.047410477 0.74300003 10067868
0.068823814 -0.047538098 0.74500006 10002074
0.070242859 -0.047538098 0.74500006 10001818
0.071854293 -0.047665719 0.74700004 9870746
0.07337524 -0.047729526 0.74800003 9804695
0.0748 -0.047729526 0.74800003 9738644
0.076632388 -0.047984764 0.75200003 9672338
0.078064762 -0.047984764 0.75200003 9408144
0.079497144 -0.047984764 0.75200003 9143952
0.081037149 -0.048048571 0.75300002 10725264
0.08247143 -0.048048571 0.75300002 12300729
0.083905719 -0.048048571 0.75300002 13561315
0.085340001 -0.048048571 0.75300002 14871266
0.086774282 -0.048048571 0.75300002 14477538
-0.065530479 -0.051319048 0.82900006 11330025
-0.063951433 -0.051319048 0.82900006 14343390
-0.062372386 -0.051319048 0.82900006 13750483
-0.060793336 -0.051319048 0.82900006 13095122
-0.059071429 -0.051195238 0.82700002 13160658
-0.057496194 -0.051195238 0.82700002 13226450
-0.055920955 -0.051195238 0.82700002 13357267
-0.054214288 -0.051071431 0.82500005 13489621
-0.052387621 -0.050823811 0.82100004 13621464
-0.050700005 -0.050700005 0.81900007 13752790
-0.04902 -0.050576191 0.81700003 13818069
-0.045546666 -0.048533335 0.78400004 13818069
-0.044053335 -0.048533335 0.78400004 13685462
-0.042451434 -0.048409529 0.78200006 13554648
-0.040595241 -0.047976192 0.77500004 13686491
-0.039018098 -0.047852382 0.77300006 13818078
-0.037497144 -0.047790475 0.77200001 13884385
-0.036026664 -0.047790475 0.77200001 14015714
-0.034466669 -0.047666669 0.77000004 14015971
-0.032871429 -0.047480952 0.76700002 14082021
-0.031410474 -0.047480952 0.76700002 14147304
-0.02987143 -0.047357146 0.76500005 14213866
-0.028339999 -0.047233336 0.76300001 14279404
-0.026816191 -0.047109526 0.76100004 14410987
-0.025333336 -0.047047619 0.76000005 14344939
-0.023822857 -0.046923809 0.75800002 14278634
-0.02232 -0.046800002 0.75600004 14212841
-0.020880001 -0.046800002 0.75600004 14147047
-0.019414287 -0.046738099 0.75500005 14147046
-0.017928572 -0.046614286 0.75300002 14081253
-0.016494285 -0.046614286 0.75300002 14080997
-0.015040001 -0.046552382 0.75200003 14015459
-0.013571429 -0.046428576 0.75000006 14015458
-0.012142858 -0.046428576 0.75000006 14080992
-0.010685714 -0.046304762 0.74800003 13883871
-0.0092609525 -0.046304762 0.74800003 13686493
-0.0078257145 -0.046242859 0.74700004 13424092
-0.0064028576 -0.046242859 0.74700004 13227224
-0.0049800002 -0.046242859 0.74700004 12960469
-0.0035476193 -0.046119049 0.74500006 12631764
-0.0021285715 -0.046119049 0.74500006 12831955
-0.00070952385 -0.046119049 0.74500006 13094613
0.00070952385 -0.046119049 0.74500006 13160920
0.0021228571 -0.045995239 0.74300003 13292245
0.0035380954 -0.045995239 0.74300003 13291731
0.0049533336 -0.045995239 0.74300003 13357011
0.0063600005 -0.045933336 0.74200004 13225940
0.0077523813 -0.045809526 0.74000001 13094868
0.0091619045 -0.045809526 0.74000001 13226197
0.010557143 -0.045747619 0.73900002 13291990
0.011964763 -0.045747619 0.73900002 12702167
0.013372381 -0.045747619 0.73900002 12046805
0.01478 -0.045747619 0.73900002 11061715
0.016187619 -0.045747619 0.73900002 10142410
0.017595239 -0.045747619 0.73900002 9545410
0.019002859 -0.045747619 0.73900002 8948407
0.02035524 -0.045623813 0.73700005 8420781
0.02175905 -0.045623813 0.73700005 7893150
0.023162859 -0.045623813 0.73700005 7894672
0.024566669 -0.045623813 0.73700005 7896202
0.02593524 -0.04556191 0.73600006 7697029
0.027337145 -0.04556191 0.73600006 7497857
0.02873905 -0.04556191 0.73600006 7306109
0.030181907 -0.045623813 0.73700005 7173494
0.031585716 -0.045623813 0.73700005 6910319
0.032989528 -0.045623813 0.73700005 6647179
0.034393337 -0.045623813 0.73700005 8953256
0.035797145 -0.045623813 0.73700005 11188921
0.037301905 -0.045747619 0.73900002 11516618
0.038709525 -0.045747619 0.73900002 11844293
0.040117145 -0.045747619 0.73900002 11778497
0.041524764 -0.045747619 0.73900002 11712191
0.042932384 -0.045747619 0.73900002 11581118
0.044340003 -0.045747619 0.73900002 11450044
0.045747619 -0.045747619 0.73900002 11450042
0.047155239 -0.045747619 0.73900002 11515065
0.048562858 -0.045747619 0.73900002 11318201
0.049970478 -0.045747619 0.73900002 11186359
0.051378097 -0.045747619 0.73900002 11055030
0.052857142 -0.045809526 0.74000001 10923442
0.054266665 -0.045809526 0.74000001 10857390
0.055676188 -0.045809526 0.74000001 10790827
0.057085715 -0.045809526 0.74000001 10659497
0.058495238 -0.045809526 0.74000001 10593446
0.06006667 -0.045933336 0.74200004 10396067
0.061480001 -0.045933336 0.74200004 10264736
0.062978096 -0.045995239 0.74300003 10198941
0.064393342 -0.045995239 0.74300003 10067869
0.065808572 -0.045995239 0.74300003 10001821
0.067223817 -0.045995239 0.74300003 9935770
0.068823814 -0.046119049 0.74500006 9870232
0.070431434 -0.046242859 0.74700004 9804697
0.071854293 -0.046242859 0.74700004 9738650
0.07337524 -0.046304762 0.74800003 9607317
0.075200006 -0.046552382 0.75200003 9475729
0.076632388 -0.046552382 0.75200003 9408913
0.078064762 -0.046552382 0.75200003 9078929
0.07960286 -0.046614286 0.75300002 8748688
0.081037149 -0.046614286 0.75300002 9539984
0.08247143 -0.046614286 0.75300002 10267575
0.083905719 -0.046614286 0.75300002 10855903
0.085340001 -0.046614286 0.75300002 11378911
0.086774282 -0.046614286 0.75300002 11247327
-0.067109525 -0.049740005 0.82900006 10401975
-0.065530479 -0.049740005 0.82900006 12249834
-0.063951433 -0.049740005 0.82900006 14081247
-0.062372386 -0.049740005 0.82900006 13619156
-0.060793336 -0.049740005 0.82900006 13160403
-0.059214287 -0.049740005 0.82900006 13226195
-0.057496194 -0.049620003 0.82700002 13291732
-0.055920955 -0.049620003 0.82700002 13423317
-0.054214288 -0.049500003 0.82500005 13555159
-0.052515239 -0.049379997 0.82300001 13687514
-0.050823811 -0.049260002 0.82100004 13818072
-0.049140003 -0.049140003 0.81900007 13883094
-0.047580004 -0.049140003 0.81900007 13948374
-0.04366 -0.04662 0.77700001 13751511
