# .PCD v0.7 - Point Cloud Data file format
VERSION 0.7
FIELDS x y z rgba
SIZE 4 4 4 4
TYPE F F F U
COUNT 1 1 1 1
WIDTH 1055
HEIGHT 1
VIEWPOINT 0 0 0 1 0 0 0
POINTS 1055
DATA ascii
-0.039573334 -0.0082133338 0.78400004 7967906
-0.037982859 -0.0081923818 0.78200006 7770528
-0.036353335 -0.0081609525 0.77900004 7572650
-0.034779999 -0.0081399996 0.77700001 8886964
-0.033214286 -0.0081190476 0.77500004 10208721
-0.031738095 -0.0081190476 0.77500004 12313325
-0.030261906 -0.0081190476 0.77500004 14409960
-0.028785717 -0.0081190476 0.77500004 14212836
-0.027309524 -0.0081190476 0.77500004 14015458
-0.025733333 -0.0080876192 0.77200001 13883873
-0.024262857 -0.0080876192 0.77200001 13818335
-0.022792382 -0.0080876192 0.77200001 13948893
-0.021266669 -0.0080666672 0.77000004 14079968
-0.0198 -0.0080666672 0.77000004 13949154
-0.018333334 -0.0080666672 0.77000004 13817567
-0.016822856 -0.0080457143 0.76800001 13620188
-0.015360001 -0.0080457143 0.76800001 13423577
-0.013879048 -0.0080352379 0.76700002 13358037
-0.012385715 -0.0080142869 0.76500005 13291733
-0.010928571 -0.0080142869 0.76500005 13226452
-0.0094714295 -0.0080142869 0.76500005 13226196
-0.007993333 -0.007993333 0.76300001 13094868
-0.00654 -0.007993333 0.76300001 13029075
-0.0050866669 -0.007993333 0.76300001 12963282
-0.0036333334 -0.007993333 0.76300001 12897744
-0.0021800001 -0.007993333 0.76300001 12897486
-0.00072666665 -0.007993333 0.76300001 12897487
0.00072666665 -0.007993333 0.76300001 12897744
0.0021742857 -0.0079723811 0.76100004 12962510
0.0036238097 -0.0079723811 0.76100004 12831692
0.0050733336 -0.0079723811 0.76100004 12766160
0.0065228576 -0.0079723811 0.76100004 12766419
0.0079723811 -0.0079723811 0.76100004 12831182
0.0094095245 -0.0079619056 0.76000005 12568266
0.010857143 -0.0079619056 0.76000005 12370886
0.012320952 -0.0079723811 0.76100004 12107715
0.013770477 -0.0079723811 0.76100004 11909309
0.01522 -0.0079723811 0.76100004 11581112
0.016669523 -0.0079723811 0.76100004 11253428
0.018166667 -0.007993333 0.76300001 10988208
0.019619999 -0.007993333 0.76300001 10725802
0.021073334 -0.007993333 0.76300001 10461604
0.022585716 -0.0080142869 0.76500005 10264478
0.024042858 -0.0080142869 0.76500005 10067609
0.025500001 -0.0080142869 0.76500005 9869716
0.02702762 -0.0080352379 0.76700002 9606800
0.0286 -0.0080666672 0.77000004 9343117
0.030144762 -0.0080876192 0.77200001 9145482
0.031738095 -0.0081190476 0.77500004 8948617
0.033214286 -0.0081190476 0.77500004 8751496
0.034779999 -0.0081399996 0.77700001 8620165
0.036353335 -0.0081609525 0.77900004 8554114
0.037885718 -0.008171428 0.78000003 8553602
0.039573334 -0.0082133338 0.78400004 8422018
0.041538097 -0.008307619 0.79300004 8355968
0.043265719 -0.0083495239 0.79700005 8290174
0.044840001 -0.0083600003 0.79800004 8289660
0.046476189 -0.0083809523 0.80000001 8092794
0.048119999 -0.0084019052 0.80200005 7961208
0.049771432 -0.0084228572 0.80400002 7829878
0.051558096 -0.008464762 0.80800003 7697778
0.053360004 -0.0085066669 0.81200004 7565678
0.055041905 -0.0085276198 0.81400001 7433315
0.056661908 -0.0085380953 0.81500006 7693657
0.058214288 -0.0085380953 0.81500006 8021067
0.059766669 -0.0085380953 0.81500006 8217406
0.075042859 -0.0080142869 0.76500005 13882838
0.076500006 -0.0080142869 0.76500005 13488336
0.077957146 -0.0080142869 0.76500005 13159633
0.079414286 -0.0080142869 0.76500005 13028819
0.08066 -0.007993333 0.76300001 12962760
0.082113333 -0.007993333 0.76300001 12170942
0.083566666 -0.007993333 0.76300001 11384496
0.085020006 -0.007993333 0.76300001 10725538
0.086473338 -0.007993333 0.76300001 10067350
0.087926663 -0.007993333 0.76300001 9276555
0.089379996 -0.007993333 0.76300001 8489595
0.091309525 -0.0080352379 0.76700002 8288107
0.09277048 -0.0080352379 0.76700002 8089958
0.094231427 -0.0080352379 0.76700002 8154465
0.095692381 -0.0080352379 0.76700002 8283738
0.097153336 -0.0080352379 0.76700002 8483410
0.09861429 -0.0080352379 0.76700002 8745812
-0.064344764 -0.0069771428 0.81400001 5991592
-0.062794283 -0.0069771428 0.81400001 10273477
-0.061093334 -0.0069600004 0.81200004 12115427
-0.059546668 -0.0069600004 0.81200004 13948898
-0.057857145 -0.0069428575 0.81000006 14015714
-0.05631429 -0.0069428575 0.81000006 14015945
-0.054365713 -0.0068914285 0.80400002 10991280
-0.052834287 -0.0068914285 0.80400002 7962798
-0.051302858 -0.0068914285 0.80400002 8360109
-0.049771432 -0.0068914285 0.80400002 8757418
-0.043940958 -0.0067028576 0.78200006 8625580
-0.042451434 -0.0067028576 0.78200006 8625831
-0.041066669 -0.0067199999 0.78400004 8363171
-0.039472383 -0.0067028576 0.78200006 8098725
-0.037982859 -0.0067028576 0.78200006 7836328
-0.036353335 -0.0066771433 0.77900004 7638697
-0.034779999 -0.00666 0.77700001 8622250
-0.033214286 -0.0066428576 0.77500004 9681611
-0.031819999 -0.00666 0.77700001 11983597
-0.030261906 -0.0066428576 0.77500004 14280425
-0.028711431 -0.0066257147 0.77300006 14081766
-0.027239049 -0.0066257147 0.77300006 13949923
-0.025733333 -0.0066171428 0.77200001 13884129
-0.024200002 -0.0066000004 0.77000004 13818334
-0.022733334 -0.0066000004 0.77000004 13883356
-0.021266669 -0.0066000004 0.77000004 14014433
-0.0198 -0.0066000004 0.77000004 13883622
-0.018333334 -0.0066000004 0.77000004 13818593
-0.016822856 -0.0065828571 0.76800001 13619933
-0.015360001 -0.0065828571 0.76800001 13423321
-0.013879048 -0.0065742861 0.76700002 13358038
-0.012385715 -0.0065571428 0.76500005 13291989
-0.010928571 -0.0065571428 0.76500005 13160917
-0.0094466675 -0.00654 0.76300001 13095124
-0.007993333 -0.00654 0.76300001 13029076
-0.00654 -0.00654 0.76300001 13029074
-0.0050866669 -0.00654 0.76300001 12963281
-0.0036333334 -0.00654 0.76300001 12963280
-0.0021800001 -0.00654 0.76300001 12897744
-0.00072666665 -0.00654 0.76300001 12897744
0.00072666665 -0.00654 0.76300001 12897489
0.0021742857 -0.0065228576 0.76100004 12897233
0.0036238097 -0.0065228576 0.76100004 12831441
0.0050733336 -0.0065228576 0.76100004 12765393
0.0065228576 -0.0065228576 0.76100004 12699601
0.0079619056 -0.0065142862 0.76000005 12634061
0.0094095245 -0.0065142862 0.76000005 12502473
0.010857143 -0.0065142862 0.76000005 12370884
0.012304762 -0.0065142862 0.76000005 12107967
0.013752381 -0.0065142862 0.76000005 11909562
0.01522 -0.0065228576 0.76100004 11581110
0.016669523 -0.0065228576 0.76100004 11253683
0.018119048 -0.0065228576 0.76100004 10988465
0.019619999 -0.00654 0.76300001 10726571
0.021073334 -0.00654 0.76300001 10461606
0.022526667 -0.00654 0.76300001 10199200
0.023980001 -0.00654 0.76300001 10001819
0.025500001 -0.0065571428 0.76500005 9869719
0.02702762 -0.0065742861 0.76700002 9606291
0.028488571 -0.0065742861 0.76700002 9343118
0.030066667 -0.0066000004 0.77000004 9145994
0.031656191 -0.0066257147 0.77300006 9014665
0.033214286 -0.0066428576 0.77500004 8817544
0.034779999 -0.00666 0.77700001 8686212
0.036353335 -0.0066771433 0.77900004 8619905
0.037982859 -0.0067028576 0.78200006 8553602
0.039573334 -0.0067199999 0.78400004 8487299
0.041066669 -0.0067199999 0.78400004 8355969
0.043157145 -0.0068142856 0.79500002 8290176
0.044783812 -0.006831429 0.79700005 8224125
0.046592385 -0.0068742861 0.80200005 8092794
0.048239999 -0.0068914285 0.80400002 7961208
0.049895242 -0.0069085718 0.80600005 7829878
0.051558096 -0.0069257147 0.80800003 7697776
0.053097144 -0.0069257147 0.80800003 7500395
0.05490667 -0.0069600004 0.81200004 7302242
0.056453332 -0.0069600004 0.81200004 6971225
0.058142856 -0.0069771428 0.81400001 6708296
0.059693333 -0.0069771428 0.81400001 6577464
0.06124381 -0.0069771428 0.81400001 6512190
0.074066669 -0.0066000004 0.77000004 11589855
0.075337149 -0.0065828571 0.76800001 13882840
0.076700002 -0.0065742861 0.76700002 13488081
0.077957146 -0.0065571428 0.76500005 13094353
0.079414286 -0.0065571428 0.76500005 13028562
0.08066 -0.00654 0.76300001 12962760
0.082113333 -0.00654 0.76300001 12105918
0.083566666 -0.00654 0.76300001 11252909
0.085020006 -0.00654 0.76300001 10659229
0.086473338 -0.00654 0.76300001 10066582
0.087926663 -0.00654 0.76300001 9211535
0.089379996 -0.00654 0.76300001 8425085
0.091309525 -0.0065742861 0.76700002 8156268
0.09277048 -0.0065742861 0.76700002 7892840
0.094231427 -0.0065742861 0.76700002 7891557
0.095692381 -0.0065742861 0.76700002 7956061
0.097279996 -0.0065828571 0.76800001 7892310
0.098742858 -0.0065828571 0.76800001 7828566
-0.062794283 -0.0054266667 0.81400001 10206912
-0.061093334 -0.0054133334 0.81200004 12049636
-0.059546668 -0.0054133334 0.81200004 13949922
-0.058000002 -0.0054133334 0.81200004 13949921
-0.05631429 -0.0054000006 0.81000006 14016202
-0.054771435 -0.0054000006 0.81000006 11188404
-0.043940958 -0.0052133338 0.78200006 8888495
-0.042451434 -0.0052133338 0.78200006 8757423
-0.041066669 -0.005226667 0.78400004 8495536
-0.039472383 -0.0052133338 0.78200006 8296364
-0.037982859 -0.0052133338 0.78200006 7967912
-0.036353335 -0.0051933331 0.77900004 7704742
-0.034779999 -0.0051799999 0.77700001 8423332
-0.033214286 -0.0051666666 0.77500004 9155016
-0.031819999 -0.0051799999 0.77700001 11653868
-0.030261906 -0.0051666666 0.77500004 14149607
-0.028785717 -0.0051666666 0.77500004 14016227
-0.027239049 -0.0051533333 0.77300006 13949921
-0.025733333 -0.0051466669 0.77200001 13884384
-0.024200002 -0.0051333336 0.77000004 13883871
-0.022733334 -0.0051333336 0.77000004 13883614
-0.021266669 -0.0051333336 0.77000004 13949152
-0.0198 -0.0051333336 0.77000004 13884642
-0.018333334 -0.0051333336 0.77000004 13818591
-0.016822856 -0.0051199999 0.76800001 13619931
-0.015360001 -0.0051199999 0.76800001 13423321
-0.013879048 -0.0051133335 0.76700002 13358038
-0.012385715 -0.0051000006 0.76500005 13291989
-0.010928571 -0.0051000006 0.76500005 13095380
-0.0094714295 -0.0051000006 0.76500005 12964051
-0.007993333 -0.0050866669 0.76300001 13029075
-0.00654 -0.0050866669 0.76300001 13094610
-0.0050866669 -0.0050866669 0.76300001 13029328
-0.0036333334 -0.0050866669 0.76300001 13029072
-0.0021800001 -0.0050866669 0.76300001 12963535
-0.00072666665 -0.0050866669 0.76300001 12897489
0.00072666665 -0.0050866669 0.76300001 12897491
0.0021742857 -0.0050733336 0.76100004 12897489
0.0036238097 -0.0050733336 0.76100004 12831184
0.0050733336 -0.0050733336 0.76100004 12765391
0.0065228576 -0.0050733336 0.76100004 12634062
0.0079723811 -0.0050733336 0.76100004 12502731
0.0094095245 -0.0050666668 0.76000005 12436936
0.010857143 -0.0050666668 0.76000005 12371140
0.012304762 -0.0050666668 0.76000005 12173760
0.013770477 -0.0050733336 0.76100004 11975868
0.01522 -0.0050733336 0.76100004 11646904
0.016669523 -0.0050733336 0.76100004 11318965
0.018119048 -0.0050733336 0.76100004 11054514
0.019619999 -0.0050866669 0.76300001 10792364
0.021073334 -0.0050866669 0.76300001 10461606
0.022526667 -0.0050866669 0.76300001 10199200
0.023980001 -0.0050866669 0.76300001 10001818
0.025500001 -0.0051000006 0.76500005 9870232
0.026957145 -0.0051000006 0.76500005 9606037
0.028488571 -0.0051133335 0.76700002 9408913
0.030066667 -0.0051333336 0.77000004 9212044
0.031615239 -0.0051466669 0.77200001 9080202
0.033214286 -0.0051666666 0.77500004 8948871
0.034779999 -0.0051799999 0.77700001 8817540
0.036353335 -0.0051933331 0.77900004 8685953
0.037885718 -0.0052 0.78000003 8618881
0.039573334 -0.005226667 0.78400004 8487298
0.041276194 -0.0052533336 0.78800005 8421503
0.043048576 -0.0052866666 0.79300004 8290173
0.044671431 -0.0052999998 0.79500002 8224124
0.046592385 -0.005346667 0.80200005 8092794
0.048239999 -0.0053600003 0.80400002 8026748
0.049895242 -0.0053733336 0.80600005 7895421
0.051558096 -0.0053866669 0.80800003 7763062
0.053360004 -0.0054133334 0.81200004 7435119
0.05490667 -0.0054133334 0.81200004 7171682
0.056453332 -0.0054133334 0.81200004 6314580
0.058142856 -0.0054266667 0.81400001 5458507
0.059693333 -0.0054266667 0.81400001 4995649
0.06124381 -0.0054266667 0.81400001 4536124
0.074066669 -0.0051333336 0.77000004 11720927
0.075042859 -0.0051000006 0.76500005 13949402
0.076500006 -0.0051000006 0.76500005 13487828
0.077957146 -0.0051000006 0.76500005 13028563
0.079414286 -0.0051000006 0.76500005 12963026
0.08066 -0.0050866669 0.76300001 12963016
0.082113333 -0.0050866669 0.76300001 12041150
0.083566666 -0.0050866669 0.76300001 11187630
0.085020006 -0.0050866669 0.76300001 10593182
0.086473338 -0.0050866669 0.76300001 10067349
0.087926663 -0.0050866669 0.76300001 9212045
0.089379996 -0.0050866669 0.76300001 8424571
0.090833329 -0.0050866669 0.76300001 8024682
0.09277048 -0.0051133335 0.76700002 7696484
0.094231427 -0.0051133335 0.76700002 7693150
0.095692381 -0.0051133335 0.76700002 7694164
0.097279996 -0.0051199999 0.76800001 7297610
0.098742858 -0.0051199999 0.76800001 6910032
-0.062871434 -0.0038809527 0.81500006 10009532
-0.06124381 -0.0038761906 0.81400001 11983333
-0.059693333 -0.0038761906 0.81400001 13949411
-0.057857145 -0.003857143 0.81000006 14015713
-0.05631429 -0.003857143 0.81000006 14147532
-0.054500956 -0.0038380953 0.80600005 11452088
-0.052965716 -0.0038380953 0.80600005 8752304
-0.04234286 -0.0037142858 0.78000003 8695224
-0.040961906 -0.0037238097 0.78200006 8494781
-0.039472383 -0.0037238097 0.78200006 8297395
-0.037982859 -0.0037238097 0.78200006 8033449
-0.036260001 -0.0037 0.77700001 7770787
-0.034690477 -0.0036904763 0.77500004 8227742
-0.033128574 -0.0036809526 0.77300006 8628677
-0.031738095 -0.0036904763 0.77500004 11390188
-0.030183813 -0.0036809526 0.77300006 14150118
-0.028711431 -0.0036809526 0.77300006 14016480
-0.027239049 -0.0036809526 0.77300006 13884384
-0.025733333 -0.0036761905 0.77200001 13818592
-0.024200002 -0.0036666668 0.77000004 13818336
-0.022733334 -0.0036666668 0.77000004 13818080
-0.021266669 -0.0036666668 0.77000004 13883871
-0.0198 -0.0036666668 0.77000004 13818335
-0.018333334 -0.0036666668 0.77000004 13753052
-0.016822856 -0.0036571429 0.76800001 13554394
-0.01534 -0.003652381 0.76700002 13358040
-0.013879048 -0.003652381 0.76700002 13292247
-0.012385715 -0.0036428573 0.76500005 13291989
-0.010928571 -0.0036428573 0.76500005 13160915
-0.0094714295 -0.0036428573 0.76500005 13029587
-0.007993333 -0.0036333334 0.76300001 13029331
-0.00654 -0.0036333334 0.76300001 13029329
-0.0050866669 -0.0036333334 0.76300001 13029072
-0.0036333334 -0.0036333334 0.76300001 12963535
-0.0021800001 -0.0036333334 0.76300001 12963279
-0.00072666665 -0.0036333334 0.76300001 12963026
0.00072666665 -0.0036333334 0.76300001 12897493
0.0021742857 -0.0036238097 0.76100004 12897746
0.0036238097 -0.0036238097 0.76100004 12765648
0.0050733336 -0.0036238097 0.76100004 12700110
0.0065228576 -0.0036238097 0.76100004 12634060
0.0079619056 -0.0036190478 0.76000005 12502729
0.0094095245 -0.0036190478 0.76000005 12436935
0.010857143 -0.0036190478 0.76000005 12371396
0.012304762 -0.0036190478 0.76000005 12173250
0.013752381 -0.0036190478 0.76000005 11976894
0.015200001 -0.0036190478 0.76000005 11647163
0.016669523 -0.0036238097 0.76100004 11318711
0.018119048 -0.0036238097 0.76100004 11055027
0.019619999 -0.0036333334 0.76300001 10792621
0.021073334 -0.0036333334 0.76300001 10461607
0.022526667 -0.0036333334 0.76300001 10199200
0.023980001 -0.0036333334 0.76300001 10002074
0.025433334 -0.0036333334 0.76300001 9871001
0.026957145 -0.0036428573 0.76500005 9606808
0.028414287 -0.0036428573 0.76500005 9409683
0.029949524 -0.003652381 0.76700002 9211791
0.031615239 -0.0036761905 0.77200001 9014667
0.033214286 -0.0036904763 0.77500004 8883335
0.034779999 -0.0037 0.77700001 8752260
0.036353335 -0.0037095239 0.77900004 8685698
0.037885718 -0.0037142858 0.78000003 8618881
0.039674286 -0.0037428571 0.78600001 8553345
0.041171428 -0.0037428571 0.78600001 8487806
0.043157145 -0.0037857143 0.79500002 8355963
0.044783812 -0.0037952382 0.79700005 8224379
0.046592385 -0.0038190477 0.80200005 8158331
0.048239999 -0.0038285714 0.80400002 8092288
0.049895242 -0.0038380953 0.80600005 7895429
0.051558096 -0.0038476191 0.80800003 7763068
0.053228576 -0.003857143 0.81000006 7566196
0.054771435 -0.003857143 0.81000006 7369058
0.056453332 -0.0038666669 0.81200004 5983824
0.058142856 -0.0038761906 0.81400001 4666701
0.059546668 -0.0038666669 0.81200004 4338763
0.061093334 -0.0038666669 0.81200004 4010811
0.075042859 -0.0036428573 0.76500005 14015964
0.076500006 -0.0036428573 0.76500005 13554136
0.077957146 -0.0036428573 0.76500005 13028565
0.079206668 -0.0036333334 0.76300001 13028562
0.08066 -0.0036333334 0.76300001 12963272
0.082113333 -0.0036333334 0.76300001 11975358
0.083347626 -0.0036238097 0.76100004 10925998
0.085020006 -0.0036333334 0.76300001 10593439
0.086473338 -0.0036333334 0.76300001 10199445
0.087926663 -0.0036333334 0.76300001 9408139
0.089379996 -0.0036333334 0.76300001 8686457
0.091309525 -0.003652381 0.76700002 8025448
0.09277048 -0.003652381 0.76700002 7434592
0.094231427 -0.003652381 0.76700002 7761240
0.095817141 -0.0036571429 0.76800001 8153419
0.097279996 -0.0036571429 0.76800001 8088383
0.098742858 -0.0036571429 0.76800001 8088906
-0.062871434 -0.0023285716 0.81500006 9811641
-0.06124381 -0.0023257141 0.81400001 11851494
-0.059693333 -0.0023257141 0.81400001 13949668
-0.058000002 -0.00232 0.81200004 14081762
-0.05631429 -0.0023142861 0.81000006 14279373
-0.054636195 -0.0023085715 0.80800003 11716023
-0.052965716 -0.0023028573 0.80600005 9145262
-0.051430479 -0.0023028573 0.80600005 8816804
-0.04234286 -0.0022285716 0.78000003 8691120
-0.040961906 -0.0022342859 0.78200006 8494258
-0.039472383 -0.0022342859 0.78200006 8362155
-0.037982859 -0.0022342859 0.78200006 8099236
-0.036260001 -0.0022200001 0.77700001 7901854
-0.034690477 -0.0022142858 0.77500004 8032409
-0.033128574 -0.0022085716 0.77300006 8166591
-0.031656191 -0.0022085716 0.77300006 11192038
-0.030144762 -0.0022057144 0.77200001 14215397
-0.028674286 -0.0022057144 0.77200001 14016996
-0.027203809 -0.0022057144 0.77200001 13818594
-0.025666667 -0.0022000002 0.77000004 13818336
-0.024200002 -0.0022000002 0.77000004 13818336
-0.022733334 -0.0022000002 0.77000004 13818081
-0.021266669 -0.0022000002 0.77000004 13818335
-0.0198 -0.0022000002 0.77000004 13753054
-0.018285714 -0.0021942856 0.76800001 13753051
-0.016822856 -0.0021942856 0.76800001 13554649
-0.01534 -0.0021914286 0.76700002 13357783
-0.013842857 -0.0021857144 0.76500005 13292245
-0.012385715 -0.0021857144 0.76500005 13292244
-0.010899999 -0.0021800001 0.76300001 13226707
-0.0094466675 -0.0021800001 0.76300001 13160403
-0.007993333 -0.0021800001 0.76300001 13094867
-0.00654 -0.0021800001 0.76300001 13029073
-0.0050866669 -0.0021800001 0.76300001 12963280
-0.0036333334 -0.0021800001 0.76300001 12963277
-0.0021800001 -0.0021800001 0.76300001 13028811
-0.00072666665 -0.0021800001 0.76300001 13094094
0.00072666665 -0.0021800001 0.76300001 12963282
0.0021742857 -0.0021742857 0.76100004 12897488
0.0036238097 -0.0021742857 0.76100004 12765903
0.0050733336 -0.0021742857 0.76100004 12699853
0.0065228576 -0.0021742857 0.76100004 12634059
0.0079619056 -0.0021714286 0.76000005 12568265
0.0094095245 -0.0021714286 0.76000005 12437192
0.010857143 -0.0021714286 0.76000005 12371398
0.012272381 -0.0021657145 0.75800002 12172740
0.013752381 -0.0021714286 0.76000005 11975615
0.015200001 -0.0021714286 0.76000005 11647674
0.01664762 -0.0021714286 0.76000005 11384502
0.018119048 -0.0021742857 0.76100004 11055539
0.019568572 -0.0021742857 0.76100004 10792366
0.021073334 -0.0021800001 0.76300001 10527144
0.022526667 -0.0021800001 0.76300001 10264737
0.023980001 -0.0021800001 0.76300001 10067866
0.025433334 -0.0021800001 0.76300001 9870744
0.026957145 -0.0021857144 0.76500005 9673110
0.028414287 -0.0021857144 0.76500005 9475219
0.029949524 -0.0021914286 0.76700002 9211792
0.03145143 -0.0021942856 0.76800001 9014412
0.033214286 -0.0022142858 0.77500004 8883337
0.034779999 -0.0022200001 0.77700001 8752007
0.036353335 -0.0022257145 0.77900004 8685701
0.037885718 -0.0022285716 0.78000003 8684674
0.039371427 -0.0022285716 0.78000003 8619135
0.041276194 -0.0022514286 0.78800005 8553342
0.043048576 -0.0022657143 0.79300004 8421756
0.044671431 -0.0022714285 0.79500002 8289659
0.046476189 -0.0022857143 0.80000001 8223866
0.048239999 -0.002297143 0.80400002 8158077
0.049895242 -0.0023028573 0.80600005 7961216
0.051558096 -0.0023085715 0.80800003 7762553
0.053097144 -0.0023085715 0.80800003 7631730
0.054771435 -0.0023142861 0.81000006 7565661
0.05631429 -0.0023142861 0.81000006 5718599
0.058000002 -0.00232 0.81200004 3945531
0.059546668 -0.00232 0.81200004 3749424
0.061093334 -0.00232 0.81200004 3553073
0.075042859 -0.0021857144 0.76500005 14146266
0.076500006 -0.0021857144 0.76500005 13620436
0.077957146 -0.0021857144 0.76500005 13093586
0.079206668 -0.0021800001 0.76300001 13028561
0.08066 -0.0021800001 0.76300001 13028550
0.081898101 -0.0021742857 0.76100004 11844284
0.083347626 -0.0021742857 0.76100004 10728879
0.084797144 -0.0021742857 0.76100004 10528163
0.086246669 -0.0021742857 0.76100004 10395801
0.087926663 -0.0021800001 0.76300001 9670031
0.089379996 -0.0021800001 0.76300001 8948348
0.091309525 -0.0021914286 0.76700002 8026473
0.09277048 -0.0021914286 0.76700002 7172704
0.094231427 -0.0021914286 0.76700002 7893080
0.095817141 -0.0021942856 0.76800001 8614733
0.097279996 -0.0021942856 0.76800001 8943171
0.098742858 -0.0021942856 0.76800001 9334095
0.10020572 -0.0021942856 0.76800001 9203292
-0.062794283 -0.00077523809 0.81400001 9548471
-0.061093334 -0.00077333336 0.81200004 11719911
-0.059546668 -0.00077333336 0.81200004 13949925
-0.058000002 -0.00077333336 0.81200004 14147300
-0.05631429 -0.00077142863 0.81000006 14345933
-0.054636195 -0.00076952385 0.80800003 11781559
-0.052965716 -0.00076761912 0.80600005 9276075
-0.051430479 -0.00076761912 0.80600005 8749984
-0.04234286 -0.00074285717 0.78000003 8624296
-0.040857144 -0.00074285717 0.78000003 8427176
-0.039371427 -0.00074285717 0.78000003 8295844
-0.037885718 -0.00074285717 0.78000003 8164768
-0.036260001 -0.00073999999 0.77700001 8033178
-0.034690477 -0.00073809526 0.77500004 7901588
-0.033128574 -0.00073619053 0.77300006 7835578
-0.031656191 -0.00073619053 0.77300006 10864097
-0.030144762 -0.00073523808 0.77200001 13952996
-0.028674286 -0.00073523808 0.77200001 13951720
-0.027203809 -0.00073523808 0.77200001 13949668
-0.025733333 -0.00073523808 0.77200001 13883873
-0.024200002 -0.00073333335 0.77000004 13818337
-0.022733334 -0.00073333335 0.77000004 13818338
-0.021266669 -0.00073333335 0.77000004 13818335
-0.01974857 -0.00073142856 0.76800001 13818589
-0.018285714 -0.00073142856 0.76800001 13753307
-0.016822856 -0.00073142856 0.76800001 13554649
-0.01534 -0.00073047623 0.76700002 13357782
-0.013842857 -0.00072857144 0.76500005 13292244
-0.012353334 -0.00072666665 0.76300001 13226964
-0.010899999 -0.00072666665 0.76300001 13160660
-0.0094466675 -0.00072666665 0.76300001 13094355
-0.007993333 -0.00072666665 0.76300001 13094355
-0.00654 -0.00072666665 0.76300001 13094353
-0.0050866669 -0.00072666665 0.76300001 13028816
-0.0036238097 -0.00072476192 0.76100004 12963019
-0.0021800001 -0.00072666665 0.76300001 12963015
-0.00072666665 -0.00072666665 0.76300001 13028555
0.00072476192 -0.00072476192 0.76100004 12963023
0.0021742857 -0.00072476192 0.76100004 12897486
0.0036238097 -0.00072476192 0.76100004 12831438
0.0050733336 -0.00072476192 0.76100004 12699852
0.0065228576 -0.00072476192 0.76100004 12634058
0.0079619056 -0.00072380959 0.76000005 12502730
0.0094095245 -0.00072380959 0.76000005 12437194
0.010857143 -0.00072380959 0.76000005 12371400
0.012272381 -0.0007219048 0.75800002 12173254
0.013752381 -0.00072380959 0.76000005 11975615
0.015200001 -0.00072380959 0.76000005 11712953
0.01664762 -0.00072380959 0.76000005 11450550
0.018119048 -0.00072476192 0.76100004 11120820
0.019568572 -0.00072476192 0.76100004 10857647
0.021018095 -0.00072476192 0.76100004 10527658
0.022526667 -0.00072666665 0.76300001 10264994
0.023980001 -0.00072666665 0.76300001 10067611
0.025433334 -0.00072666665 0.76300001 9870488
0.026886668 -0.00072666665 0.76300001 9673109
0.028414287 -0.00072857144 0.76500005 9475219
0.029949524 -0.00073047623 0.76700002 9277329
0.03145143 -0.00073142856 0.76800001 9079950
0.033214286 -0.00073809526 0.77500004 8948876
0.034779999 -0.00073999999 0.77700001 8817546
0.036353335 -0.00074190478 0.77900004 8751241
0.037982859 -0.00074476196 0.78200006 8685187
0.039472383 -0.00074476196 0.78200006 8619134
0.041276194 -0.0007504762 0.78800005 8553342
0.043048576 -0.00075523811 0.79300004 8421502
0.044783812 -0.00075904763 0.79700005 8289660
0.046476189 -0.00076190475 0.80000001 8223866
0.048239999 -0.00076571427 0.80400002 8158331
0.049895242 -0.00076761912 0.80600005 7895676
0.051558096 -0.00076952385 0.80800003 7631222
0.053097144 -0.00076952385 0.80800003 7565681
0.054771435 -0.00077142863 0.81000006 7434840
0.05631429 -0.00077142863 0.81000006 5456703
0.058000002 -0.00077333336 0.81200004 3420970
0.059546668 -0.00077333336 0.81200004 3356181
0.07484667 -0.00072666665 0.76300001 14211032
0.076500006 -0.00072857144 0.76500005 13619408
0.077753328 -0.00072666665 0.76300001 12962000
0.079206668 -0.00072666665 0.76300001 12897233
0.080448568 -0.00072476192 0.76100004 12897477
0.081898101 -0.00072476192 0.76100004 11844282
0.083238102 -0.00072380959 0.76000005 10859441
0.084797144 -0.00072476192 0.76100004 10527400
0.086246669 -0.00072476192 0.76100004 10198941
0.087696187 -0.00072476192 0.76100004 9473171
0.089614294 -0.00072857144 0.76500005 8686206
0.091309525 -0.00073047623 0.76700002 8091754
0.09277048 -0.00073047623 0.76700002 7566177
0.094231427 -0.00073047623 0.76700002 8024664
0.095692381 -0.00073047623 0.76700002 8548943
0.097279996 -0.00073142856 0.76800001 8942663
0.098742858 -0.00073142856 0.76800001 9334101
0.10020572 -0.00073142856 0.76800001 9268323
-0.062794283 0.00077523809 0.81400001 9350323
-0.061093334 0.00077333336 0.81200004 11654115
-0.059546668 0.00077333336 0.81200004 13950437
-0.057857145 0.00077142863 0.81000006 14147304
-0.056175239 0.00076952385 0.80800003 14410961
-0.054500956 0.00076761912 0.80600005 11912891
-0.052834287 0.00076571427 0.80400002 9474987
-0.051302858 0.00076571427 0.80400002 8748956
-0.043940958 0.00074476196 0.78200006 8492967
-0.042451434 0.00074476196 0.78200006 8623782
-0.040857144 0.00074285717 0.78000003 8427173
-0.039371427 0.00074285717 0.78000003 8230307
-0.03774 0.00073999999 0.77700001 8164769
-0.036260001 0.00073999999 0.77700001 8163992
-0.034690477 0.00073809526 0.77500004 7834255
-0.033128574 0.00073619053 0.77300006 7506869
-0.031738095 0.00073809526 0.77500004 10601691
-0.030144762 0.00073523808 0.77200001 13755361
-0.028674286 0.00073523808 0.77200001 13886438
-0.027203809 0.00073523808 0.77200001 14080739
-0.025733333 0.00073523808 0.77200001 13949665
-0.024200002 0.00073333335 0.77000004 13818337
-0.022733334 0.00073333335 0.77000004 13818850
-0.021211429 0.00073142856 0.76800001 13884384
-0.01974857 0.00073142856 0.76800001 13818846
-0.018285714 0.00073142856 0.76800001 13819100
-0.016800953 0.00073047623 0.76700002 13620442
-0.01534 0.00073047623 0.76700002 13423576
-0.013842857 0.00072857144 0.76500005 13292501
-0.012353334 0.00072666665 0.76300001 13226452
-0.010899999 0.00072666665 0.76300001 13160404
-0.0094466675 0.00072666665 0.76300001 13094611
-0.007993333 0.00072666665 0.76300001 13160146
-0.00654 0.00072666665 0.76300001 13225681
-0.0050866669 0.00072666665 0.76300001 13094608
-0.0036238097 0.00072476192 0.76100004 13028557
-0.0021800001 0.00072666665 0.76300001 12962763
-0.00072476192 0.00072476192 0.76100004 12963021
0.00072476192 0.00072476192 0.76100004 12963024
0.0021742857 0.00072476192 0.76100004 12963023
0.0036190478 0.00072380959 0.76000005 12831694
0.0050666668 0.00072380959 0.76000005 12765388
0.0065142862 0.00072380959 0.76000005 12634314
0.0079619056 0.00072380959 0.76000005 12502730
0.0094095245 0.00072380959 0.76000005 12437194
0.010857143 0.00072380959 0.76000005 12371146
0.012304762 0.00072380959 0.76000005 12174025
0.013752381 0.00072380959 0.76000005 12041409
0.015200001 0.00072380959 0.76000005 11777976
0.016669523 0.00072476192 0.76100004 11581621
0.018119048 0.00072476192 0.76100004 11251635
0.019568572 0.00072476192 0.76100004 10923952
0.021073334 0.00072666665 0.76300001 10593965
0.022526667 0.00072666665 0.76300001 10265252
0.023980001 0.00072666665 0.76300001 10067611
0.025433334 0.00072666665 0.76300001 9936281
0.026886668 0.00072666665 0.76300001 9673366
0.028414287 0.00072857144 0.76500005 9475219
0.029949524 0.00073047623 0.76700002 9277328
0.03132857 0.00072857144 0.76500005 9145741
0.033214286 0.00073809526 0.77500004 9014409
0.034779999 0.00073999999 0.77700001 8882825
0.036353335 0.00074190478 0.77900004 8751241
0.037837148 0.00074190478 0.77900004 8685188
0.039573334 0.00074666669 0.78400004 8619392
0.041276194 0.0007504762 0.78800005 8618624
0.042940002 0.00075333333 0.79100001 8486785
0.044671431 0.00075714284 0.79500002 8355454
0.046476189 0.00076190475 0.80000001 8224380
0.048239999 0.00076571427 0.80400002 8158329
0.049895242 0.00076761912 0.80600005 7830135
0.051558096 0.00076952385 0.80800003 7566193
0.053097144 0.00076952385 0.80800003 7433580
0.054771435 0.00077142863 0.81000006 7367516
0.056175239 0.00076952385 0.80800003 5129292
0.057857145 0.00077142863 0.81000006 2965305
0.059400007 0.00077142863 0.81000006 2958886
0.073393337 0.00072666665 0.76300001 12247265
0.07484667 0.00072666665 0.76300001 14342874
0.076299995 0.00072666665 0.76300001 13618642
0.077753328 0.00072666665 0.76300001 12896466
0.079206668 0.00072666665 0.76300001 12831442
0.080448568 0.00072476192 0.76100004 12766150
0.081898101 0.00072476192 0.76100004 11909818
0.083238102 0.00072380959 0.76000005 11054256
0.084797144 0.00072476192 0.76100004 10526630
0.086246669 0.00072476192 0.76100004 10067608
0.087696187 0.00072476192 0.76100004 9276554
0.089614294 0.00072857144 0.76500005 8489598
0.091071434 0.00072857144 0.76500005 8222834
0.09277048 0.00073047623 0.76700002 7959911
0.093985721 0.00072857144 0.76500005 8221532
0.095692381 0.00073047623 0.76700002 8548950
0.097153336 0.00073047623 0.76700002 8942160
0.09861429 0.00073047623 0.76700002 9335640
0.10007524 0.00073047623 0.76700002 9336160
-0.062794283 0.0023257141 0.81400001 9086639
-0.061093334 0.00232 0.81200004 11523040
-0.059546668 0.00232 0.81200004 13950950
-0.057857145 0.0023142861 0.81000006 14081516
-0.056036193 0.0023028573 0.80600005 14213845
-0.054365713 0.002297143 0.80400002 11978687
-0.052571427 0.0022857143 0.80000001 9805227
-0.051047619 0.0022857143 0.80000001 8552344
-0.049400002 0.0022800001 0.79800004 7377310
-0.047880001 0.0022800001 0.79800004 7836837
-0.045430478 0.0022342859 0.78200006 8296613
-0.043828573 0.0022285716 0.78000003 8821157
-0.042451434 0.0022342859 0.78200006 9411236
-0.040961906 0.0022342859 0.78200006 8754851
-0.039371427 0.0022285716 0.78000003 8165538
-0.037837148 0.0022257145 0.77900004 8164514
-0.036260001 0.0022200001 0.77700001 8163990
-0.034690477 0.0022142858 0.77500004 7768971
-0.033214286 0.0022142858 0.77500004 7374768
-0.031738095 0.0022142858 0.77500004 10403030
-0.030183813 0.0022085716 0.77300006 13361373
-0.028674286 0.0022057144 0.77200001 13754341
-0.027203809 0.0022057144 0.77200001 14146531
-0.025733333 0.0022057144 0.77200001 13883873
-0.024200002 0.0022000002 0.77000004 13621474
-0.022733334 0.0022000002 0.77000004 13753315
-0.021211429 0.0021942856 0.76800001 13884385
-0.01974857 0.0021942856 0.76800001 13884639
-0.018285714 0.0021942856 0.76800001 13885149
-0.016800953 0.0021914286 0.76700002 13620444
-0.0153 0.0021857144 0.76500005 13423577
-0.013842857 0.0021857144 0.76500005 13357783
-0.012353334 0.0021800001 0.76300001 13226197
-0.010899999 0.0021800001 0.76300001 13160404
-0.0094466675 0.0021800001 0.76300001 13094610
-0.007993333 0.0021800001 0.76300001 13094609
-0.00654 0.0021800001 0.76300001 13094865
-0.0050866669 0.0021800001 0.76300001 13029073
-0.0036238097 0.0021742857 0.76100004 12963024
-0.0021800001 0.0021800001 0.76300001 12963023
-0.00072476192 0.0021742857 0.76100004 12897488
0.00072380959 0.0021714286 0.76000005 12897490
0.0021714286 0.0021714286 0.76000005 12897488
0.0036190478 0.0021714286 0.76000005 12831694
0.0050666668 0.0021714286 0.76000005 12700108
0.0065142862 0.0021714286 0.76000005 12568523
0.0079619056 0.0021714286 0.76000005 12502219
0.0094095245 0.0021714286 0.76000005 12436683
0.010828571 0.0021657145 0.75800002 12436684
0.012272381 0.0021657145 0.75800002 12239309
0.013752381 0.0021714286 0.76000005 12041922
0.015200001 0.0021714286 0.76000005 11779000
0.01664762 0.0021714286 0.76000005 11581877
0.018119048 0.0021742857 0.76100004 11253426
0.019568572 0.0021742857 0.76100004 10924977
0.021073334 0.0021800001 0.76300001 10594224
0.022526667 0.0021800001 0.76300001 10331046
0.023980001 0.0021800001 0.76300001 10133660
0.025433334 0.0021800001 0.76300001 10002074
0.026886668 0.0021800001 0.76300001 9738904
0.028414287 0.0021857144 0.76500005 9541012
0.02987143 0.0021857144 0.76500005 9343120
0.031410474 0.0021914286 0.76700002 9211531
0.033 0.0022000002 0.77000004 9079943
0.034690477 0.0022142858 0.77500004 8948360
0.036353335 0.0022257145 0.77900004 8816777
0.037837148 0.0022257145 0.77900004 8750982
0.039573334 0.0022400003 0.78400004 8684931
0.041328572 0.0022542858 0.78900003 8618627
0.042940002 0.0022600002 0.79100001 8487044
0.04455905 0.0022657143 0.79300004 8355713
0.046301909 0.0022771431 0.79700005 8224382
0.048119999 0.0022914286 0.80200005 8093048
0.049771432 0.002297143 0.80400002 7895666
0.051558096 0.0023085715 0.80800003 7632492
0.053097144 0.0023085715 0.80800003 7433319
0.054771435 0.0023142861 0.81000006 7300448
0.056175239 0.0023085715 0.80800003 6772826
0.057857145 0.0023142861 0.81000006 6310729
0.059400007 0.0023142861 0.81000006 6311224
0.073393337 0.0021800001 0.76300001 12706787
0.074650481 0.0021742857 0.76100004 14278108
0.076299995 0.0021800001 0.76300001 13618389
0.077753328 0.0021800001 0.76300001 12962260
0.07899905 0.0021742857 0.76100004 12831188
0.080448568 0.0021742857 0.76100004 12700359
0.081898101 0.0021742857 0.76100004 11843258
0.083347626 0.0021742857 0.76100004 10987183
0.084797144 0.0021742857 0.76100004 10460580
0.086246669 0.0021742857 0.76100004 10001811
0.087696187 0.0021742857 0.76100004 9211522
0.089614294 0.0021857144 0.76500005 8424318
0.091071434 0.0021857144 0.76500005 8090747
0.092528574 0.0021857144 0.76500005 7695726
0.093985721 0.0021857144 0.76500005 8614753
0.095442861 0.0021857144 0.76500005 9534045
0.096646667 0.0021800001 0.76300001 9665625
0.098100007 0.0021800001 0.76300001 9797211
0.10007524 0.0021914286 0.76700002 9796190
-0.062794283 0.0038761906 0.81400001 8889776
-0.061093334 0.0038666669 0.81200004 11391972
-0.059400007 0.003857143 0.81000006 13950437
-0.057714287 0.0038476191 0.80800003 14015975
-0.055897143 0.0038285714 0.80400002 14082260
-0.054230478 0.0038190477 0.80200005 12110274
-0.052571427 0.0038095238 0.80000001 10133676
-0.050920002 0.0038000003 0.79800004 8421271
-0.049400002 0.0038000003 0.79800004 6721181
-0.047340002 0.0037571429 0.78900003 7443363
-0.045546666 0.0037333334 0.78400004 8165027
-0.043940958 0.0037238097 0.78200006 9153443
-0.042451434 0.0037238097 0.78200006 10196900
-0.040961906 0.0037238097 0.78200006 9148325
-0.039371427 0.0037142858 0.78000003 8099492
-0.037885718 0.0037142858 0.78000003 8164515
-0.036260001 0.0037 0.77700001 8229785
-0.034779999 0.0037 0.77700001 7769488
-0.033214286 0.0036904763 0.77500004 7308979
-0.031738095 0.0036904763 0.77500004 10139095
-0.030183813 0.0036809526 0.77300006 13033183
-0.028711431 0.0036809526 0.77300006 13623015
-0.027203809 0.0036761905 0.77200001 14212579
-0.025733333 0.0036761905 0.77200001 13817568
-0.024200002 0.0036666668 0.77000004 13490145
-0.022733334 0.0036666668 0.77000004 13687779
-0.021211429 0.0036571429 0.76800001 13950177
-0.01974857 0.0036571429 0.76800001 13950432
-0.018261906 0.003652381 0.76700002 13950430
-0.016800953 0.003652381 0.76700002 13686237
-0.0153 0.0036428573 0.76500005 13489114
-0.013806666 0.0036333334 0.76300001 13357526
-0.012353334 0.0036333334 0.76300001 13291732
-0.010899999 0.0036333334 0.76300001 13160403
-0.0094466675 0.0036333334 0.76300001 13094609
-0.007993333 0.0036333334 0.76300001 13029072
-0.00654 0.0036333334 0.76300001 13029072
-0.0050866669 0.0036333334 0.76300001 12963536
-0.0036238097 0.0036238097 0.76100004 12963279
-0.0021800001 0.0036333334 0.76300001 12897741
-0.00072476192 0.0036238097 0.76100004 12897487
0.00072380959 0.0036190478 0.76000005 12897488
0.0021714286 0.0036190478 0.76000005 12897487
0.0036190478 0.0036190478 0.76000005 12766157
0.0050666668 0.0036190478 0.76000005 12700107
0.0065142862 0.0036190478 0.76000005 12568266
0.0079409527 0.0036095236 0.75800002 12502473
0.0094095245 0.0036190478 0.76000005 12502217
0.010828571 0.0036095236 0.75800002 12502474
0.012304762 0.0036190478 0.76000005 12304843
0.013752381 0.0036190478 0.76000005 12107459
0.015200001 0.0036190478 0.76000005 11845051
0.01664762 0.0036190478 0.76000005 11582391
0.018119048 0.0036238097 0.76100004 11253428
0.019568572 0.0036238097 0.76100004 10924979
0.021018095 0.0036238097 0.76100004 10660273
0.022526667 0.0036333334 0.76300001 10462121
0.023980001 0.0036333334 0.76300001 10265248
0.025433334 0.0036333334 0.76300001 10067611
0.026886668 0.0036333334 0.76300001 9804439
0.028414287 0.0036428573 0.76500005 9606804
0.02987143 0.0036428573 0.76500005 9409170
0.031410474 0.003652381 0.76700002 9277070
0.033 0.0036666668 0.77000004 9145737
0.034690477 0.0036904763 0.77500004 9013898
0.036353335 0.0037095239 0.77900004 8882570
0.037837148 0.0037095239 0.77900004 8816519
0.039573334 0.0037333334 0.78400004 8684932
0.041328572 0.0037571429 0.78900003 8618884
0.042940002 0.0037666666 0.79100001 8487812
0.04455905 0.0037761906 0.79300004 8421248
0.046301909 0.0037952382 0.79700005 8224636
0.047880001 0.0038000003 0.79800004 8092792
0.049647622 0.0038190477 0.80200005 7895668
0.051430479 0.0038380953 0.80600005 7763569
0.053097144 0.0038476191 0.80800003 7498862
0.054771435 0.003857143 0.81000006 7235694
0.056175239 0.0038476191 0.80800003 8422766
0.058000002 0.0038666669 0.81200004 9670760
0.059546668 0.0038666669 0.81200004 9739106
0.073200949 0.0036238097 0.76100004 13232097
0.074650481 0.0036238097 0.76100004 14212827
0.076299995 0.0036333334 0.76300001 13618389
0.077753328 0.0036333334 0.76300001 13028563
0.07899905 0.0036238097 0.76100004 12831954
0.080448568 0.0036238097 0.76100004 12633541
0.081898101 0.0036238097 0.76100004 11776697
0.083347626 0.0036238097 0.76100004 10922922
0.084797144 0.0036238097 0.76100004 10394524
0.086246669 0.0036238097 0.76100004 9936021
0.087696187 0.0036238097 0.76100004 9146510
0.089614294 0.0036428573 0.76500005 8424325
0.091071434 0.0036428573 0.76500005 7958909
0.092528574 0.0036428573 0.76500005 7499128
0.093985721 0.0036428573 0.76500005 9014387
0.095193334 0.0036333334 0.76300001 10523764
0.096393339 0.0036238097 0.76100004 10394997
0.097842865 0.0036238097 0.76100004 10263929
0.099292383 0.0036238097 0.76100004 10264189
-0.061093334 0.0054133334 0.81200004 11194600
-0.059400007 0.0054000006 0.81000006 13819109
-0.057571433 0.0053733336 0.80600005 13884642
-0.055897143 0.0053600003 0.80400002 13950931
-0.054230478 0.005346667 0.80200005 12176325
-0.052571427 0.0053333333 0.80000001 10396590
-0.050920002 0.0053200005 0.79800004 8617367
-0.049400002 0.0053200005 0.79800004 6851484
-0.047340002 0.00526 0.78900003 7508641
-0.045546666 0.005226667 0.78400004 8164769
-0.043940958 0.0052133338 0.78200006 8819873
-0.042451434 0.0052133338 0.78200006 9475236
-0.040857144 0.0052 0.78000003 8819880
-0.039371427 0.0052 0.78000003 8164774
-0.037837148 0.0051933331 0.77900004 8164516
-0.036260001 0.0051799999 0.77700001 8098972
-0.034779999 0.0051799999 0.77700001 7638165
-0.033214286 0.0051666666 0.77500004 7177910
-0.031738095 0.0051666666 0.77500004 9940952
-0.030183813 0.0051533333 0.77300006 12705248
-0.028674286 0.0051466669 0.77200001 13361129
-0.027203809 0.0051466669 0.77200001 14082276
-0.025733333 0.0051466669 0.77200001 13818079
-0.024200002 0.0051333336 0.77000004 13621217
-0.022733334 0.0051333336 0.77000004 13819363
-0.021211429 0.0051199999 0.76800001 14016226
-0.019722857 0.0051133335 0.76700002 14015713
-0.018261906 0.0051133335 0.76700002 13950176
-0.016757144 0.0051000006 0.76500005 13752287
-0.0153 0.0051000006 0.76500005 13554650
-0.013806666 0.0050866669 0.76300001 13423318
-0.012353334 0.0050866669 0.76300001 13291988
-0.010899999 0.0050866669 0.76300001 13226194
-0.0094466675 0.0050866669 0.76300001 13094609
-0.007993333 0.0050866669 0.76300001 13029072
-0.0065228576 0.0050733336 0.76100004 13029072
-0.0050866669 0.0050866669 0.76300001 13029072
-0.0036238097 0.0050733336 0.76100004 13029070
-0.0021742857 0.0050733336 0.76100004 12963276
-0.00072476192 0.0050733336 0.76100004 12897485
0.00072380959 0.0050666668 0.76000005 12897487
0.0021714286 0.0050666668 0.76000005 12897486
0.0036190478 0.0050666668 0.76000005 12766157
0.0050666668 0.0050666668 0.76000005 12700107
0.0065142862 0.0050666668 0.76000005 12568777
0.0079619056 0.0050666668 0.76000005 12502984
0.0094095245 0.0050666668 0.76000005 12502727
0.010857143 0.0050666668 0.76000005 12502728
0.012304762 0.0050666668 0.76000005 12305097
0.013752381 0.0050666668 0.76000005 12107715
0.015200001 0.0050666668 0.76000005 11844798
0.01664762 0.0050666668 0.76000005 11648442
0.01809524 0.0050666668 0.76000005 11318455
0.019568572 0.0050733336 0.76100004 10990773
0.021018095 0.0050733336 0.76100004 10725299
0.022467621 0.0050733336 0.76100004 10462380
0.023980001 0.0050866669 0.76300001 10265253
0.025433334 0.0050866669 0.76300001 10133149
0.026886668 0.0050866669 0.76300001 9870998
0.028414287 0.0051000006 0.76500005 9674389
0.02987143 0.0051000006 0.76500005 9474453
0.031410474 0.0051133335 0.76700002 9277328
0.033085715 0.0051466669 0.77200001 9145740
0.034690477 0.0051666666 0.77500004 9014156
0.036260001 0.0051799999 0.77700001 8882572
0.03774 0.0051799999 0.77700001 8816520
0.039573334 0.005226667 0.78400004 8685189
0.041328572 0.00526 0.78900003 8619140
0.042940002 0.0052733333 0.79100001 8487812
0.04455905 0.0052866666 0.79300004 8421503
0.046301909 0.0053133336 0.79700005 8224634
0.047880001 0.0053200005 0.79800004 8092792
0.049647622 0.005346667 0.80200005 7895414
0.051430479 0.0053733336 0.80600005 7763830
0.053097144 0.0053866669 0.80800003 7368566
0.054636195 0.0053866669 0.80800003 7040124
0.056175239 0.0053866669 0.80800003 8027778
0.058000002 0.0054133334 0.81200004 9083527
0.059546668 0.0054133334 0.81200004 9279628
0.073393337 0.0050866669 0.76300001 13363167
0.07484667 0.0050866669 0.76300001 14213338
0.076299995 0.0050866669 0.76300001 13552598
0.077753328 0.0050866669 0.76300001 12963027
0.07899905 0.0050733336 0.76100004 12765648
0.080448568 0.0050733336 0.76100004 12566980
0.081898101 0.0050733336 0.76100004 11710904
0.083347626 0.0050733336 0.76100004 10858918
0.084797144 0.0050733336 0.76100004 10263957
0.086246669 0.0050733336 0.76100004 9673879
0.087696187 0.0050733336 0.76100004 9079962
0.089614294 0.0051000006 0.76500005 8555405
0.091071434 0.0051000006 0.76500005 8023936
0.092528574 0.0051000006 0.76500005 7564930
0.093985721 0.0051000006 0.76500005 8948869
0.095193334 0.0050866669 0.76300001 10330251
0.096393339 0.0050733336 0.76100004 10198162
0.097842865 0.0050733336 0.76100004 10132631
0.099292383 0.0050733336 0.76100004 10132892
-0.060942862 0.0069428575 0.81000006 10997475
-0.059253335 0.0069257147 0.80800003 13753571
-0.057571433 0.0069085718 0.80600005 13753315
-0.055897143 0.0068914285 0.80400002 13819349
-0.054230478 0.0068742861 0.80200005 12242631
-0.052571427 0.0068571432 0.80000001 10725038
-0.050920002 0.0068399999 0.79800004 8813717
-0.049338099 0.006831429 0.79700005 6982299
-0.047040001 0.0067199999 0.78400004 7573922
-0.045546666 0.0067199999 0.78400004 8230051
-0.044053335 0.0067199999 0.78400004 8496804
-0.042451434 0.0067028576 0.78200006 8754852
-0.040961906 0.0067028576 0.78200006 8491941
-0.039371427 0.0066857147 0.78000003 8295075
-0.037837148 0.0066771433 0.77900004 8163745
-0.036353335 0.0066771433 0.77900004 8032411
-0.034779999 0.00666 0.77700001 7507094
-0.033214286 0.0066428576 0.77500004 7046579
-0.031738095 0.0066428576 0.77500004 9677265
-0.030183813 0.0066257147 0.77300006 12376542
-0.028674286 0.0066171428 0.77200001 13164779
-0.027203809 0.0066171428 0.77200001 14016229
-0.025733333 0.0066171428 0.77200001 13884383
-0.024200002 0.0066000004 0.77000004 13752032
-0.022733334 0.0066000004 0.77000004 13950946
-0.021211429 0.0065828571 0.76800001 14147553
-0.019722857 0.0065742861 0.76700002 14081249
-0.018261906 0.0065742861 0.76700002 14015455
-0.016757144 0.0065571428 0.76500005 13818334
-0.0153 0.0065571428 0.76500005 13685978
-0.013806666 0.00654 0.76300001 13489366
-0.012353334 0.00654 0.76300001 13357524
-0.010899999 0.00654 0.76300001 13226451
-0.0094466675 0.00654 0.76300001 13160146
-0.0079723811 0.0065228576 0.76100004 13094610
-0.0065228576 0.0065228576 0.76100004 13029073
-0.0050866669 0.00654 0.76300001 13029073
-0.0036238097 0.0065228576 0.76100004 13094352
-0.0021742857 0.0065228576 0.76100004 13028814
-0.00072476192 0.0065228576 0.76100004 12963280
0.00072380959 0.0065142862 0.76000005 12963282
0.0021714286 0.0065142862 0.76000005 12962768
0.0036095236 0.0064971428 0.75800002 12831693
0.0050533335 0.0064971428 0.75800002 12700107
0.0064971428 0.0064971428 0.75800002 12634569
0.0079409527 0.0064971428 0.75800002 12568521
0.0093847616 0.0064971428 0.75800002 12568521
0.010828571 0.0064971428 0.75800002 12568264
0.012272381 0.0064971428 0.75800002 12305607
0.013716191 0.0064971428 0.75800002 12107971
0.01516 0.0064971428 0.75800002 11910335
0.01664762 0.0065142862 0.76000005 11713723
0.01809524 0.0065142862 0.76000005 11383735
0.019542858 0.0065142862 0.76000005 11056565
0.021018095 0.0065228576 0.76100004 10790579
0.022467621 0.0065228576 0.76100004 10527916
0.023980001 0.00654 0.76300001 10331045
0.025433334 0.00654 0.76300001 10199199
0.026886668 0.00654 0.76300001 10002072
0.028414287 0.0065571428 0.76500005 9805464
0.02987143 0.0065571428 0.76500005 9539993
0.03145143 0.0065828571 0.76800001 9277586
0.033 0.0066000004 0.77000004 9145996
0.034600955 0.0066257147 0.77300006 9014411
0.036260001 0.00666 0.77700001 8948362
0.037982859 0.0067028576 0.78200006 8882567
0.039674286 0.0067371433 0.78600001 8751236
0.041276194 0.0067542861 0.78800005 8619397
0.042940002 0.0067799999 0.79100001 8553350
0.04455905 0.0067971433 0.79300004 8487297
0.046301909 0.006831429 0.79700005 8290428
0.047880001 0.0068399999 0.79800004 8092792
0.049647622 0.0068742861 0.80200005 7895413
0.051430479 0.0069085718 0.80600005 7763569
0.053097144 0.0069257147 0.80800003 7304045
0.054636195 0.0069257147 0.80800003 6909302
0.05631429 0.0069428575 0.81000006 7698560
0.058000002 0.0069600004 0.81200004 8489860
0.059546668 0.0069600004 0.81200004 8820360
0.073393337 0.00654 0.76300001 13494497
0.07484667 0.00654 0.76300001 14212313
0.076299995 0.00654 0.76300001 13552593
0.077753328 0.00654 0.76300001 12896720
0.07899905 0.0065228576 0.76100004 12699599
0.080448568 0.0065228576 0.76100004 12501697
0.081898101 0.0065228576 0.76100004 11645363
0.083238102 0.0065142862 0.76000005 10792870
0.084797144 0.0065228576 0.76100004 10067864
0.086246669 0.0065228576 0.76100004 9411475
0.087696187 0.0065228576 0.76100004 9013390
0.089614294 0.0065571428 0.76500005 8685440
0.091071434 0.0065571428 0.76500005 8154739
0.092528574 0.0065571428 0.76500005 7630970
0.093985721 0.0065571428 0.76500005 8883329
0.095193334 0.00654 0.76300001 10197639
0.096393339 0.0065228576 0.76100004 10066317
0.097842865 0.0065228576 0.76100004 10000785
0.099292383 0.0065228576 0.76100004 10000789
-0.060792383 0.008464762 0.80800003 10931679
-0.05910667 0.00844381 0.80600005 13753570
-0.057428572 0.0084228572 0.80400002 13753317
-0.0557581 0.0084019052 0.80200005 13753303
-0.054095238 0.0083809523 0.80000001 12308682
-0.052571427 0.0083809523 0.80000001 10856879
-0.050856192 0.0083495239 0.79700005 8880532
-0.049214285 0.008328571 0.79500002 6916763
