# .PCD v0.7 - Point Cloud Data file format
VERSION 0.7
FIELDS x y z rgba
SIZE 4 4 4 4
TYPE F F F U
COUNT 1 1 1 1
WIDTH 1071
HEIGHT 1
VIEWPOINT 0 0 0 1 0 0 0
POINTS 1071
DATA ascii
-0.069262862 -0.033514287 0.78200006 12634062
-0.067773335 -0.033514287 0.78200006 12305358
-0.066283815 -0.033514287 0.78200006 11975099
-0.064794287 -0.033514287 0.78200006 11645352
-0.063466676 -0.033600003 0.78400004 11383213
-0.061973337 -0.033600003 0.78400004 11317939
-0.060634285 -0.033685714 0.78600001 11317937
-0.059137143 -0.033685714 0.78600001 11515312
-0.05778667 -0.033771429 0.78800005 11712432
-0.056285717 -0.033771429 0.78800005 10533297
-0.054784764 -0.033771429 0.78800005 9410173
-0.053283811 -0.033771429 0.78800005 5257033
-0.025899999 -0.033300001 0.77700001 5005425
-0.024357144 -0.033214286 0.77500004 7504535
-0.022792382 -0.033085715 0.77200001 9609918
-0.021211429 -0.032914288 0.76800001 11782866
-0.019722857 -0.032871429 0.76700002 12833766
-0.018119048 -0.032614287 0.76100004 13883617
-0.01664762 -0.032571428 0.76000005 13950429
-0.01516 -0.032485716 0.75800002 13950430
-0.01368 -0.032400001 0.75600004 13949919
-0.01222381 -0.032357145 0.75500005 13949662
-0.010757143 -0.03227143 0.75300002 13818333
-0.0093228575 -0.03227143 0.75300002 13621467
-0.0078780958 -0.03222857 0.75200003 13489626
-0.0064457143 -0.03222857 0.75200003 13358041
-0.0050133336 -0.03222857 0.75200003 13291737
-0.0035809525 -0.03222857 0.75200003 13225943
-0.0021485714 -0.03222857 0.75200003 13094614
-0.00071619049 -0.03222857 0.75200003 13028820
0.00071428576 -0.032142859 0.75000006 12963283
0.0021428573 -0.032142859 0.75000006 12963281
0.0035714288 -0.032142859 0.75000006 12897487
0.0050000004 -0.032142859 0.75000006 12831950
0.006411429 -0.032057144 0.74800003 12765901
0.007836191 -0.032057144 0.74800003 12699851
0.0092485715 -0.032014288 0.74700004 12634314
0.010642858 -0.031928573 0.74500006 12568267
0.012094286 -0.032014288 0.74700004 12568268
0.013480954 -0.031928573 0.74500006 12502994
0.014900001 -0.031928573 0.74500006 12701144
0.016362859 -0.032014288 0.74700004 12897739
0.017785715 -0.032014288 0.74700004 12501951
0.019234287 -0.032057144 0.74800003 12173250
0.020631431 -0.032014288 0.74700004 12107973
0.022054287 -0.032014288 0.74700004 12106948
0.023477143 -0.032014288 0.74700004 11975619
0.024900001 -0.032014288 0.74700004 11844288
0.026322858 -0.032014288 0.74700004 11779005
0.027745714 -0.032014288 0.74700004 11647412
0.029168572 -0.032014288 0.74700004 10987691
0.03059143 -0.032014288 0.74700004 10266029
0.032014288 -0.032014288 0.74700004 10528688
0.033481907 -0.032057144 0.74800003 10792368
0.034906667 -0.032057144 0.74800003 10925233
0.03633143 -0.032057144 0.74800003 11121330
0.03775619 -0.032057144 0.74800003 11055540
0.039285716 -0.032142859 0.75000006 11055280
0.04071429 -0.032142859 0.75000006 11055021
0.042255241 -0.03222857 0.75200003 10989488
0.043687619 -0.03222857 0.75200003 10594739
0.045120001 -0.03222857 0.75200003 10266019
0.046614286 -0.03227143 0.75300002 8686483
0.048048571 -0.03227143 0.75300002 7104386
0.049482856 -0.03227143 0.75300002 6778993
0.051052384 -0.032357145 0.75500005 6450798
0.05249048 -0.032357145 0.75500005 6582124
0.053928573 -0.032357145 0.75500005 6647914
0.055366673 -0.032357145 0.75500005 6648169
0.056804765 -0.032357145 0.75500005 6648426
0.058320004 -0.032400001 0.75600004 6582891
0.060313337 -0.032699998 0.76300001 6517099
0.061766669 -0.032699998 0.76300001 6451564
0.063385718 -0.032785717 0.76500005 6451306
0.064842865 -0.032785717 0.76500005 6517096
0.066300005 -0.032785717 0.76500005 6582896
0.067757145 -0.032785717 0.76500005 6516857
0.069485709 -0.032914288 0.76800001 6515572
0.071133338 -0.033 0.77000004 7307120
0.0726 -0.033 0.77000004 8096126
0.07425905 -0.033085715 0.77200001 8226189
0.075729519 -0.033085715 0.77200001 8356485
0.077200003 -0.033085715 0.77200001 8356222
0.078772388 -0.033128574 0.77300006 8355709
0.080452383 -0.033214286 0.77500004 8223868
0.081928574 -0.033214286 0.77500004 8091769
0.083835244 -0.033385713 0.77900004 7960183
0.085428573 -0.033428572 0.78000003 7828338
0.087137155 -0.033514287 0.78200006 7631470
0.088853337 -0.033600003 0.78400004 7499628
0.090807624 -0.033771429 0.78800005 7367786
0.092425719 -0.033814285 0.78900003 7235939
0.094166666 -0.0339 0.79100001 6907228
0.095915243 -0.033985715 0.79300004 6578560
0.097917147 -0.034157146 0.79700005 8882341
0.09943524 -0.034157146 0.79700005 11124661
0.10133334 -0.034285713 0.80000001 11584454
-0.080097146 -0.032188572 0.78600001 5924016
-0.078400008 -0.032106668 0.78400004 11652565
-0.076906674 -0.032106668 0.78400004 13301753
-0.075413339 -0.032106668 0.78400004 15003372
-0.073920004 -0.032106668 0.78400004 14014943
-0.072426669 -0.032106668 0.78400004 13095381
-0.07075239 -0.032024764 0.78200006 12830923
-0.069262862 -0.032024764 0.78200006 12634314
-0.067773335 -0.032024764 0.78200006 12238537
-0.066283815 -0.032024764 0.78200006 11844541
-0.064794287 -0.032024764 0.78200006 11579825
-0.063466676 -0.032106668 0.78400004 11317682
-0.061973337 -0.032106668 0.78400004 11317940
-0.060480002 -0.032106668 0.78400004 11317940
-0.059137143 -0.032188572 0.78600001 11580852
-0.057639997 -0.032188572 0.78600001 11842725
-0.056142855 -0.032188572 0.78600001 9942167
-0.054645717 -0.032188572 0.78600001 8021351
-0.025899999 -0.031819999 0.77700001 4676202
-0.024294289 -0.031656191 0.77300006 7110034
-0.022733334 -0.031533334 0.77000004 9280699
-0.021211429 -0.03145143 0.76800001 11520208
-0.019671429 -0.03132857 0.76500005 12702437
-0.01809524 -0.03112381 0.76000005 13949921
-0.01664762 -0.03112381 0.76000005 13950686
-0.01516 -0.031041905 0.75800002 14015967
-0.01368 -0.030960003 0.75600004 13950176
-0.01222381 -0.030919051 0.75500005 13884127
-0.010757143 -0.030837145 0.75300002 13752798
-0.0093228575 -0.030837145 0.75300002 13621212
-0.0078780958 -0.030796193 0.75200003 13489882
-0.0064457143 -0.030796193 0.75200003 13357784
-0.0050133336 -0.030796193 0.75200003 13291735
-0.0035714288 -0.030714288 0.75000006 13225942
-0.0021428573 -0.030714288 0.75000006 13160149
-0.00071428576 -0.030714288 0.75000006 13094611
0.00071428576 -0.030714288 0.75000006 13029074
0.0021428573 -0.030714288 0.75000006 12963280
0.0035714288 -0.030714288 0.75000006 12897486
0.0050000004 -0.030714288 0.75000006 12897487
0.006411429 -0.030632382 0.74800003 12765904
0.007836191 -0.030632382 0.74800003 12699854
0.0092485715 -0.03059143 0.74700004 12634316
0.010642858 -0.030509528 0.74500006 12633801
0.012061905 -0.030509528 0.74500006 12567749
0.013480954 -0.030509528 0.74500006 12502732
0.014900001 -0.030509528 0.74500006 12635604
0.01631905 -0.030509528 0.74500006 12766668
0.017785715 -0.03059143 0.74700004 12501700
0.019208571 -0.03059143 0.74700004 12239044
0.020631431 -0.03059143 0.74700004 12173252
0.022054287 -0.03059143 0.74700004 12107202
0.023477143 -0.03059143 0.74700004 11975361
0.024900001 -0.03059143 0.74700004 11844286
0.026322858 -0.03059143 0.74700004 11713468
0.027745714 -0.03059143 0.74700004 11581360
0.029168572 -0.03059143 0.74700004 10789029
0.03059143 -0.03059143 0.74700004 10069163
0.032014288 -0.03059143 0.74700004 10529457
0.033481907 -0.030632382 0.74800003 10990258
0.034906667 -0.030632382 0.74800003 11056562
0.03633143 -0.030632382 0.74800003 11187122
0.03775619 -0.030632382 0.74800003 11121330
0.039285716 -0.030714288 0.75000006 11121073
0.04071429 -0.030714288 0.75000006 11121072
0.042255241 -0.030796193 0.75200003 11120051
0.043687619 -0.030796193 0.75200003 10463157
0.045120001 -0.030796193 0.75200003 9802649
0.046614286 -0.030837145 0.75300002 7895420
0.048048571 -0.030837145 0.75300002 5991286
0.049482856 -0.030837145 0.75300002 6320240
0.051052384 -0.030919051 0.75500005 6713710
0.05249048 -0.030919051 0.75500005 6648684
0.053928573 -0.030919051 0.75500005 6648426
0.055366673 -0.030919051 0.75500005 6648169
0.056804765 -0.030919051 0.75500005 6713962
0.058320004 -0.030960003 0.75600004 6648428
0.059760004 -0.030960003 0.75600004 6582891
0.061523814 -0.03112381 0.76000005 6451819
0.062971428 -0.03112381 0.76000005 6386027
0.064673327 -0.031246668 0.76300001 6517099
0.066126667 -0.031246668 0.76300001 6648178
0.067757145 -0.03132857 0.76500005 6516858
0.069395244 -0.031410474 0.76700002 6385782
0.071133338 -0.031533334 0.77000004 7439731
0.0726 -0.031533334 0.77000004 8489084
0.074066669 -0.031533334 0.77000004 8487813
0.075533338 -0.031533334 0.77000004 8487808
0.077200003 -0.031615239 0.77200001 8421500
0.078772388 -0.031656191 0.77300006 8421242
0.080452383 -0.031738095 0.77500004 8289401
0.082139999 -0.031819999 0.77700001 8157304
0.08394286 -0.031942859 0.78000003 8025463
0.085428573 -0.031942859 0.78000003 7894128
0.087137155 -0.032024764 0.78200006 7697002
0.088853337 -0.032106668 0.78400004 7499625
0.090807624 -0.03227048 0.78800005 7367271
0.092425719 -0.032311428 0.78900003 7235680
0.093928576 -0.032311428 0.78900003 6971737
0.09567333 -0.032393333 0.79100001 6711164
0.097671427 -0.032557145 0.79500002 9016479
0.09918572 -0.032557145 0.79500002 11320756
-0.081594288 -0.03069143 0.78600001 196968
-0.080097146 -0.03069143 0.78600001 6123954
-0.078400008 -0.030613335 0.78400004 12046803
-0.076906674 -0.030613335 0.78400004 13498101
-0.075413339 -0.030613335 0.78400004 15002859
-0.073920004 -0.030613335 0.78400004 14014946
-0.07224191 -0.030535242 0.78200006 13029332
-0.07075239 -0.030535242 0.78200006 12764871
-0.069262862 -0.030535242 0.78200006 12569029
-0.067773335 -0.030535242 0.78200006 12173508
-0.066283815 -0.030535242 0.78200006 11779519
-0.064794287 -0.030535242 0.78200006 11514554
-0.063466676 -0.030613335 0.78400004 11252407
-0.061973337 -0.030613335 0.78400004 11252405
-0.060480002 -0.030613335 0.78400004 11252406
-0.058986671 -0.030613335 0.78400004 11515576
-0.057639997 -0.03069143 0.78600001 11780762
-0.056142855 -0.03069143 0.78600001 9085565
-0.054645717 -0.03069143 0.78600001 6370642
-0.024357144 -0.030261906 0.77500004 6977934
-0.022733334 -0.030066667 0.77000004 9214649
-0.021266669 -0.030066667 0.77000004 11454158
-0.019619999 -0.029793333 0.76300001 12703204
-0.01804762 -0.029598096 0.75800002 14016482
-0.01664762 -0.029676192 0.76000005 14016224
-0.015120002 -0.029520001 0.75600004 14016224
-0.01368 -0.029520001 0.75600004 13950177
-0.01222381 -0.029480955 0.75500005 13884384
-0.010757143 -0.029402858 0.75300002 13752799
-0.0093104765 -0.029363809 0.75200003 13555164
-0.0078780958 -0.029363809 0.75200003 13423834
-0.0064457143 -0.029363809 0.75200003 13292248
-0.0050133336 -0.029363809 0.75200003 13226198
-0.0035714288 -0.029285716 0.75000006 13226197
-0.0021428573 -0.029285716 0.75000006 13094868
-0.00071428576 -0.029285716 0.75000006 13029331
0.00071428576 -0.029285716 0.75000006 13028818
0.0021428573 -0.029285716 0.75000006 12963280
0.0035714288 -0.029285716 0.75000006 12897486
0.0050000004 -0.029285716 0.75000006 12897488
0.006411429 -0.029207621 0.74800003 12765907
0.007836191 -0.029207621 0.74800003 12700113
0.0092485715 -0.029168572 0.74700004 12634063
0.010642858 -0.029090477 0.74500006 12633799
0.012061905 -0.029090477 0.74500006 12502463
0.013480954 -0.029090477 0.74500006 12436935
0.014900001 -0.029090477 0.74500006 12636112
0.01631905 -0.029090477 0.74500006 12766925
0.017738096 -0.029090477 0.74500006 12501962
0.019208571 -0.029168572 0.74700004 12305094
0.020631431 -0.029168572 0.74700004 12173507
0.022054287 -0.029168572 0.74700004 12107713
0.023477143 -0.029168572 0.74700004 11976384
0.024900001 -0.029168572 0.74700004 11845309
0.026322858 -0.029168572 0.74700004 11582139
0.027745714 -0.029168572 0.74700004 11318957
0.029168572 -0.029168572 0.74700004 10921120
0.03059143 -0.029168572 0.74700004 10527657
0.032014288 -0.029168572 0.74700004 10858419
0.033481907 -0.029207621 0.74800003 11188147
0.034906667 -0.029207621 0.74800003 11187892
0.03633143 -0.029207621 0.74800003 11253426
0.03775619 -0.029207621 0.74800003 11187121
0.039180957 -0.029207621 0.74800003 11055794
0.04071429 -0.029285716 0.75000006 11121332
0.042142861 -0.029285716 0.75000006 11119542
0.043687619 -0.029363809 0.75200003 9607608
0.045120001 -0.029363809 0.75200003 8094095
0.046614286 -0.029402858 0.75300002 7238758
0.048048571 -0.029402858 0.75300002 6385514
0.049614292 -0.029480955 0.75500005 6582895
0.051052384 -0.029480955 0.75500005 6780269
0.05249048 -0.029480955 0.75500005 6714476
0.053928573 -0.029480955 0.75500005 6714474
0.055366673 -0.029480955 0.75500005 6648681
0.056804765 -0.029480955 0.75500005 6648683
0.058320004 -0.029520001 0.75600004 6583149
0.059760004 -0.029520001 0.75600004 6517612
0.061361905 -0.029598096 0.75800002 6386795
0.062805712 -0.029598096 0.75800002 6321516
0.064503811 -0.02971524 0.76100004 6452334
0.065953337 -0.02971524 0.76100004 6583157
0.06758 -0.029793333 0.76300001 6583164
0.069214284 -0.02987143 0.76500005 6583929
0.070948571 -0.029988572 0.76800001 7637366
0.072411425 -0.029988572 0.76800001 8685690
0.074066669 -0.030066667 0.77000004 8619134
0.075533338 -0.030066667 0.77000004 8553596
0.077000007 -0.030066667 0.77000004 8487290
0.078772388 -0.030183813 0.77300006 8355960
0.080452383 -0.030261906 0.77500004 8224119
0.082139999 -0.030339999 0.77700001 8092023
0.083835244 -0.030418096 0.77900004 7960183
0.085428573 -0.030457145 0.78000003 7828847
0.087137155 -0.030535242 0.78200006 7631463
0.088853337 -0.030613335 0.78400004 7434086
0.090577148 -0.03069143 0.78600001 7367269
0.092425719 -0.030808574 0.78900003 7235422
0.093928576 -0.030808574 0.78900003 7037527
0.095915243 -0.030964762 0.79300004 6844024
0.097917147 -0.031120954 0.79700005 9148314
0.09943524 -0.031120954 0.79700005 11451571
-0.081594288 -0.029194286 0.78600001 263021
-0.079893336 -0.029120002 0.78400004 6323897
-0.078400008 -0.029120002 0.78400004 12442327
-0.076906674 -0.029120002 0.78400004 13694710
-0.075413339 -0.029120002 0.78400004 15001576
-0.073920004 -0.029120002 0.78400004 13949658
-0.07224191 -0.029045716 0.78200006 12963282
-0.07075239 -0.029045716 0.78200006 12764618
-0.069262862 -0.029045716 0.78200006 12569030
-0.067773335 -0.029045716 0.78200006 12174018
-0.066283815 -0.029045716 0.78200006 11778238
-0.064794287 -0.029045716 0.78200006 11515067
-0.063466676 -0.029120002 0.78400004 11252408
-0.061973337 -0.029120002 0.78400004 11186613
-0.060480002 -0.029120002 0.78400004 11186870
-0.058986671 -0.029120002 0.78400004 11450295
-0.057493336 -0.029120002 0.78400004 11778968
-0.056000002 -0.029120002 0.78400004 8294520
-0.024357144 -0.028785717 0.77500004 6912398
-0.022733334 -0.0286 0.77000004 9148852
-0.021183809 -0.028488571 0.76700002 11387852
-0.019619999 -0.028339999 0.76300001 12769765
-0.018119048 -0.028265715 0.76100004 14147043
-0.01664762 -0.028228572 0.76000005 14082017
-0.01516 -0.028154286 0.75800002 14081761
-0.01368 -0.028080001 0.75600004 14015970
-0.01222381 -0.028042858 0.75500005 13949664
-0.010757143 -0.027968572 0.75300002 13752799
-0.0093228575 -0.027968572 0.75300002 13555164
-0.0078780958 -0.027931429 0.75200003 13423578
-0.0064457143 -0.027931429 0.75200003 13291992
-0.0050133336 -0.027931429 0.75200003 13226455
-0.0035714288 -0.027857145 0.75000006 13226197
-0.0021428573 -0.027857145 0.75000006 13095380
-0.00071428576 -0.027857145 0.75000006 13029074
0.00071428576 -0.027857145 0.75000006 13028817
0.0021428573 -0.027857145 0.75000006 13028815
0.0035619049 -0.027782857 0.74800003 12963278
0.0050000004 -0.027857145 0.75000006 12897231
0.006411429 -0.027782857 0.74800003 12765905
0.007836191 -0.027782857 0.74800003 12699856
0.0092485715 -0.027745714 0.74700004 12634063
0.010671429 -0.027745714 0.74700004 12633545
0.012061905 -0.02767143 0.74500006 12502467
0.013480954 -0.02767143 0.74500006 12436941
0.014900001 -0.02767143 0.74500006 12636888
0.01631905 -0.02767143 0.74500006 12832721
0.017738096 -0.02767143 0.74500006 12567753
0.019208571 -0.027745714 0.74700004 12370374
0.020631431 -0.027745714 0.74700004 12239300
0.022054287 -0.027745714 0.74700004 12107713
0.023414288 -0.02767143 0.74500006 11976383
0.024900001 -0.027745714 0.74700004 11910588
0.026322858 -0.027745714 0.74700004 11516601
0.027745714 -0.027745714 0.74700004 11120561
0.029168572 -0.027745714 0.74700004 11053482
0.03059143 -0.027745714 0.74700004 10989487
0.032014288 -0.027745714 0.74700004 11187636
0.033437144 -0.027745714 0.74700004 11384500
0.034906667 -0.027782857 0.74800003 11384501
0.03633143 -0.027782857 0.74800003 11384498
0.03775619 -0.027782857 0.74800003 11187376
0.039285716 -0.027857145 0.75000006 11056307
0.04071429 -0.027857145 0.75000006 11121847
0.042142861 -0.027857145 0.75000006 11183527
0.043687619 -0.027931429 0.75200003 8817815
0.045120001 -0.027931429 0.75200003 6453123
0.046614286 -0.027968572 0.75300002 6582128
0.048048571 -0.027968572 0.75300002 6779245
0.049614292 -0.028042858 0.75500005 6780266
0.051052384 -0.028042858 0.75500005 6845803
0.05249048 -0.028042858 0.75500005 6780012
0.053928573 -0.028042858 0.75500005 6780012
0.055366673 -0.028042858 0.75500005 6714476
0.056654289 -0.027968572 0.75300002 6648685
0.058242857 -0.028042858 0.75500005 6516846
0.059680957 -0.028042858 0.75500005 6452077
0.0612 -0.028080001 0.75600004 6321516
0.062640004 -0.028080001 0.75600004 6255982
0.064249523 -0.028154286 0.75800002 6386800
0.065866672 -0.028228572 0.76000005 6583159
0.067402862 -0.028265715 0.76100004 6714237
0.069033332 -0.028339999 0.76300001 6846586
0.070856191 -0.028488571 0.76700002 7834999
0.072411425 -0.028525714 0.76800001 8882299
0.074066669 -0.0286 0.77000004 8750720
0.075533338 -0.0286 0.77000004 8684413
0.077000007 -0.0286 0.77000004 8487802
0.078772388 -0.028711431 0.77300006 8355960
0.080244765 -0.028711431 0.77300006 8224374
0.082139999 -0.028859999 0.77700001 8092021
0.083835244 -0.028934287 0.77900004 7895156
0.085428573 -0.02897143 0.78000003 7763309
0.087137155 -0.029045716 0.78200006 7565927
0.088853337 -0.029120002 0.78400004 7434083
0.090577148 -0.029194286 0.78600001 7367519
0.092308573 -0.029268574 0.78800005 7300443
0.093928576 -0.029305715 0.78900003 7168856
0.09567333 -0.029380001 0.79100001 7041913
0.097671427 -0.029528571 0.79500002 9345947
0.09956 -0.029640002 0.79800004 11648176
0.10133334 -0.029714286 0.80000001 11648709
0.10285714 -0.029714286 0.80000001 11712950
-0.081594288 -0.027697144 0.78600001 329074
-0.079893336 -0.027626667 0.78400004 6654401
-0.078400008 -0.027626667 0.78400004 12903644
-0.076906674 -0.027626667 0.78400004 13823223
-0.075413339 -0.027626667 0.78400004 14803940
-0.073920004 -0.027626667 0.78400004 13817810
-0.07224191 -0.027556192 0.78200006 12897231
-0.07075239 -0.027556192 0.78200006 12831437
-0.069262862 -0.027556192 0.78200006 12700359
-0.067773335 -0.027556192 0.78200006 12108225
-0.066283815 -0.027556192 0.78200006 11580606
-0.064794287 -0.027556192 0.78200006 11383740
-0.063466676 -0.027626667 0.78400004 11252408
-0.061973337 -0.027626667 0.78400004 11186869
-0.060480002 -0.027626667 0.78400004 11056054
-0.058986671 -0.027626667 0.78400004 11318711
-0.057639997 -0.027697144 0.78600001 11580565
-0.056142855 -0.027697144 0.78600001 7633012
-0.022674287 -0.027062858 0.76800001 9082544
-0.021183809 -0.02702762 0.76700002 11256011
-0.019671429 -0.026957145 0.76500005 12703974
-0.018119048 -0.026816191 0.76100004 14080996
-0.01664762 -0.026780955 0.76000005 14080994
-0.01516 -0.026710477 0.75800002 14080994
-0.01368 -0.026640002 0.75600004 13949667
-0.01222381 -0.026604762 0.75500005 13884129
-0.010757143 -0.026534285 0.75300002 13752543
-0.0093104765 -0.026499048 0.75200003 13555165
-0.0078780958 -0.026499048 0.75200003 13423579
-0.0064457143 -0.026499048 0.75200003 13291737
-0.0050133336 -0.026499048 0.75200003 13226200
-0.0035714288 -0.026428573 0.75000006 13226198
-0.0021428573 -0.026428573 0.75000006 13094869
-0.00071428576 -0.026428573 0.75000006 13029074
0.00071428576 -0.026428573 0.75000006 12963280
0.0021428573 -0.026428573 0.75000006 12963279
0.0035619049 -0.026358096 0.74800003 12897231
0.0050000004 -0.026428573 0.75000006 12831183
0.006411429 -0.026358096 0.74800003 12765391
0.007836191 -0.026358096 0.74800003 12699599
0.0092485715 -0.026322858 0.74700004 12633807
0.010642858 -0.026252383 0.74500006 12633547
0.012061905 -0.026252383 0.74500006 12502471
0.013480954 -0.026252383 0.74500006 12437204
0.01486 -0.026181906 0.74300003 12701665
0.01631905 -0.026252383 0.74500006 13029845
0.017738096 -0.026252383 0.74500006 12698825
0.019157145 -0.026252383 0.74500006 12370375
0.020576192 -0.026252383 0.74500006 12173765
0.021995239 -0.026252383 0.74500006 12042434
0.023414288 -0.026252383 0.74500006 11910847
0.024900001 -0.026322858 0.74700004 11779259
0.026322858 -0.026322858 0.74700004 11252663
0.027745714 -0.026322858 0.74700004 10725557
0.029168572 -0.026322858 0.74700004 10922932
0.03059143 -0.026322858 0.74700004 11186612
0.032014288 -0.026322858 0.74700004 11318965
0.033437144 -0.026322858 0.74700004 11450037
0.034906667 -0.026358096 0.74800003 11450038
0.036282856 -0.026322858 0.74700004 11384499
0.03775619 -0.026358096 0.74800003 11318960
0.039180957 -0.026358096 0.74800003 11253685
0.04071429 -0.026428573 0.75000006 10728378
0.042255241 -0.026499048 0.75200003 10199192
0.043687619 -0.026499048 0.75200003 8290934
0.045120001 -0.026499048 0.75200003 6385016
0.046614286 -0.026534285 0.75300002 6582650
0.048048571 -0.026534285 0.75300002 6845552
0.049614292 -0.026604762 0.75500005 6845798
0.051052384 -0.026604762 0.75500005 6845801
0.05249048 -0.026604762 0.75500005 6780269
0.053928573 -0.026604762 0.75500005 6780270
0.055366673 -0.026604762 0.75500005 6714480
0.056654289 -0.026534285 0.75300002 6648688
0.058242857 -0.026604762 0.75500005 6583152
0.059680957 -0.026604762 0.75500005 6517615
0.0612 -0.026640002 0.75600004 6387054
0.062640004 -0.026640002 0.75600004 6321520
0.064249523 -0.026710477 0.75800002 6452083
0.065693334 -0.026710477 0.75800002 6649721
0.067402862 -0.026816191 0.76100004 6912127
0.069033332 -0.026886668 0.76300001 7240315
0.070671432 -0.026957145 0.76500005 7965560
0.072317138 -0.02702762 0.76700002 8685949
0.073874287 -0.027062858 0.76800001 8684930
0.075337149 -0.027062858 0.76800001 8749950
0.076799996 -0.027062858 0.76800001 8487547
0.078670479 -0.027203809 0.77200001 8290424
0.080244765 -0.027239049 0.77300006 8158582
0.082351431 -0.027450478 0.77900004 8092275
0.083835244 -0.027450478 0.77900004 7894897
0.085428573 -0.027485715 0.78000003 7763308
0.087137155 -0.027556192 0.78200006 7565927
0.088853337 -0.027626667 0.78400004 7434080
0.090346672 -0.027626667 0.78400004 7301978
0.092308573 -0.027767621 0.78800005 7169113
0.093928576 -0.027802859 0.78900003 7168601
0.095431432 -0.027802859 0.78900003 7174266
0.097917147 -0.028084764 0.79700005 9346972
0.09956 -0.02812 0.79800004 11582636
0.10133334 -0.028190477 0.80000001 11517373
0.10285714 -0.028190477 0.80000001 11515826
-0.081801906 -0.026266668 0.78800005 459633
-0.079893336 -0.026133334 0.78400004 6919361
-0.078400008 -0.026133334 0.78400004 13429210
-0.076906674 -0.026133334 0.78400004 14022132
-0.075220957 -0.026066668 0.78200006 14606822
-0.073731437 -0.026066668 0.78200006 13751512
-0.07224191 -0.026066668 0.78200006 12897233
-0.07075239 -0.026066668 0.78200006 12896971
-0.069262862 -0.026066668 0.78200006 12896968
-0.067773335 -0.026066668 0.78200006 12107974
-0.066283815 -0.026066668 0.78200006 11383487
-0.064794287 -0.026066668 0.78200006 11317688
-0.063466676 -0.026133334 0.78400004 11317942
-0.061973337 -0.026133334 0.78400004 11121332
-0.060480002 -0.026133334 0.78400004 10990772
-0.059137143 -0.0262 0.78600001 11188405
-0.057639997 -0.0262 0.78600001 11447689
-0.056142855 -0.0262 0.78600001 7037021
-0.022674287 -0.025600001 0.76800001 9082030
-0.021211429 -0.025600001 0.76800001 11190216
-0.019671429 -0.025500001 0.76500005 12638433
-0.018166667 -0.025433334 0.76300001 14080227
-0.01664762 -0.025333336 0.76000005 14081765
-0.01516 -0.025266668 0.75800002 14081252
-0.01368 -0.0252 0.75600004 13949667
-0.01222381 -0.025166668 0.75500005 13884129
-0.010757143 -0.0251 0.75300002 13752543
-0.0093104765 -0.025066668 0.75200003 13620700
-0.0078780958 -0.025066668 0.75200003 13489114
-0.0064457143 -0.025066668 0.75200003 13357528
-0.0050000004 -0.025000002 0.75000006 13291735
-0.0035714288 -0.025000002 0.75000006 13225942
-0.0021428573 -0.025000002 0.75000006 13094613
-0.00071428576 -0.025000002 0.75000006 13029075
0.00071428576 -0.025000002 0.75000006 12963537
0.0021428573 -0.025000002 0.75000006 12963024
0.0035619049 -0.024933333 0.74800003 12896976
0.0050000004 -0.025000002 0.75000006 12831183
0.006411429 -0.024933333 0.74800003 12765391
0.007836191 -0.024933333 0.74800003 12699598
0.0092485715 -0.024900001 0.74700004 12633806
0.010671429 -0.024900001 0.74700004 12633546
0.012061905 -0.024833336 0.74500006 12567494
0.013444763 -0.024766667 0.74300003 12502480
0.01486 -0.024766667 0.74300003 12832218
0.016275238 -0.024766667 0.74300003 13226451
0.017738096 -0.024833336 0.74500006 12764364
0.019157145 -0.024833336 0.74500006 12370633
0.020576192 -0.024833336 0.74500006 12174023
0.021995239 -0.024833336 0.74500006 12042436
0.023414288 -0.024833336 0.74500006 11845570
0.024833336 -0.024833336 0.74500006 11648443
0.026322858 -0.024900001 0.74700004 10988724
0.027745714 -0.024900001 0.74700004 10398903
0.029168572 -0.024900001 0.74700004 10857914
0.03059143 -0.024900001 0.74700004 11384507
0.032014288 -0.024900001 0.74700004 11450556
0.033437144 -0.024900001 0.74700004 11581370
0.034906667 -0.024933333 0.74800003 11515832
0.03633143 -0.024933333 0.74800003 11450038
0.03775619 -0.024933333 0.74800003 11450036
0.039180957 -0.024933333 0.74800003 11450032
0.04071429 -0.025000002 0.75000006 10335149
0.042255241 -0.025066668 0.75200003 9210510
0.043687619 -0.025066668 0.75200003 7764079
0.045120001 -0.025066668 0.75200003 6387059
0.046614286 -0.0251 0.75300002 6648695
0.048048571 -0.0251 0.75300002 6911088
0.049614292 -0.025166668 0.75500005 6845801
0.050917145 -0.0251 0.75300002 6845804
0.05249048 -0.025166668 0.75500005 6845806
0.053785715 -0.0251 0.75300002 6845809
0.05522 -0.0251 0.75300002 6780019
0.056654289 -0.0251 0.75300002 6714226
0.058242857 -0.025166668 0.75500005 6648432
0.059680957 -0.025166668 0.75500005 6583152
0.0612 -0.0252 0.75600004 6518384
0.062640004 -0.0252 0.75600004 6452339
0.064249523 -0.025266668 0.75800002 6583159
0.065693334 -0.025266668 0.75800002 6714491
0.06731429 -0.025333336 0.76000005 7175296
0.068852387 -0.025366668 0.76100004 7700610
0.070486665 -0.025433334 0.76300001 8096388
0.072317138 -0.025566667 0.76700002 8489347
0.073874287 -0.025600001 0.76800001 8619395
0.075337149 -0.025600001 0.76800001 8815488
0.076799996 -0.025600001 0.76800001 8552830
0.078670479 -0.025733333 0.77200001 8290170
0.080244765 -0.025766669 0.77300006 8158583
0.082351431 -0.025966669 0.77900004 8092020
0.083835244 -0.025966669 0.77900004 7894897
0.085428573 -0.026000001 0.78000003 7763053
0.087137155 -0.026066668 0.78200006 7565929
0.088853337 -0.026133334 0.78400004 7434084
0.090346672 -0.026133334 0.78400004 7236447
0.092308573 -0.026266668 0.78800005 7037793
0.093928576 -0.026300002 0.78900003 7168355
0.095310479 -0.026266668 0.78800005 7306623
0.09804 -0.026600001 0.79800004 9413787
0.099809527 -0.026666667 0.80000001 11515305
0.10133334 -0.026666667 0.80000001 11451575
0.10285714 -0.026666667 0.80000001 11384494
-0.081905723 -0.024797143 0.78900003 262513
-0.079893336 -0.024640001 0.78400004 6985409
-0.078400008 -0.024640001 0.78400004 13758425
-0.076906674 -0.024640001 0.78400004 14088433
-0.075220957 -0.024577145 0.78200006 14409959
-0.073731437 -0.024577145 0.78200006 13685470
-0.07224191 -0.024577145 0.78200006 12962771
-0.07075239 -0.024577145 0.78200006 12896969
-0.069262862 -0.024577145 0.78200006 12896970
-0.067773335 -0.024577145 0.78200006 12106955
-0.066283815 -0.024577145 0.78200006 11383231
-0.064960003 -0.024640001 0.78400004 11317940
-0.063466676 -0.024640001 0.78400004 11252659
-0.061973337 -0.024640001 0.78400004 11252403
-0.060480002 -0.024640001 0.78400004 11187635
-0.059137143 -0.024702856 0.78600001 10795700
-0.05778667 -0.024765715 0.78800005 10462845
-0.056357145 -0.024797143 0.78900003 6246983
-0.054854289 -0.024797143 0.78900003 2031947
-0.022733334 -0.024200002 0.77000004 9015725
-0.021128573 -0.024042858 0.76500005 10993349
-0.019671429 -0.024042858 0.76500005 12571869
-0.018119048 -0.023917144 0.76100004 14079715
-0.01664762 -0.023885716 0.76000005 14147817
-0.01516 -0.023822857 0.75800002 14212582
-0.013661906 -0.023728572 0.75500005 14080739
-0.01222381 -0.023728572 0.75500005 13884129
-0.010757143 -0.023665715 0.75300002 13752543
-0.0093104765 -0.023634287 0.75200003 13620956
-0.0078780958 -0.023634287 0.75200003 13489114
-0.0064457143 -0.023634287 0.75200003 13358040
-0.0050000004 -0.02357143 0.75000006 13291990
-0.0035714288 -0.02357143 0.75000006 13225941
-0.0021428573 -0.02357143 0.75000006 13160149
-0.00071428576 -0.02357143 0.75000006 13029076
0.00071428576 -0.02357143 0.75000006 13029075
0.0021428573 -0.02357143 0.75000006 13028562
0.0035619049 -0.023508571 0.74800003 12962769
0.0049866666 -0.023508571 0.74800003 12897232
0.006411429 -0.023508571 0.74800003 12765647
0.007836191 -0.023508571 0.74800003 12699854
0.0092485715 -0.023477143 0.74700004 12699341
0.010642858 -0.023414288 0.74500006 12699337
0.012061905 -0.023414288 0.74500006 12633541
0.013480954 -0.023414288 0.74500006 12568012
0.01486 -0.023351429 0.74300003 12831956
0.01631905 -0.023414288 0.74500006 13095378
0.017738096 -0.023414288 0.74500006 12764880
0.019157145 -0.023414288 0.74500006 12370892
0.020576192 -0.023414288 0.74500006 12174025
0.021995239 -0.023414288 0.74500006 12042695
0.023414288 -0.023414288 0.74500006 11780037
0.024833336 -0.023414288 0.74500006 11517627
0.026252383 -0.023414288 0.74500006 11053489
0.02767143 -0.023414288 0.74500006 10593720
0.029090477 -0.023414288 0.74500006 11055552
0.03059143 -0.023477143 0.74700004 11451330
0.032014288 -0.023477143 0.74700004 11516100
0.033437144 -0.023477143 0.74700004 11581375
0.034906667 -0.023508571 0.74800003 11515579
0.036282856 -0.023477143 0.74700004 11450041
0.03775619 -0.023508571 0.74800003 11450040
0.039180957 -0.023508571 0.74800003 11384492
0.040605716 -0.023508571 0.74800003 9610145
0.042142861 -0.02357143 0.75000006 7894404
0.043687619 -0.023634287 0.75200003 7304808
0.045120001 -0.023634287 0.75200003 6714990
0.046552382 -0.023634287 0.75200003 6780532
0.047984764 -0.023634287 0.75200003 6911600
0.049482856 -0.023665715 0.75300002 6846061
0.050917145 -0.023665715 0.75300002 6846318
0.05235143 -0.023665715 0.75300002 6845808
0.053785715 -0.023665715 0.75300002 6845811
0.05522 -0.023665715 0.75300002 6780023
0.056654289 -0.023665715 0.75300002 6714228
0.058242857 -0.023728572 0.75500005 6648689
0.059680957 -0.023728572 0.75500005 6583154
0.0612 -0.023760002 0.75600004 6451571
0.062640004 -0.023760002 0.75600004 6385783
0.064249523 -0.023822857 0.75800002 6516859
0.065693334 -0.023822857 0.75800002 6713726
0.06731429 -0.023885716 0.76000005 7241089
0.068852387 -0.023917144 0.76100004 7833224
0.070486665 -0.023980001 0.76300001 8161936
0.072128579 -0.024042858 0.76500005 8489610
0.0737781 -0.024105715 0.76700002 8619396
0.075239047 -0.024105715 0.76700002 8684419
0.076799996 -0.024137143 0.76800001 8487042
0.078670479 -0.024262857 0.77200001 8224381
0.080244765 -0.024294289 0.77300006 8158328
0.082139999 -0.024420001 0.77700001 8026485
0.083835244 -0.024482857 0.77900004 7894898
0.085428573 -0.024514288 0.78000003 7697519
0.087360002 -0.024640001 0.78400004 7500396
0.088853337 -0.024640001 0.78400004 7368552
0.090346672 -0.024640001 0.78400004 6973797
0.092308573 -0.024765715 0.78800005 6644585
0.09380953 -0.024765715 0.78800005 7170414
0.095431432 -0.024797143 0.78900003 7766916
0.09804 -0.025080001 0.79800004 9609627
0.099809527 -0.025142856 0.80000001 11382438
0.10158667 -0.025205715 0.80200005 11385265
0.10311429 -0.025205715 0.80200005 11384490
-0.079893336 -0.023146667 0.78400004 7051463
-0.078200005 -0.023087621 0.78200006 14087134
-0.076710477 -0.023087621 0.78200006 14154741
-0.075220957 -0.023087621 0.78200006 14277607
-0.073731437 -0.023087621 0.78200006 13619417
-0.07224191 -0.023087621 0.78200006 13028564
-0.07075239 -0.023087621 0.78200006 12962768
-0.069262862 -0.023087621 0.78200006 12897225
-0.067773335 -0.023087621 0.78200006 12106179
-0.066283815 -0.023087621 0.78200006 11383485
-0.064794287 -0.023087621 0.78200006 11318199
-0.063466676 -0.023146667 0.78400004 11252406
-0.061973337 -0.023146667 0.78400004 11317941
-0.060480002 -0.023146667 0.78400004 11450283
-0.058986671 -0.023146667 0.78400004 10468769
-0.057639997 -0.023205714 0.78600001 9474921
-0.056142855 -0.023205714 0.78600001 5456945
-0.054645717 -0.023205714 0.78600001 1456703
-0.022674287 -0.022674287 0.76800001 9015212
-0.021128573 -0.022585716 0.76500005 10861509
-0.019619999 -0.022526667 0.76300001 12505565
-0.018119048 -0.022467621 0.76100004 14146532
-0.01664762 -0.022438096 0.76000005 14279402
-0.01516 -0.022379048 0.75800002 14409190
-0.01368 -0.02232 0.75600004 14146531
-0.01222381 -0.022290478 0.75500005 13949664
-0.010757143 -0.022231428 0.75300002 13818078
-0.0093104765 -0.022201905 0.75200003 13686492
-0.0078780958 -0.022201905 0.75200003 13554906
-0.0064457143 -0.022201905 0.75200003 13423320
-0.0050000004 -0.022142859 0.75000006 13357782
-0.0035714288 -0.022142859 0.75000006 13291478
-0.0021428573 -0.022142859 0.75000006 13160149
-0.00071428576 -0.022142859 0.75000006 13094612
0.00071238098 -0.022083811 0.74800003 13094611
0.0021371427 -0.022083811 0.74800003 13094354
0.003557143 -0.022054287 0.74700004 13028561
0.0049866666 -0.022083811 0.74800003 12962768
0.006411429 -0.022083811 0.74800003 12831695
0.007836191 -0.022083811 0.74800003 12765390
0.0092485715 -0.022054287 0.74700004 12765133
0.010642858 -0.021995239 0.74500006 12764875
0.012061905 -0.021995239 0.74500006 12699337
0.013480954 -0.021995239 0.74500006 12633805
0.014900001 -0.021995239 0.74500006 12831698
0.016275238 -0.021936191 0.74300003 13028560
0.017738096 -0.021995239 0.74500006 12699855
0.019157145 -0.021995239 0.74500006 12436428
0.020576192 -0.021995239 0.74500006 12239561
0.021995239 -0.021995239 0.74500006 12042439
0.023414288 -0.021995239 0.74500006 11714500
0.024833336 -0.021995239 0.74500006 11451318
0.026252383 -0.021995239 0.74500006 11118248
0.02767143 -0.021995239 0.74500006 10856116
0.029168572 -0.022054287 0.74700004 11187903
0.03059143 -0.022054287 0.74700004 11582400
0.032014288 -0.022054287 0.74700004 11581633
0.033437144 -0.022054287 0.74700004 11646909
0.03486 -0.022054287 0.74700004 11581113
0.036282856 -0.022054287 0.74700004 11515832
0.037705716 -0.022054287 0.74700004 11450807
0.039128575 -0.022054287 0.74700004 11383206
0.040605716 -0.022083811 0.74800003 8950678
0.042142861 -0.022142859 0.75000006 6582657
0.043571431 -0.022142859 0.75000006 6780780
0.045000002 -0.022142859 0.75000006 7043184
0.046552382 -0.022201905 0.75200003 6977909
0.047984764 -0.022201905 0.75200003 6912369
0.049482856 -0.022231428 0.75300002 6912366
0.050917145 -0.022231428 0.75300002 6911855
0.05235143 -0.022231428 0.75300002 6911345
0.053785715 -0.022231428 0.75300002 6911347
0.05522 -0.022231428 0.75300002 6780534
0.056654289 -0.022231428 0.75300002 6714227
0.058242857 -0.022290478 0.75500005 6648945
0.059760004 -0.02232 0.75600004 6582896
0.0612 -0.02232 0.75600004 6451568
0.062640004 -0.02232 0.75600004 6386032
0.064249523 -0.022379048 0.75800002 6516079
0.065866672 -0.022438096 0.76000005 6712950
0.06731429 -0.022438096 0.76000005 7372670
0.068852387 -0.022467621 0.76100004 8030595
0.070486665 -0.022526667 0.76300001 8293001
0.072317138 -0.022644762 0.76700002 8554630
0.073874287 -0.022674287 0.76800001 8554115
0.075337149 -0.022674287 0.76800001 8618882
0.076799996 -0.022674287 0.76800001 8421505
0.078670479 -0.022792382 0.77200001 8224125
0.080244765 -0.022821905 0.77300006 8092537
0.082139999 -0.022940001 0.77700001 8026229
0.083835244 -0.02299905 0.77900004 7829361
0.085428573 -0.023028571 0.78000003 7697518
0.087137155 -0.023087621 0.78200006 7500395
0.088853337 -0.023146667 0.78400004 7302756
0.090346672 -0.023146667 0.78400004 6776925
0.092308573 -0.023264764 0.78800005 6250855
0.09380953 -0.023264764 0.78800005 7238257
0.095431432 -0.023294287 0.78900003 8293514
0.09804 -0.023560001 0.79800004 9805475
0.099809527 -0.023619048 0.80000001 11317674
0.10158667 -0.023678096 0.80200005 11319218
0.10311429 -0.023678096 0.80200005 11384234
-0.079893336 -0.021653336 0.78400004 7446990
-0.078400008 -0.021653336 0.78400004 14219236
-0.076710477 -0.021598097 0.78200006 14219514
-0.075220957 -0.021598097 0.78200006 14211047
-0.073731437 -0.021598097 0.78200006 13553621
-0.07224191 -0.021598097 0.78200006 12897750
-0.07075239 -0.021598097 0.78200006 12897751
-0.069262862 -0.021598097 0.78200006 12897737
-0.067773335 -0.021598097 0.78200006 12106171
-0.066283815 -0.021598097 0.78200006 11383994
-0.064960003 -0.021653336 0.78400004 11317946
-0.063466676 -0.021653336 0.78400004 11252409
-0.061973337 -0.021653336 0.78400004 11383480
-0.060634285 -0.021708572 0.78600001 11516579
-0.059137143 -0.021708572 0.78600001 10271119
-0.05778667 -0.021763811 0.78800005 9011541
-0.056285717 -0.021763811 0.78800005 5387803
-0.054784764 -0.021763811 0.78800005 1842996
-0.022674287 -0.021211429 0.76800001 9015980
-0.021128573 -0.021128573 0.76500005 10729669
-0.019619999 -0.021073334 0.76300001 12440286
-0.018166667 -0.021073334 0.76300001 14148069
-0.016603809 -0.020935237 0.75800002 14213356
-0.01516 -0.020935237 0.75800002 14278375
-0.013661906 -0.020852383 0.75500005 14080995
-0.012191429 -0.020797143 0.75300002 13949664
-0.010742858 -0.020769523 0.75200003 13818077
-0.0093104765 -0.020769523 0.75200003 13686747
-0.0078780958 -0.020769523 0.75200003 13555162
-0.0064457143 -0.020769523 0.75200003 13423320
-0.0050000004 -0.020714287 0.75000006 13357527
-0.0035619049 -0.020659048 0.74800003 13291478
-0.0021371427 -0.020659048 0.74800003 13160406
-0.00071238098 -0.020659048 0.74800003 13029589
0.00071238098 -0.020659048 0.74800003 13029076
0.0021371427 -0.020659048 0.74800003 13029075
0.003557143 -0.020631431 0.74700004 12963026
0.0049800002 -0.020631431 0.74700004 12831953
0.0064028576 -0.020631431 0.74700004 12765904
0.0078257145 -0.020631431 0.74700004 12765390
0.0092238095 -0.020576192 0.74500006 12699853
0.010642858 -0.020576192 0.74500006 12699853
0.012061905 -0.020576192 0.74500006 12634317
0.013480954 -0.020576192 0.74500006 12568783
0.014900001 -0.020576192 0.74500006 12831441
0.016275238 -0.020520953 0.74300003 13094607
0.017738096 -0.020576192 0.74500006 12765646
0.019105716 -0.020520953 0.74300003 12502220
0.020520953 -0.020520953 0.74300003 12239562
0.021936191 -0.020520953 0.74300003 12042439
0.023351429 -0.020520953 0.74300003 11714244
0.024766667 -0.020520953 0.74300003 11450546
0.026252383 -0.020576192 0.74500006 11118240
0.02767143 -0.020576192 0.74500006 10791087
0.029090477 -0.020576192 0.74500006 11188415
0.03059143 -0.020631431 0.74700004 11647934
0.032014288 -0.020631431 0.74700004 11647422
0.033437144 -0.020631431 0.74700004 11712698
0.03486 -0.020631431 0.74700004 11647159
0.036282856 -0.020631431 0.74700004 11581879
0.037604764 -0.020576192 0.74500006 11187639
0.039023813 -0.020576192 0.74500006 10857633
0.040442862 -0.020576192 0.74500006 8685707
0.04186191 -0.020576192 0.74500006 6581886
0.043397143 -0.020631431 0.74700004 6846321
0.044819999 -0.020631431 0.74700004 7108979
0.046428576 -0.020714287 0.75000006 7043446
0.047857147 -0.020714287 0.75000006 6978163
0.049417142 -0.020769523 0.75200003 6977904
0.050849527 -0.020769523 0.75200003 6977649
0.05235143 -0.020797143 0.75300002 6911602
0.053785715 -0.020797143 0.75300002 6911603
0.05522 -0.020797143 0.75300002 6780277
0.056804765 -0.020852383 0.75500005 6714483
0.058320004 -0.020880001 0.75600004 6648945
0.059760004 -0.020880001 0.75600004 6582895
0.0612 -0.020880001 0.75600004 6517358
0.062640004 -0.020880001 0.75600004 6452073
0.064249523 -0.020935237 0.75800002 6451044
0.065866672 -0.020990476 0.76000005 6515567
0.06731429 -0.020990476 0.76000005 7439227
0.068852387 -0.021018095 0.76100004 8293759
0.070486665 -0.021073334 0.76300001 8424067
0.072128579 -0.021128573 0.76500005 8554114
0.0737781 -0.021183809 0.76700002 8553858
0.075239047 -0.021183809 0.76700002 8619137
0.076799996 -0.021211429 0.76800001 8421505
0.078670479 -0.021321906 0.77200001 8223870
0.080244765 -0.021349525 0.77300006 8092539
0.082139999 -0.02146 0.77700001 8026230
0.083835244 -0.021515239 0.77900004 7829361
0.085428573 -0.021542858 0.78000003 7697517
0.087360002 -0.021653336 0.78400004 7500138
0.088853337 -0.021653336 0.78400004 7368032
0.090577148 -0.021708572 0.78600001 6842710
0.092308573 -0.021763811 0.78800005 6381413
0.09380953 -0.021763811 0.78800005 7632244
0.095431432 -0.021791428 0.78900003 8951440
0.09804 -0.02204 0.79800004 10067884
0.099809527 -0.022095239 0.80000001 11252911
0.10133334 -0.022095239 0.80000001 11252915
0.10311429 -0.022150477 0.80200005 11252906
-0.079893336 -0.020160001 0.78400004 7777227
-0.078400008 -0.020160001 0.78400004 14415841
-0.076710477 -0.020108573 0.78200006 14284279
-0.075220957 -0.020108573 0.78200006 14145510
-0.073731437 -0.020108573 0.78200006 13487829
-0.07224191 -0.020108573 0.78200006 12832470
-0.07075239 -0.020108573 0.78200006 12832471
-0.069262862 -0.020108573 0.78200006 12897225
-0.067773335 -0.020108573 0.78200006 12171963
-0.066283815 -0.020108573 0.78200006 11450042
-0.064960003 -0.020160001 0.78400004 11317946
-0.063628569 -0.020211428 0.78600001 11252408
-0.062131427 -0.020211428 0.78600001 11449014
-0.060634285 -0.020211428 0.78600001 11645851
-0.059137143 -0.020211428 0.78600001 10073473
-0.05778667 -0.020262858 0.78800005 8548429
-0.056285717 -0.020262858 0.78800005 5384216
-0.054784764 -0.020262858 0.78800005 2306098
-0.053283811 -0.020262858 0.78800005 3029068
-0.022644762 -0.019722857 0.76700002 9082281
-0.021128573 -0.019671429 0.76500005 10597828
-0.019568572 -0.019568572 0.76100004 12375263
-0.018119048 -0.019568572 0.76100004 14147813
-0.01664762 -0.019542858 0.76000005 14147562
-0.01516 -0.019491429 0.75800002 14147302
-0.013661906 -0.019414287 0.75500005 14015713
-0.012191429 -0.019362858 0.75300002 13949663
-0.010757143 -0.019362858 0.75300002 13818333
-0.0093104765 -0.019337144 0.75200003 13686748
-0.0078780958 -0.019337144 0.75200003 13555419
-0.0064285719 -0.019285716 0.75000006 13423577
-0.0050000004 -0.019285716 0.75000006 13357527
-0.0035619049 -0.019234287 0.74800003 13291734
-0.0021428573 -0.019285716 0.75000006 13160660
-0.00071238098 -0.019234287 0.74800003 13029331
0.00071142858 -0.019208571 0.74700004 13029075
0.0021342859 -0.019208571 0.74700004 13029074
0.0035476193 -0.019157145 0.74500006 12897746
0.0049800002 -0.019208571 0.74700004 12766161
0.0064028576 -0.019208571 0.74700004 12765648
0.0078257145 -0.019208571 0.74700004 12765390
0.0092238095 -0.019157145 0.74500006 12699853
0.010642858 -0.019157145 0.74500006 12699853
0.012061905 -0.019157145 0.74500006 12634061
0.013480954 -0.019157145 0.74500006 12568782
0.014900001 -0.019157145 0.74500006 12831184
0.01631905 -0.019157145 0.74500006 13159376
0.017738096 -0.019157145 0.74500006 12831696
0.019105716 -0.019105716 0.74300003 12567757
0.020520953 -0.019105716 0.74300003 12305098
0.021936191 -0.019105716 0.74300003 12042181
0.023351429 -0.019105716 0.74300003 11779520
0.024833336 -0.019157145 0.74500006 11515830
0.026252383 -0.019157145 0.74500006 11118507
0.02767143 -0.019157145 0.74500006 10727091
0.029090477 -0.019157145 0.74500006 11254459
0.030509528 -0.019157145 0.74500006 11778748
0.032014288 -0.019208571 0.74700004 11778748
0.033437144 -0.019208571 0.74700004 11778488
0.03476667 -0.019157145 0.74500006 11712948
0.036185715 -0.019157145 0.74500006 11647670
0.037604764 -0.019157145 0.74500006 10990265
0.039023813 -0.019157145 0.74500006 10330012
0.040442862 -0.019157145 0.74500006 8420735
0.041974287 -0.019208571 0.74700004 6584955
0.043397143 -0.019208571 0.74700004 6912118
0.044819999 -0.019208571 0.74700004 7240054
0.046304762 -0.019234287 0.74800003 7109239
0.047857147 -0.019285716 0.75000006 7043703
0.049285717 -0.019285716 0.75000006 7043703
0.050849527 -0.019337144 0.75200003 7043190
0.052281909 -0.019337144 0.75200003 6977398
0.053714287 -0.019337144 0.75200003 6911606
0.05522 -0.019362858 0.75300002 6780279
0.056654289 -0.019362858 0.75300002 6714485
0.058242857 -0.019414287 0.75500005 6648948
0.059680957 -0.019414287 0.75500005 6648946
0.06111905 -0.019414287 0.75500005 6583664
0.062640004 -0.019440001 0.75600004 6517871
0.06408 -0.019440001 0.75600004 6451823
0.065520003 -0.019440001 0.75600004 6385269
0.06731429 -0.019542858 0.76000005 7506043
0.068852387 -0.019568572 0.76100004 8621182
0.070486665 -0.019619999 0.76300001 8555137
0.072128579 -0.019671429 0.76500005 8554113
0.0737781 -0.019722857 0.76700002 8553857
0.075239047 -0.019722857 0.76700002 8618880
0.076799996 -0.01974857 0.76800001 8421759
0.078670479 -0.019851428 0.77200001 8224125
0.080244765 -0.019877145 0.77300006 8092539
0.082139999 -0.01998 0.77700001 8026229
0.083835244 -0.02003143 0.77900004 7829359
0.085428573 -0.020057144 0.78000003 7697260
0.087137155 -0.020108573 0.78200006 7565417
0.088853337 -0.020160001 0.78400004 7433317
0.090346672 -0.020160001 0.78400004 6974049
0.092308573 -0.020262858 0.78800005 6513001
0.09380953 -0.020262858 0.78800005 8026226
0.095431432 -0.020288572 0.78900003 9605759
0.09804 -0.020520002 0.79800004 10396044
0.09956 -0.020520002 0.79800004 11249043
0.10133334 -0.020571429 0.80000001 11184794
-0.079893336 -0.018666666 0.78400004 7843784
-0.078200005 -0.018619049 0.78200006 14481374
-0.076710477 -0.018619049 0.78200006 14217461
-0.075220957 -0.018619049 0.78200006 13883621
-0.073731437 -0.018619049 0.78200006 13356758
-0.07224191 -0.018619049 0.78200006 12897494
-0.07075239 -0.018619049 0.78200006 12832215
-0.069262862 -0.018619049 0.78200006 12831433
-0.067773335 -0.018619049 0.78200006 12106427
-0.06645333 -0.018666666 0.78400004 11385018
-0.064960003 -0.018666666 0.78400004 11317946
-0.063466676 -0.018666666 0.78400004 11252151
-0.062131427 -0.018714285 0.78600001 11449268
-0.060634285 -0.018714285 0.78600001 11646356
-0.059137143 -0.018714285 0.78600001 9808756
-0.05778667 -0.018761905 0.78800005 8019781
-0.056357145 -0.018785715 0.78900003 5321750
-0.054784764 -0.018761905 0.78800005 2700592
-0.053283811 -0.018761905 0.78800005 3225930
-0.022585716 -0.018214287 0.76500005 9080999
-0.021128573 -0.018214287 0.76500005 10531524
-0.019542858 -0.01809524 0.76000005 12309473
-0.01809524 -0.01809524 0.76000005 14147813
-0.016603809 -0.01804762 0.75800002 14147561
-0.015100001 -0.017976193 0.75500005 14212836
-0.013661906 -0.017976193 0.75500005 14015712
-0.012191429 -0.017928572 0.75300002 13884383
-0.010742858 -0.017904762 0.75200003 13752798
-0.0093104765 -0.017904762 0.75200003 13686749
-0.0078780958 -0.017904762 0.75200003 13555420
-0.0064285719 -0.017857144 0.75000006 13423834
-0.0050000004 -0.017857144 0.75000006 13357784
-0.0035619049 -0.017809525 0.74800003 13291989
-0.0021428573 -0.017857144 0.75000006 13160659
-0.00071238098 -0.017809525 0.74800003 13094866
0.00071238098 -0.017809525 0.74800003 13029074
0.0021342859 -0.017785715 0.74700004 12963538
0.0035476193 -0.017738096 0.74500006 12831955
0.0049800002 -0.017785715 0.74700004 12765905
0.0064028576 -0.017785715 0.74700004 12765904
0.0078047626 -0.017738096 0.74500006 12765903
0.0092238095 -0.017738096 0.74500006 12700110
0.010642858 -0.017738096 0.74500006 12700109
0.012061905 -0.017738096 0.74500006 12569037
0.013480954 -0.017738096 0.74500006 12437966
0.014900001 -0.017738096 0.74500006 12700111
0.01631905 -0.017738096 0.74500006 13028561
0.017738096 -0.017738096 0.74500006 12765395
0.019105716 -0.017690476 0.74300003 12568015
0.020520953 -0.017690476 0.74300003 12304843
0.021936191 -0.017690476 0.74300003 12042180
0.023351429 -0.017690476 0.74300003 11647677
0.024833336 -0.017738096 0.74500006 11319226
0.026252383 -0.017738096 0.74500006 11187639
