# .PCD v0.7 - Point Cloud Data file format
VERSION 0.7
FIELDS x y z rgba
SIZE 4 4 4 4
TYPE F F F U
COUNT 1 1 1 1
WIDTH 1088
HEIGHT 1
VIEWPOINT 0 0 0 1 0 0 0
POINTS 1088
DATA ascii
0.032400001 0.052560002 0.75600004 7967634
0.033929523 0.052699048 0.75800002 9343117
0.035373334 0.052699048 0.75800002 9014664
0.036914289 0.052838098 0.76000005 8752519
0.038361907 0.052838098 0.76000005 8818055
0.039966665 0.053046666 0.76300001 8882820
0.041528575 0.05318572 0.76500005 8685441
0.043154284 0.053394284 0.76800001 8487295
0.044907622 0.05374191 0.77300006 8355453
0.046500001 0.053880952 0.77500004 8224123
0.048223812 0.054159053 0.77900004 8027257
0.049771432 0.054228574 0.78000003 7894899
0.051651429 0.054645717 0.78600001 7698030
0.053148571 0.054645717 0.78600001 7501169
0.054645717 0.054645717 0.78600001 7632243
0.056142855 0.054645717 0.78600001 7763059
-0.064673327 0.054500002 0.76300001 1645130
-0.063220002 0.054500002 0.76300001 4267875
-0.061604768 0.054357145 0.76100004 6982297
-0.059760004 0.054000005 0.75600004 10339791
-0.058320004 0.054000005 0.75600004 13686741
-0.056880001 0.054000005 0.75600004 13555420
-0.055366673 0.053928573 0.75500005 13489883
-0.053785715 0.053785715 0.75300002 13555418
-0.052142859 0.053571433 0.75000006 13687002
-0.050511431 0.053357143 0.74700004 13752283
-0.048825715 0.053071432 0.74300003 13883353
-0.04734667 0.052999999 0.74200004 13817816
-0.045809526 0.052857142 0.74000001 13752280
-0.044399999 0.052857142 0.74000001 13686488
-0.042990476 0.052857142 0.74000001 13686487
-0.041524764 0.052785717 0.73900002 13620438
-0.040117145 0.052785717 0.73900002 13554388
-0.038709525 0.052785717 0.73900002 13488595
-0.037200954 0.052642863 0.73700005 13423059
-0.035797145 0.052642863 0.73700005 13357523
-0.034393337 0.052642863 0.73700005 13291985
-0.03307905 0.052785717 0.73900002 13226192
-0.031671431 0.052785717 0.73900002 13160400
-0.030263809 0.052785717 0.73900002 13094608
-0.028856192 0.052785717 0.73900002 12963277
-0.027374288 0.052642863 0.73700005 12963018
-0.025970478 0.052642863 0.73700005 12896970
-0.024566669 0.052642863 0.73700005 12765130
-0.023162859 0.052642863 0.73700005 12699337
-0.02175905 0.052642863 0.73700005 12634056
-0.02035524 0.052642863 0.73700005 12568776
-0.018925715 0.052571431 0.73600006 12436681
-0.01754762 0.052642863 0.73700005 12370632
-0.016121905 0.052571431 0.73600006 12304584
-0.01468 0.052428573 0.73400003 12238532
-0.013318096 0.052571431 0.73600006 12173248
-0.011916191 0.052571431 0.73600006 12107710
-0.010514286 0.052571431 0.73600006 12041916
-0.0091247624 0.052642863 0.73700005 12041404
-0.0077209529 0.052642863 0.73700005 11975356
-0.0063171433 0.052642863 0.73700005 11909307
-0.0049266671 0.052785717 0.73900002 11843770
-0.003509524 0.052642863 0.73700005 11777976
-0.0021057145 0.052642863 0.73700005 11646647
-0.00070190482 0.052642863 0.73700005 11580859
0.00070380955 0.052785717 0.73900002 11581119
0.0021114287 0.052785717 0.73900002 11647668
0.0035190478 0.052785717 0.73900002 10793385
0.0049266671 0.052785717 0.73900002 9869702
0.0063342857 0.052785717 0.73900002 8092516
0.0077523813 0.052857142 0.74000001 6387311
0.0091866674 0.052999999 0.74200004 6453370
0.010614286 0.053071432 0.74300003 6583671
0.012029524 0.053071432 0.74300003 6583669
0.013480954 0.053214289 0.74500006 6649718
0.014900001 0.053214289 0.74500006 6584439
0.01631905 0.053214289 0.74500006 6518127
0.017738096 0.053214289 0.74500006 6518119
0.019157145 0.053214289 0.74500006 6518123
0.020576192 0.053214289 0.74500006 6452080
0.021995239 0.053214289 0.74500006 6451820
0.023508571 0.053428572 0.74800003 6386281
0.025000002 0.053571433 0.75000006 6386798
0.026499048 0.053714287 0.75200003 6387059
0.027968572 0.053785715 0.75300002 6452597
0.029480955 0.053928573 0.75500005 6453111
0.030960003 0.054000005 0.75600004 6520196
0.032400001 0.054000005 0.75600004 7967121
0.033929523 0.054142859 0.75800002 9343373
0.035373334 0.054142859 0.75800002 9079689
0.036914289 0.054285716 0.76000005 8817289
0.038412381 0.054357145 0.76100004 8882826
0.039966665 0.054500002 0.76300001 9013895
0.041528575 0.05464286 0.76500005 8750724
0.043154284 0.054857146 0.76800001 8487807
0.044907622 0.05521429 0.77300006 8355707
0.046500001 0.055357147 0.77500004 8224379
0.048223812 0.055642858 0.77900004 8027004
0.049771432 0.055714291 0.78000003 7894393
0.051782858 0.056285717 0.78800005 7697783
0.053283811 0.056285717 0.78800005 7566710
0.055132385 0.05664286 0.79300004 7631733
0.05664286 0.05664286 0.79300004 7696247
-0.063220002 0.055953331 0.76300001 4131936
-0.061604768 0.05580667 0.76100004 6456216
-0.059918094 0.055586666 0.75800002 10010833
-0.058320004 0.055440001 0.75600004 13622486
-0.056880001 0.055440001 0.75600004 13489884
-0.055366673 0.055366673 0.75500005 13424347
-0.053785715 0.05522 0.75300002 13555674
-0.052142859 0.055000003 0.75000006 13686746
-0.050511431 0.054780003 0.74700004 13752539
-0.048825715 0.05448667 0.74300003 13818074
-0.04734667 0.054413334 0.74200004 13752537
-0.045809526 0.054266665 0.74000001 13752280
-0.044399999 0.054266665 0.74000001 13752280
-0.042990476 0.054266665 0.74000001 13752023
-0.041524764 0.054193333 0.73900002 13620694
-0.040117145 0.054193333 0.73900002 13554387
-0.038604766 0.054046672 0.73700005 13488593
-0.037200954 0.054046672 0.73700005 13423058
-0.035797145 0.054046672 0.73700005 13423315
-0.034393337 0.054046672 0.73700005 13423314
-0.03307905 0.054193333 0.73900002 13292241
-0.031671431 0.054193333 0.73900002 13225936
-0.030263809 0.054193333 0.73900002 13094607
-0.028856192 0.054193333 0.73900002 13028557
-0.027448572 0.054193333 0.73900002 12963020
-0.026040953 0.054193333 0.73900002 12962251
-0.024633335 0.054193333 0.73900002 12830411
-0.023162859 0.054046672 0.73700005 12699338
-0.02175905 0.054046672 0.73700005 12634057
-0.02035524 0.054046672 0.73700005 12633800
-0.018951431 0.054046672 0.73700005 12502727
-0.01754762 0.054046672 0.73700005 12436167
-0.016121905 0.053973336 0.73600006 12304584
-0.014720001 0.053973336 0.73600006 12238788
-0.013336192 0.054046672 0.73700005 12173248
-0.011932382 0.054046672 0.73700005 12107711
-0.010528572 0.054046672 0.73700005 12042175
-0.0091247624 0.054046672 0.73700005 12041407
-0.0077209529 0.054046672 0.73700005 11975103
-0.0063171433 0.054046672 0.73700005 11909309
-0.0049266671 0.054193333 0.73900002 11843771
-0.003509524 0.054046672 0.73700005 11777977
-0.0021114287 0.054193333 0.73900002 11712184
-0.00070190482 0.054046672 0.73700005 11646649
0.00070380955 0.054193333 0.73900002 11646907
0.0021057145 0.054046672 0.73700005 11646389
0.003509524 0.054046672 0.73700005 10859696
0.0049266671 0.054193333 0.73900002 10133133
0.0063342857 0.054193333 0.73900002 8223594
0.0077523813 0.054266665 0.74000001 6388082
0.0091866674 0.054413334 0.74200004 6453370
0.010600001 0.054413334 0.74200004 6583672
0.012029524 0.05448667 0.74300003 6583927
0.013444763 0.05448667 0.74300003 6649722
0.01486 0.05448667 0.74300003 6715517
0.016275238 0.05448667 0.74300003 6780531
0.017690476 0.05448667 0.74300003 6649194
0.019105716 0.05448667 0.74300003 6583407
0.020520953 0.05448667 0.74300003 6452341
0.021995239 0.054633338 0.74500006 6386289
0.023477143 0.054780003 0.74700004 6386029
0.024933333 0.054853335 0.74800003 6452080
0.026499048 0.055146668 0.75200003 6387059
0.027968572 0.05522 0.75300002 6387059
0.029480955 0.055366673 0.75500005 6387316
0.030960003 0.055440001 0.75600004 6452865
0.032485716 0.055586666 0.75800002 7901327
0.033929523 0.055586666 0.75800002 9408396
0.035373334 0.055586666 0.75800002 9144970
0.036914289 0.055733338 0.76000005 8882826
0.038513333 0.055953331 0.76300001 9013641
0.040071428 0.056100003 0.76500005 9210245
0.041637145 0.056246668 0.76700002 8881794
0.043266669 0.056466669 0.77000004 8553342
0.044907622 0.05668667 0.77300006 8356218
0.046380006 0.05668667 0.77300006 8224122
0.048223812 0.057126667 0.77900004 8092283
0.050600957 0.058153339 0.79300004 7960697
0.05198 0.058006667 0.79100001 7763831
0.053621907 0.058153339 0.79300004 7631988
0.055132385 0.058153339 0.79300004 7631474
0.05664286 0.058153339 0.79300004 7696245
-0.063220002 0.057406668 0.76300001 4131933
-0.061604768 0.057256192 0.76100004 6126744
-0.059918094 0.057030477 0.75800002 9878995
-0.058320004 0.056880001 0.75600004 13689560
-0.056880001 0.056880001 0.75600004 13490397
-0.055366673 0.056804765 0.75500005 13358556
-0.053785715 0.056654289 0.75300002 13555163
-0.052142859 0.056428574 0.75000006 13686491
-0.050511431 0.056202862 0.74700004 13752539
-0.048825715 0.055901907 0.74300003 13883867
-0.04734667 0.055826671 0.74200004 13818075
-0.045809526 0.055676188 0.74000001 13752537
-0.044340003 0.055600952 0.73900002 13752280
-0.042932384 0.055600952 0.73900002 13686743
-0.041524764 0.055600952 0.73900002 13620694
-0.040117145 0.055600952 0.73900002 13554643
-0.038604766 0.05545048 0.73700005 13489104
-0.037200954 0.05545048 0.73700005 13423570
-0.035797145 0.05545048 0.73700005 13423316
-0.034393337 0.05545048 0.73700005 13423315
-0.03307905 0.055600952 0.73900002 13291986
-0.031671431 0.055600952 0.73900002 13226192
-0.030263809 0.055600952 0.73900002 13160143
-0.028856192 0.055600952 0.73900002 13094094
-0.027448572 0.055600952 0.73900002 13093838
-0.026040953 0.055600952 0.73900002 13093325
-0.024633335 0.055600952 0.73900002 12896204
-0.023162859 0.05545048 0.73700005 12764875
-0.02175905 0.05545048 0.73700005 12699082
-0.02035524 0.05545048 0.73700005 12633544
-0.018951431 0.05545048 0.73700005 12568006
-0.01754762 0.05545048 0.73700005 12436423
-0.016121905 0.055375241 0.73600006 12370632
-0.014720001 0.055375241 0.73600006 12304836
-0.013336192 0.05545048 0.73700005 12173760
-0.011932382 0.05545048 0.73700005 12108225
-0.010528572 0.05545048 0.73700005 12042178
-0.0091247624 0.05545048 0.73700005 12041410
-0.0077209529 0.05545048 0.73700005 11975619
-0.0063171433 0.05545048 0.73700005 11909823
-0.0049266671 0.055600952 0.73900002 11843772
-0.0035190478 0.055600952 0.73900002 11777978
-0.0021114287 0.055600952 0.73900002 11712441
-0.00070190482 0.05545048 0.73700005 11646904
0.00070380955 0.055600952 0.73900002 11515575
0.0021114287 0.055600952 0.73900002 11449271
0.003509524 0.05545048 0.73700005 10990776
0.0049133338 0.05545048 0.73700005 10593172
0.0063342857 0.055600952 0.73900002 8487536
0.0077523813 0.055676188 0.74000001 6451829
0.0091866674 0.055826671 0.74200004 6452091
0.010600001 0.055826671 0.74200004 6518138
0.012029524 0.055901907 0.74300003 6583673
0.013444763 0.055901907 0.74300003 6650238
0.01486 0.055901907 0.74300003 7045507
0.016275238 0.055901907 0.74300003 7441016
0.017690476 0.055901907 0.74300003 7043693
0.019105716 0.055901907 0.74300003 6649972
0.020520953 0.055901907 0.74300003 6517627
0.021995239 0.056052383 0.74500006 6385270
0.023477143 0.056202862 0.74700004 6386033
0.024933333 0.056278098 0.74800003 6386290
0.026428573 0.056428574 0.75000006 6320756
0.027931429 0.05657905 0.75200003 6255474
0.029480955 0.056804765 0.75500005 6254961
0.030960003 0.056880001 0.75600004 6254719
0.032485716 0.057030477 0.75800002 7769741
0.033929523 0.057030477 0.75800002 9342348
0.035466667 0.057180956 0.76000005 9079436
0.036914289 0.057180956 0.76000005 8882826
0.038513333 0.057406668 0.76300001 9013641
0.040071428 0.057557147 0.76500005 9144708
0.041528575 0.057557147 0.76500005 8882048
0.043266669 0.057933334 0.77000004 8619133
0.044907622 0.058159053 0.77300006 8421754
0.046500001 0.058309525 0.77500004 8224122
0.048100002 0.058459997 0.77700001 8092538
0.050473336 0.059513334 0.79100001 7961465
0.05198 0.059513334 0.79100001 7763576
0.053621907 0.059663814 0.79300004 7631987
0.055410478 0.059964765 0.79700005 7697007
0.056928575 0.059964765 0.79700005 7827571
0.058446668 0.059964765 0.79700005 8158071
-0.063220002 0.05886 0.76300001 4197712
-0.061604768 0.058705717 0.76100004 5797521
-0.059760004 0.058320004 0.75600004 9747154
-0.058320004 0.058320004 0.75600004 13754583
-0.056880001 0.058320004 0.75600004 13556445
-0.055366673 0.058242857 0.75500005 13358555
-0.053785715 0.058088571 0.75300002 13555161
-0.052142859 0.057857145 0.75000006 13752283
-0.050511431 0.057625718 0.74700004 13818076
-0.048825715 0.057317145 0.74300003 13949150
-0.04734667 0.057240006 0.74200004 13884129
-0.045809526 0.057085715 0.74000001 13818077
-0.044340003 0.057008572 0.73900002 13752282
-0.042990476 0.057085715 0.74000001 13686488
-0.041524764 0.057008572 0.73900002 13620951
-0.040117145 0.057008572 0.73900002 13554901
-0.038604766 0.056854289 0.73700005 13489108
-0.037200954 0.056854289 0.73700005 13488852
-0.035797145 0.056854289 0.73700005 13423316
-0.034393337 0.056854289 0.73700005 13423059
-0.03307905 0.057008572 0.73900002 13357522
-0.031671431 0.057008572 0.73900002 13291728
-0.030263809 0.057008572 0.73900002 13225935
-0.028856192 0.057008572 0.73900002 13159630
-0.027448572 0.057008572 0.73900002 13159117
-0.026040953 0.057008572 0.73900002 13224396
-0.024566669 0.056854289 0.73700005 13027788
-0.023162859 0.056854289 0.73700005 12830412
-0.02175905 0.056854289 0.73700005 12764620
-0.02035524 0.056854289 0.73700005 12699082
-0.018951431 0.056854289 0.73700005 12568008
-0.01754762 0.056854289 0.73700005 12502217
-0.01614381 0.056854289 0.73700005 12436683
-0.014720001 0.056777146 0.73600006 12370886
-0.013336192 0.056854289 0.73700005 12239809
-0.011932382 0.056854289 0.73700005 12173761
-0.010528572 0.056854289 0.73700005 12107714
-0.0091247624 0.056854289 0.73700005 12041666
-0.0077209529 0.056854289 0.73700005 11975874
-0.0063171433 0.056854289 0.73700005 11975615
-0.0049266671 0.057008572 0.73900002 11844029
-0.003509524 0.056854289 0.73700005 11778235
-0.0021114287 0.057008572 0.73900002 11712442
-0.00070190482 0.056854289 0.73700005 11646905
0.00070190482 0.056854289 0.73700005 11449784
0.0021057145 0.056854289 0.73700005 11252665
0.003509524 0.056854289 0.73700005 11121850
0.0049133338 0.056854289 0.73700005 11053979
0.0063342857 0.057008572 0.73900002 8751484
0.0077523813 0.057085715 0.74000001 6518392
0.0091866674 0.057240006 0.74200004 6451572
0.010600001 0.057240006 0.74200004 6451575
0.012029524 0.057317145 0.74300003 6582907
0.013444763 0.057317145 0.74300003 6715002
0.01486 0.057317145 0.74300003 7441273
0.016275238 0.057317145 0.74300003 8160883
0.017690476 0.057317145 0.74300003 7438445
0.019105716 0.057317145 0.74300003 6780531
0.020520953 0.057317145 0.74300003 6583161
0.021995239 0.057471432 0.74500006 6451828
0.023414288 0.057471432 0.74500006 6386032
0.024900001 0.057625718 0.74700004 6320753
0.026358096 0.057702858 0.74800003 6255217
0.027857145 0.057857145 0.75000006 6189679
0.029480955 0.058242857 0.75500005 6122861
0.030960003 0.058320004 0.75600004 6123133
0.032485716 0.058474287 0.75800002 7703949
0.033929523 0.058474287 0.75800002 9276813
0.035466667 0.058628574 0.76000005 9079694
0.036962859 0.058705717 0.76100004 8948363
0.038513333 0.05886 0.76300001 9013641
0.040071428 0.059014291 0.76500005 9079176
0.041637145 0.059168573 0.76700002 8882568
0.043266669 0.059400003 0.77000004 8684929
0.044907622 0.059631433 0.77300006 8487547
0.046380006 0.059631433 0.77300006 8289914
0.048100002 0.059939999 0.77700001 8092794
0.050473336 0.061019998 0.79100001 7960952
0.052111432 0.061174288 0.79300004 7763575
0.053621907 0.061174288 0.79300004 7632246
0.055271428 0.061328575 0.79500002 7762804
0.056785714 0.061328575 0.79500002 7959668
0.0583 0.061328575 0.79500002 8224628
-0.063220002 0.060313337 0.76300001 3672132
-0.061604768 0.060155239 0.76100004 5140618
-0.059760004 0.059760004 0.75600004 9352401
-0.058320004 0.059760004 0.75600004 13557719
-0.056804765 0.059680957 0.75500005 13425374
-0.055366673 0.059680957 0.75500005 13293019
-0.053785715 0.059522856 0.75300002 13489880
-0.052142859 0.059285719 0.75000006 13752539
-0.050511431 0.059048574 0.74700004 13818078
-0.048825715 0.058732383 0.74300003 13949154
-0.04734667 0.058653336 0.74200004 13883623
-0.045809526 0.058495238 0.74000001 13818081
-0.044340003 0.058416191 0.73900002 13752284
-0.042990476 0.058495238 0.74000001 13686234
-0.041524764 0.058416191 0.73900002 13620697
-0.040117145 0.058416191 0.73900002 13555160
-0.038709525 0.058416191 0.73900002 13489112
-0.037200954 0.058258101 0.73700005 13423062
-0.035797145 0.058258101 0.73700005 13423061
-0.034393337 0.058258101 0.73700005 13423060
-0.03307905 0.058416191 0.73900002 13357523
-0.031671431 0.058416191 0.73900002 13291729
-0.030263809 0.058416191 0.73900002 13225679
-0.028778099 0.058258101 0.73700005 13159630
-0.027374288 0.058258101 0.73700005 13159373
-0.026040953 0.058416191 0.73900002 13159372
-0.024566669 0.058258101 0.73700005 12962252
-0.023162859 0.058258101 0.73700005 12830669
-0.02175905 0.058258101 0.73700005 12699343
-0.02035524 0.058258101 0.73700005 12633804
-0.018951431 0.058258101 0.73700005 12502730
-0.01754762 0.058258101 0.73700005 12437196
-0.01614381 0.058258101 0.73700005 12371151
-0.014740001 0.058258101 0.73700005 12305608
-0.013336192 0.058258101 0.73700005 12239554
-0.011932382 0.058258101 0.73700005 12173762
-0.010528572 0.058258101 0.73700005 12107714
-0.0091247624 0.058258101 0.73700005 12041921
-0.0077209529 0.058258101 0.73700005 11976129
-0.0063171433 0.058258101 0.73700005 11910591
-0.0049133338 0.058258101 0.73700005 11778750
-0.003509524 0.058258101 0.73700005 11712957
-0.0021114287 0.058416191 0.73900002 11646908
-0.00070190482 0.058258101 0.73700005 11581370
0.00070190482 0.058258101 0.73700005 11384249
0.0021057145 0.058258101 0.73700005 11252667
0.003509524 0.058258101 0.73700005 11187389
0.0049133338 0.058258101 0.73700005 11187362
0.0063342857 0.058416191 0.73900002 9146504
0.0077523813 0.058495238 0.74000001 7109243
0.0091866674 0.058653336 0.74200004 6649198
0.010600001 0.058653336 0.74200004 6189429
0.012029524 0.058732383 0.74300003 6320765
0.013444763 0.058732383 0.74300003 6452086
0.01486 0.058732383 0.74300003 6847344
0.016275238 0.058732383 0.74300003 7308143
0.017690476 0.058732383 0.74300003 6912878
0.019105716 0.058732383 0.74300003 6583410
0.020520953 0.058732383 0.74300003 6451831
0.021995239 0.058890481 0.74500006 6386291
0.023414288 0.058890481 0.74500006 6386288
0.024900001 0.059048574 0.74700004 6451823
0.026358096 0.059127621 0.74800003 6320751
0.027782857 0.059127621 0.74800003 6189676
0.029480955 0.059680957 0.75500005 6057065
0.030960003 0.059760004 0.75600004 5991803
0.032485716 0.059918094 0.75800002 7572621
0.033929523 0.059918094 0.75800002 9145998
0.035466667 0.060076196 0.76000005 9014416
0.036962859 0.060155239 0.76100004 8883085
0.038513333 0.060313337 0.76300001 8948618
0.040071428 0.06047143 0.76500005 9014413
0.041637145 0.060629524 0.76700002 8817296
0.043266669 0.060866669 0.77000004 8685190
0.044849522 0.061024766 0.77200001 8487805
0.046380006 0.061103813 0.77300006 8290171
0.048100002 0.061419997 0.77700001 8092538
0.050473336 0.062526666 0.79100001 7895160
0.05198 0.062526666 0.79100001 7763575
0.053486664 0.062526666 0.79100001 7632760
0.055132385 0.062684759 0.79300004 7763834
0.05664286 0.062684759 0.79300004 7895158
0.058153339 0.062684759 0.79300004 7960946
-0.061604768 0.061604768 0.76100004 4547712
-0.059760004 0.0612 0.75600004 8957643
-0.058320004 0.0612 0.75600004 13360596
-0.056804765 0.06111905 0.75500005 13291230
-0.05522 0.060957149 0.75300002 13227483
-0.053714287 0.060876191 0.75200003 13490649
-0.052142859 0.06071429 0.75000006 13752796
-0.050579049 0.060552381 0.74800003 13818334
-0.048825715 0.060147621 0.74300003 13949153
-0.04734667 0.06006667 0.74200004 13884387
-0.045933336 0.06006667 0.74200004 13883615
-0.044399999 0.059904762 0.74000001 13817820
-0.042990476 0.059904762 0.74000001 13752026
-0.041524764 0.059823811 0.73900002 13686232
-0.040117145 0.059823811 0.73900002 13620440
-0.038709525 0.059823811 0.73900002 13489112
-0.037200954 0.05966191 0.73700005 13423063
-0.035797145 0.05966191 0.73700005 13422805
-0.034393337 0.05966191 0.73700005 13423060
-0.032989528 0.05966191 0.73700005 13357523
-0.031671431 0.059823811 0.73900002 13291729
-0.030263809 0.059823811 0.73900002 13225679
-0.028856192 0.059823811 0.73900002 13159630
-0.027448572 0.059823811 0.73900002 13094092
-0.026040953 0.059823811 0.73900002 13093578
-0.024566669 0.05966191 0.73700005 12962249
-0.023162859 0.05966191 0.73700005 12896459
-0.02175905 0.05966191 0.73700005 12699597
-0.02035524 0.05966191 0.73700005 12568011
-0.018951431 0.05966191 0.73700005 12501961
-0.01754762 0.05966191 0.73700005 12436170
-0.01614381 0.05966191 0.73700005 12370635
-0.014740001 0.05966191 0.73700005 12304839
-0.013336192 0.05966191 0.73700005 12239299
-0.011932382 0.05966191 0.73700005 12239043
-0.010528572 0.05966191 0.73700005 12107971
-0.0091247624 0.05966191 0.73700005 12041922
-0.0077209529 0.05966191 0.73700005 11976385
-0.0063171433 0.05966191 0.73700005 11910591
-0.0049266671 0.059823811 0.73900002 11779262
-0.003509524 0.05966191 0.73700005 11647421
-0.0021057145 0.05966191 0.73700005 11581628
-0.00070190482 0.05966191 0.73700005 11581370
0.00070190482 0.05966191 0.73700005 11384505
0.0021057145 0.05966191 0.73700005 11253178
0.003509524 0.05966191 0.73700005 11318715
0.0049133338 0.05966191 0.73700005 11384998
0.0063342857 0.059823811 0.73900002 9541520
0.0077523813 0.059904762 0.74000001 7699581
0.0091866674 0.06006667 0.74200004 6776682
0.010600001 0.06006667 0.74200004 5926512
0.012029524 0.060147621 0.74300003 6057847
0.013444763 0.060147621 0.74300003 6254966
0.014900001 0.060309529 0.74500006 6321269
0.01631905 0.060309529 0.74500006 6451571
0.017738096 0.060309529 0.74500006 6385265
0.019105716 0.060147621 0.74300003 6385523
0.020576192 0.060309529 0.74500006 6386037
0.021995239 0.060309529 0.74500006 6386035
0.023477143 0.06047143 0.74700004 6452080
0.024900001 0.06047143 0.74700004 6582894
0.026358096 0.060552381 0.74800003 6386029
0.027782857 0.060552381 0.74800003 6254953
0.029520001 0.0612 0.75600004 6056806
0.030960003 0.0612 0.75600004 5859961
0.032485716 0.061361905 0.75800002 7441292
0.033929523 0.061361905 0.75800002 9080204
0.035513334 0.061604768 0.76100004 8949132
0.036962859 0.061604768 0.76100004 8883082
0.038513333 0.061766669 0.76300001 8883337
0.040071428 0.061928574 0.76500005 8948874
0.041637145 0.062090475 0.76700002 8817547
0.043266669 0.062333338 0.77000004 8685188
0.044849522 0.062495239 0.77200001 8488061
0.046500001 0.062738098 0.77500004 8355707
0.048100002 0.062899999 0.77700001 8092281
0.050473336 0.064033337 0.79100001 7895157
0.05198 0.064033337 0.79100001 7763569
0.053351428 0.063871428 0.78900003 7632755
0.054993331 0.064033337 0.79100001 7698806
0.056499999 0.064033337 0.79100001 7829618
0.058006667 0.064033337 0.79100001 7763054
-0.059760004 0.062640004 0.75600004 9679301
-0.058320004 0.062640004 0.75600004 13360337
-0.056654289 0.06239143 0.75300002 13294046
-0.055146668 0.062308576 0.75200003 13227740
-0.053571433 0.062142864 0.75000006 13424859
-0.052003808 0.061977144 0.74800003 13687261
-0.050579049 0.061977144 0.74800003 13818335
-0.048957143 0.061728574 0.74500006 13883871
-0.047410477 0.061562862 0.74300003 13883616
-0.045933336 0.061480001 0.74200004 13883614
-0.044520002 0.061480001 0.74200004 13817820
-0.042990476 0.061314281 0.74000001 13752281
-0.041580953 0.061314281 0.74000001 13686487
-0.040117145 0.061231427 0.73900002 13685976
-0.038709525 0.061231427 0.73900002 13554649
-0.037200954 0.061065719 0.73700005 13488855
-0.035797145 0.061065719 0.73700005 13423062
-0.034393337 0.061065719 0.73700005 13423060
-0.03307905 0.061231427 0.73900002 13357523
-0.031671431 0.061231427 0.73900002 13291729
-0.030263809 0.061231427 0.73900002 13225680
-0.028856192 0.061231427 0.73900002 13159886
-0.027448572 0.061231427 0.73900002 13094348
-0.026040953 0.061231427 0.73900002 13093577
-0.024566669 0.061065719 0.73700005 12962246
-0.023162859 0.061065719 0.73700005 12896712
-0.02175905 0.061065719 0.73700005 12765387
-0.02035524 0.061065719 0.73700005 12633546
-0.018951431 0.061065719 0.73700005 12567753
-0.01754762 0.061065719 0.73700005 12501704
-0.01614381 0.061065719 0.73700005 12436167
-0.014740001 0.061065719 0.73700005 12370373
-0.013336192 0.061065719 0.73700005 12304836
-0.011932382 0.061065719 0.73700005 12239044
-0.010528572 0.061065719 0.73700005 12107972
-0.0091247624 0.061065719 0.73700005 12041923
-0.0077419053 0.061231427 0.73900002 11976386
-0.0063171433 0.061065719 0.73700005 11910848
-0.0049266671 0.061231427 0.73900002 11779262
-0.0035190478 0.061231427 0.73900002 11712957
-0.0021114287 0.061231427 0.73900002 11647420
-0.00070190482 0.061065719 0.73700005 11581883
0.00070190482 0.061065719 0.73700005 11450042
0.0021057145 0.061065719 0.73700005 11253178
0.003509524 0.061065719 0.73700005 11318970
0.0049133338 0.061065719 0.73700005 11451561
0.0063171433 0.061065719 0.73700005 9871513
0.0077419053 0.061231427 0.73900002 8355456
0.0091495244 0.061231427 0.73900002 7038567
0.010571429 0.061314281 0.74000001 5794668
0.012013334 0.061480001 0.74200004 5991537
0.013426667 0.061480001 0.74200004 6122869
0.01486 0.061562862 0.74300003 6188410
0.016275238 0.061562862 0.74300003 6253943
0.017690476 0.061562862 0.74300003 6188404
0.019105716 0.061562862 0.74300003 6122868
0.020520953 0.061562862 0.74300003 6123124
0.021995239 0.061728574 0.74500006 6189170
0.023414288 0.061728574 0.74500006 6254449
0.024933333 0.061977144 0.74800003 6385518
0.026358096 0.061977144 0.74800003 6254443
0.027857145 0.062142864 0.75000006 6123623
0.029480955 0.062557146 0.75500005 5925476
0.030960003 0.062640004 0.75600004 5728120
0.032400001 0.062640004 0.75600004 7309196
0.033929523 0.062805712 0.75800002 8884362
0.035373334 0.062805712 0.75800002 8883592
0.036962859 0.063054286 0.76100004 8817288
0.038412381 0.063054286 0.76100004 8883080
0.040071428 0.063385718 0.76500005 9014407
0.041637145 0.063551433 0.76700002 8817286
0.043266669 0.063800007 0.77000004 8685442
0.044849522 0.063965715 0.77200001 8488062
0.046500001 0.064214289 0.77500004 8355707
0.048100002 0.064379998 0.77700001 8158328
0.04958 0.064379998 0.77700001 7960690
0.05198 0.065540001 0.79100001 7829612
0.053486664 0.065540001 0.79100001 7698543
0.054993331 0.065540001 0.79100001 7829618
0.05664286 0.065705717 0.79300004 7960686
0.058153339 0.065705717 0.79300004 7960171
0.059663814 0.065705717 0.79300004 7956302
-0.060076196 0.064419053 0.76000005 10400965
-0.058320004 0.06408 0.75600004 13359057
-0.056804765 0.063995242 0.75500005 13293789
-0.055146668 0.063740954 0.75200003 13228252
-0.053571433 0.063571438 0.75000006 13424859
-0.052003808 0.0634019 0.74800003 13687005
-0.050579049 0.0634019 0.74800003 13752543
-0.048825715 0.062978096 0.74300003 13883872
-0.047410477 0.062978096 0.74300003 13883874
-0.045933336 0.062893331 0.74200004 13883614
-0.044399999 0.062723808 0.74000001 13817819
-0.042990476 0.062723808 0.74000001 13817818
-0.041580953 0.062723808 0.74000001 13752280
-0.040117145 0.06263905 0.73900002 13751768
-0.038709525 0.06263905 0.73900002 13620440
-0.037200954 0.062469527 0.73700005 13554390
-0.035797145 0.062469527 0.73700005 13488853
-0.034393337 0.062469527 0.73700005 13423060
-0.03307905 0.06263905 0.73900002 13357522
-0.031585716 0.062469527 0.73700005 13357265
-0.030181907 0.062469527 0.73700005 13291472
-0.028778099 0.062469527 0.73700005 13225423
-0.027374288 0.062469527 0.73700005 13160142
-0.025970478 0.062469527 0.73700005 13093580
-0.024566669 0.062469527 0.73700005 12962762
-0.023162859 0.062469527 0.73700005 12896715
-0.02175905 0.062469527 0.73700005 12765643
-0.02035524 0.062469527 0.73700005 12699338
-0.018951431 0.062469527 0.73700005 12633544
-0.01754762 0.062469527 0.73700005 12567751
-0.01614381 0.062469527 0.73700005 12501958
-0.014740001 0.062469527 0.73700005 12436165
-0.013336192 0.062469527 0.73700005 12304837
-0.011932382 0.062469527 0.73700005 12239301
-0.010528572 0.062469527 0.73700005 12173764
-0.0091495244 0.06263905 0.73900002 12107714
-0.0077419053 0.06263905 0.73900002 12042177
-0.0063171433 0.062469527 0.73700005 11976127
-0.0049266671 0.06263905 0.73900002 11844798
-0.003509524 0.062469527 0.73700005 11778494
-0.0021114287 0.06263905 0.73900002 11712957
-0.00070190482 0.062469527 0.73700005 11647163
0.00070190482 0.062469527 0.73700005 11450041
0.0021057145 0.062469527 0.73700005 11318713
0.003509524 0.062469527 0.73700005 11385018
0.0049133338 0.062469527 0.73700005 11516587
0.0063342857 0.06263905 0.73900002 10267036
0.0077523813 0.062723808 0.74000001 9013634
0.0091866674 0.062893331 0.74200004 7366249
0.010600001 0.062893331 0.74200004 5728619
0.012013334 0.062893331 0.74200004 5860461
0.013444763 0.062978096 0.74300003 6057072
0.01486 0.062978096 0.74300003 6057588
0.016275238 0.062978096 0.74300003 6057073
0.017690476 0.062978096 0.74300003 5991279
0.019105716 0.062978096 0.74300003 5925744
0.020520953 0.062978096 0.74300003 5925745
0.021995239 0.063147627 0.74500006 5991792
0.02357143 0.063571438 0.75000006 6057839
0.025000002 0.063571438 0.75000006 6188909
0.026428573 0.063571438 0.75000006 6123370
0.027968572 0.063825712 0.75300002 6057575
0.029480955 0.063995242 0.75500005 5859684
0.030960003 0.06408 0.75600004 5662326
0.032400001 0.06408 0.75600004 7177353
0.033929523 0.064249523 0.75800002 8752268
0.035466667 0.064419053 0.76000005 8752526
0.036962859 0.064503811 0.76100004 8817548
0.038412381 0.064503811 0.76100004 8948362
0.039966665 0.064673327 0.76300001 9079437
0.041637145 0.06501238 0.76700002 8882832
0.043266669 0.065266669 0.77000004 8750728
0.044849522 0.065436192 0.77200001 8553600
0.046500001 0.06569048 0.77500004 8355964
0.048100002 0.065859996 0.77700001 8158841
0.04958 0.065859996 0.77700001 8026485
0.05198 0.067046665 0.79100001 7895410
0.053486664 0.067046665 0.79100001 7829875
0.054993331 0.067046665 0.79100001 7960948
0.056499999 0.067046665 0.79100001 8092016
0.058006667 0.067046665 0.79100001 8157548
0.059513334 0.067046665 0.79100001 8289119
-0.060155239 0.065953337 0.76100004 10005446
-0.058320004 0.065520003 0.75600004 13030097
-0.056804765 0.065433331 0.75500005 13162461
-0.055146668 0.065173343 0.75200003 13356764
-0.053571433 0.065000005 0.75000006 13555675
-0.052003808 0.064826667 0.74800003 13818333
-0.050579049 0.064826667 0.74800003 13883872
-0.048825715 0.064393342 0.74300003 13949666
-0.04734667 0.064306669 0.74200004 13949412
-0.045933336 0.064306669 0.74200004 13949407
-0.044520002 0.064306669 0.74200004 13883355
-0.042990476 0.064133339 0.74000001 13817562
-0.041580953 0.064133339 0.74000001 13752026
-0.04017143 0.064133339 0.74000001 13686488
-0.038761906 0.064133339 0.74000001 13620439
-0.037301905 0.064046666 0.73900002 13554390
-0.035797145 0.063873336 0.73700005 13423317
-0.034393337 0.063873336 0.73700005 13357267
-0.03307905 0.064046666 0.73900002 13357266
-0.031671431 0.064046666 0.73900002 13357265
-0.030263809 0.064046666 0.73900002 13225937
-0.028856192 0.064046666 0.73900002 13159889
-0.027448572 0.064046666 0.73900002 13094097
-0.025970478 0.063873336 0.73700005 13093840
-0.024566669 0.063873336 0.73700005 12962511
-0.023162859 0.063873336 0.73700005 12896973
-0.02175905 0.063873336 0.73700005 12831180
-0.02035524 0.063873336 0.73700005 12699850
-0.018951431 0.063873336 0.73700005 12634056
-0.01754762 0.063873336 0.73700005 12568262
-0.01614381 0.063873336 0.73700005 12502469
-0.014740001 0.063873336 0.73700005 12436678
-0.013336192 0.063873336 0.73700005 12370375
-0.011932382 0.063873336 0.73700005 12304326
-0.010528572 0.063873336 0.73700005 12173509
-0.0091247624 0.063873336 0.73700005 12107970
-0.0077209529 0.063873336 0.73700005 12042176
-0.0063171433 0.063873336 0.73700005 11975871
-0.0049133338 0.063873336 0.73700005 11844799
-0.003509524 0.063873336 0.73700005 11778495
-0.0021114287 0.064046666 0.73900002 11712959
-0.00070190482 0.063873336 0.73700005 11646907
0.00070190482 0.063873336 0.73700005 11515576
0.0021114287 0.064046666 0.73900002 11384249
0.0035190478 0.064046666 0.73900002 11384506
0.0049266671 0.064046666 0.73900002 11450796
0.0063342857 0.064046666 0.73900002 10530463
0.0077523813 0.064133339 0.74000001 9606533
0.0091866674 0.064306669 0.74200004 7696235
0.010600001 0.064306669 0.74200004 5792874
0.012029524 0.064393342 0.74300003 5925225
0.013444763 0.064393342 0.74300003 6056812
0.01486 0.064393342 0.74300003 5991023
0.016275238 0.064393342 0.74300003 5991020
0.017738096 0.064566672 0.74500006 5925482
0.019157145 0.064566672 0.74500006 5860460
0.020576192 0.064566672 0.74500006 5860206
0.022054287 0.064740002 0.74700004 5925742
0.023508571 0.064826667 0.74800003 5991534
0.025000002 0.065000005 0.75000006 6057580
0.026428573 0.065000005 0.75000006 5991786
0.027968572 0.065260001 0.75300002 5991783
0.029480955 0.065433331 0.75500005 5793892
0.030960003 0.065520003 0.75600004 5662325
0.032400001 0.065520003 0.75600004 7111047
0.033929523 0.065693334 0.75800002 8554638
0.035466667 0.065866672 0.76000005 8686229
0.036962859 0.065953337 0.76100004 8817808
0.038412381 0.065953337 0.76100004 8882828
0.039966665 0.066126667 0.76300001 9013651
0.041637145 0.066473335 0.76700002 8882586
0.043266669 0.066733338 0.77000004 8750734
0.044849522 0.066906668 0.77200001 8553603
0.046380006 0.066993333 0.77300006 8356222
0.047976192 0.067166664 0.77500004 8224378
0.050856192 0.069073342 0.79700005 8027001
0.052111432 0.068726666 0.79300004 7895161
0.053351428 0.068380006 0.78900003 7763831
0.054854289 0.068380006 0.78900003 7895414
0.056499999 0.068553336 0.79100001 8026482
0.058006667 0.068553336 0.79100001 8092014
0.059513334 0.068553336 0.79100001 8158065
-0.059760004 0.066960007 0.75600004 9544641
-0.058320004 0.066960007 0.75600004 12768463
-0.056804765 0.066871434 0.75500005 13096670
-0.055146668 0.066605717 0.75200003 13489884
-0.053571433 0.066428579 0.75000006 13686491
-0.052003808 0.066251434 0.74800003 13949660
-0.050579049 0.066251434 0.74800003 14015710
-0.048825715 0.065808572 0.74300003 14080991
-0.04734667 0.065720007 0.74200004 14015457
-0.045933336 0.065720007 0.74200004 14014941
-0.044520002 0.065720007 0.74200004 13883610
-0.043106668 0.065720007 0.74200004 13817562
-0.041580953 0.065542854 0.74000001 13686491
-0.04017143 0.065542854 0.74000001 13620697
-0.038761906 0.065542854 0.74000001 13554904
-0.037301905 0.065454289 0.73900002 13554646
-0.035797145 0.065277152 0.73700005 13423317
-0.034393337 0.065277152 0.73700005 13357524
-0.03307905 0.065454289 0.73900002 13357011
-0.031671431 0.065454289 0.73900002 13357010
-0.030263809 0.065454289 0.73900002 13225938
-0.028856192 0.065454289 0.73900002 13160145
-0.027448572 0.065454289 0.73900002 13094096
-0.025970478 0.065277152 0.73700005 13093839
-0.024566669 0.065277152 0.73700005 13028047
-0.023162859 0.065277152 0.73700005 12962509
-0.02175905 0.065277152 0.73700005 12831436
-0.02035524 0.065277152 0.73700005 12765643
-0.018951431 0.065277152 0.73700005 12634314
-0.01754762 0.065277152 0.73700005 12568264
-0.01614381 0.065277152 0.73700005 12502726
-0.014740001 0.065277152 0.73700005 12501958
-0.013336192 0.065277152 0.73700005 12436166
-0.011932382 0.065277152 0.73700005 12370373
-0.010528572 0.065277152 0.73700005 12239043
-0.0091247624 0.065277152 0.73700005 12173506
-0.0077209529 0.065277152 0.73700005 12107712
-0.0063171433 0.065277152 0.73700005 12041664
-0.0049133338 0.065277152 0.73700005 11910335
-0.003509524 0.065277152 0.73700005 11778750
-0.0021114287 0.065454289 0.73900002 11712957
-0.00070380955 0.065454289 0.73900002 11712699
0.00070380955 0.065454289 0.73900002 11581369
0.0021114287 0.065454289 0.73900002 11515319
0.0035190478 0.065454289 0.73900002 11449781
0.0049266671 0.065454289 0.73900002 11383984
0.0063428571 0.065542854 0.74000001 10793900
0.0077733337 0.065720007 0.74200004 10264720
0.0091990475 0.065808572 0.74300003 8026485
0.010614286 0.065808572 0.74300003 5859438
0.012029524 0.065808572 0.74300003 5924456
0.013444763 0.065808572 0.74300003 6055788
0.014900001 0.065985717 0.74500006 5990768
0.01631905 0.065985717 0.74500006 5990766
0.017738096 0.065985717 0.74500006 5925229
0.019157145 0.065985717 0.74500006 5859694
0.020631431 0.066162854 0.74700004 5859695
0.022083811 0.066251434 0.74800003 5859950
0.02357143 0.066428579 0.75000006 5860204
0.025000002 0.066428579 0.75000006 5925739
0.026499048 0.066605717 0.75200003 5925994
0.027968572 0.066694282 0.75300002 5991019
0.029480955 0.066871434 0.75500005 5793900
0.030960003 0.066960007 0.75600004 5662580
0.032400001 0.066960007 0.75600004 7044989
0.033929523 0.067137145 0.75800002 8423303
0.035466667 0.06731429 0.76000005 8622994
0.036962859 0.067402862 0.76100004 8818063
0.038412381 0.067402862 0.76100004 8883083
0.039966665 0.06758 0.76300001 8947854
0.041637145 0.06793429 0.76700002 8816785
0.043266669 0.0682 0.77000004 8750730
0.044849522 0.068377137 0.77200001 8553603
0.046500001 0.068642862 0.77500004 8421759
0.048100002 0.06882 0.77700001 8224635
0.050856192 0.070591427 0.79700005 8092794
0.052111432 0.070237145 0.79300004 7895161
0.053351428 0.069882862 0.78900003 7698554
0.054854289 0.069882862 0.78900003 7829882
0.056499999 0.07006 0.79100001 7960949
0.058006667 0.07006 0.79100001 8025967
0.059513334 0.07006 0.79100001 8092017
-0.059760004 0.068400003 0.75600004 8036029
-0.058320004 0.068400003 0.75600004 12768974
-0.056804765 0.068309531 0.75500005 13162207
-0.055146668 0.068038099 0.75200003 13488861
-0.053714287 0.068038099 0.75200003 13686235
-0.052003808 0.067676194 0.74800003 13884380
-0.050579049 0.067676194 0.74800003 13950173
-0.048825715 0.067223817 0.74300003 14081245
-0.04734667 0.067133337 0.74200004 14080990
-0.045933336 0.067133337 0.74200004 14080732
-0.044520002 0.067133337 0.74200004 13949402
-0.043106668 0.067133337 0.74200004 13817819
-0.041693337 0.067133337 0.74200004 13686236
-0.04017143 0.066952385 0.74000001 13554650
-0.038761906 0.066952385 0.74000001 13554649
-0.037301905 0.066861905 0.73900002 13554903
-0.035797145 0.06668096 0.73700005 13423318
-0.034393337 0.06668096 0.73700005 13292245
-0.03307905 0.066861905 0.73900002 13357268
-0.031671431 0.066861905 0.73900002 13422803
-0.030263809 0.066861905 0.73900002 13291475
-0.028856192 0.066861905 0.73900002 13225937
-0.027448572 0.066861905 0.73900002 13160144
-0.026040953 0.066861905 0.73900002 13094351
-0.024566669 0.06668096 0.73700005 13028047
-0.023162859 0.06668096 0.73700005 12962510
-0.021818096 0.066861905 0.73900002 12831437
-0.02035524 0.06668096 0.73700005 12766412
-0.018951431 0.06668096 0.73700005 12634060
-0.01754762 0.06668096 0.73700005 12502217
-0.016187619 0.066861905 0.73900002 12501959
-0.01478 0.066861905 0.73900002 12436422
-0.013372381 0.066861905 0.73900002 12370886
-0.011932382 0.06668096 0.73700005 12305348
-0.010528572 0.06668096 0.73700005 12239554
-0.0091247624 0.06668096 0.73700005 12173761
-0.0077209529 0.06668096 0.73700005 12042433
-0.0063171433 0.06668096 0.73700005 11976384
-0.0049133338 0.06668096 0.73700005 11910592
-0.0035190478 0.066861905 0.73900002 11844797
-0.0021114287 0.066861905 0.73900002 11778747
-0.00070380955 0.066861905 0.73900002 11712955
0.00070380955 0.066861905 0.73900002 11581627
0.0021114287 0.066861905 0.73900002 11515574
0.0035190478 0.066861905 0.73900002 11384241
0.0049266671 0.066861905 0.73900002 11317941
0.0063428571 0.066952385 0.74000001 10990265
0.0077733337 0.067133337 0.74200004 10661020
0.0091990475 0.067223817 0.74300003 8554367
0.010614286 0.067223817 0.74300003 6450291
0.012029524 0.067223817 0.74300003 6120552
0.013444763 0.067223817 0.74300003 5793644
0.014900001 0.067404769 0.74500006 5859185
0.01631905 0.067404769 0.74500006 5859441
0.017738096 0.067404769 0.74500006 5793905
0.019208571 0.067585714 0.74700004 5793905
0.020631431 0.067585714 0.74700004 5793905
0.022083811 0.067676194 0.74800003 5794158
0.02357143 0.067857146 0.75000006 5794155
0.025000002 0.067857146 0.75000006 5794410
0.026499048 0.068038099 0.75200003 5794154
0.027931429 0.068038099 0.75200003 5859695
0.029402858 0.068128571 0.75300002 5662836
0.030919051 0.068309531 0.75500005 5532019
0.032400001 0.068400003 0.75600004 6715507
0.033929523 0.068580955 0.75800002 7964545
0.035513334 0.068852387 0.76100004 8491920
0.036962859 0.068852387 0.76100004 8949389
0.038412381 0.068852387 0.76100004 8948363
0.040071428 0.069214284 0.76500005 9013386
0.041637145 0.069395244 0.76700002 8882057
0.043266669 0.069666669 0.77000004 8750982
0.044849522 0.069847621 0.77200001 8553859
0.046500001 0.070119046 0.77500004 8421759
0.048100002 0.070299998 0.77700001 8224636
0.050856192 0.072109528 0.79700005 8093051
0.05198 0.071566671 0.79100001 7829626
0.053351428 0.071385719 0.78900003 7633020
0.054854289 0.071385719 0.78900003 7764351
0.056357145 0.071385719 0.78900003 7961208
0.058006667 0.071566671 0.79100001 7829361
0.059513334 0.071566671 0.79100001 7763569
-0.059760004 0.069839999 0.75600004 6527676
-0.058242857 0.069747627 0.75500005 12835021
-0.056654289 0.06956286 0.75300002 13162463
-0.055146668 0.069470473 0.75200003 13554397
-0.053571433 0.069285721 0.75000006 13686234
-0.052003808 0.069100954 0.74800003 13818588
-0.050511431 0.069008574 0.74700004 13950173
-0.048825715 0.068639047 0.74300003 14146782
-0.047410477 0.068639047 0.74300003 14147039
-0.045933336 0.068546675 0.74200004 14146781
-0.044520002 0.068546675 0.74200004 14015451
-0.043106668 0.068546675 0.74200004 13883355
-0.041580953 0.068361901 0.74000001 13685979
-0.04017143 0.068361901 0.74000001 13554649
-0.038761906 0.068361901 0.74000001 13554648
-0.037301905 0.068269521 0.73900002 13554647
-0.035797145 0.068084769 0.73700005 13423574
-0.034393337 0.068084769 0.73700005 13292245
-0.03307905 0.068269521 0.73900002 13423061
-0.031671431 0.068269521 0.73900002 13553877
-0.030263809 0.068269521 0.73900002 13422805
-0.028856192 0.068269521 0.73900002 13291731
-0.027448572 0.068269521 0.73900002 13160656
-0.026040953 0.068269521 0.73900002 13094352
-0.024633335 0.068269521 0.73900002 13028303
-0.023225715 0.068269521 0.73900002 12962766
-0.021818096 0.068269521 0.73900002 12897230
-0.020410476 0.068269521 0.73900002 12831692
-0.019002859 0.068269521 0.73900002 12634059
-0.017595239 0.068269521 0.73900002 12502473
-0.016187619 0.068269521 0.73900002 12436679
-0.01478 0.068269521 0.73900002 12436679
-0.013372381 0.068269521 0.73900002 12371142
-0.011932382 0.068084769 0.73700005 12305348
-0.010528572 0.068084769 0.73700005 12239810
-0.0091247624 0.068084769 0.73700005 12173761
-0.0077209529 0.068084769 0.73700005 12042689
-0.0063171433 0.068084769 0.73700005 11976385
-0.0049133338 0.068084769 0.73700005 11910849
-0.003509524 0.068084769 0.73700005 11910334
-0.0021114287 0.068269521 0.73900002 11779259
-0.00070380955 0.068269521 0.73900002 11712955
0.00070380955 0.068269521 0.73900002 11647419
0.0021114287 0.068269521 0.73900002 11581111
0.0035190478 0.068269521 0.73900002 11384243
0.0049266671 0.068269521 0.73900002 11252405
0.0063428571 0.068361901 0.74000001 11186872
0.0077733337 0.068546675 0.74200004 11121058
0.0091866674 0.068546675 0.74200004 9082509
0.010614286 0.068639047 0.74300003 7042425
0.012029524 0.068639047 0.74300003 6316645
0.013444763 0.068639047 0.74300003 5597033
0.014900001 0.068823814 0.74500006 5662318
0.01631905 0.068823814 0.74500006 5793390
0.017738096 0.068823814 0.74500006 5728110
0.019208571 0.069008574 0.74700004 5728110
0.020659048 0.069100954 0.74800003 5728366
0.022083811 0.069100954 0.74800003 5728364
0.02357143 0.069285721 0.75000006 5728618
0.025000002 0.069285721 0.75000006 5728362
0.026499048 0.069470473 0.75200003 5728363
0.027931429 0.069470473 0.75200003 5728367
0.029402858 0.06956286 0.75300002 5531763
0.030919051 0.069747627 0.75500005 5400690
0.032400001 0.069839999 0.75600004 6451825
0.033929523 0.070024759 0.75800002 7570308
0.035513334 0.070301905 0.76100004 8360855
0.036962859 0.070301905 0.76100004 9146000
0.038412381 0.070301905 0.76100004 9079178
0.040071428 0.070671432 0.76500005 9079177
0.041637145 0.070856191 0.76700002 8948360
0.043266669 0.071133338 0.77000004 8816517
0.044849522 0.071318097 0.77200001 8619651
0.046500001 0.071595237 0.77500004 8421758
0.048100002 0.071780004 0.77700001 8224634
0.050856192 0.073627621 0.79700005 8092789
0.052111432 0.073258102 0.79300004 7829872
0.053351428 0.072888575 0.78900003 7567476
0.054854289 0.072888575 0.78900003 7764856
0.056357145 0.072888575 0.78900003 7960942
-0.062090475 0.072317138 0.76700002 282731
-0.060313337 0.071940005 0.76300001 6461115
-0.058320004 0.071280003 0.75600004 12638925
-0.056654289 0.070997149 0.75300002 13096416
-0.055146668 0.070902862 0.75200003 13620189
-0.053571433 0.070714295 0.75000006 13686490
-0.052003808 0.070525713 0.74800003 13818332
-0.050511431 0.070431434 0.74700004 13949918
-0.048825715 0.070054293 0.74300003 14147039
-0.04734667 0.069960006 0.74200004 14081504
-0.045933336 0.069960006 0.74200004 14081502
-0.044520002 0.069960006 0.74200004 13949660
-0.043106668 0.069960006 0.74200004 13883355
-0.041580953 0.069771431 0.74000001 13751770
-0.04017143 0.069771431 0.74000001 13620441
-0.038761906 0.069771431 0.74000001 13620184
-0.037301905 0.069677144 0.73900002 13554647
-0.03589429 0.069677144 0.73900002 13489110
-0.034393337 0.069488578 0.73700005 13357782
-0.03312381 0.069771431 0.74000001 13423318
-0.031671431 0.069677144 0.73900002 13489111
-0.030263809 0.069677144 0.73900002 13423064
-0.028856192 0.069677144 0.73900002 13357524
-0.027448572 0.069677144 0.73900002 13225937
-0.025970478 0.069488578 0.73700005 13094352
-0.024566669 0.069488578 0.73700005 13028560
-0.023162859 0.069488578 0.73700005 12963023
-0.021818096 0.069677144 0.73900002 12897231
-0.020410476 0.069677144 0.73900002 12831436
-0.019002859 0.069677144 0.73900002 12699850
-0.017595239 0.069677144 0.73900002 12633801
-0.016187619 0.069677144 0.73900002 12502472
-0.01478 0.069677144 0.73900002 12436935
-0.013372381 0.069677144 0.73900002 12371143
-0.011932382 0.069488578 0.73700005 12370885
-0.010528572 0.069488578 0.73700005 12239555
-0.0091247624 0.069488578 0.73700005 12173762
-0.0077209529 0.069488578 0.73700005 12107969
-0.0063171433 0.069488578 0.73700005 12042177
-0.0049133338 0.069488578 0.73700005 11976386
-0.003509524 0.069488578 0.73700005 11910591
-0.0021114287 0.069677144 0.73900002 11779004
-0.00070380955 0.069677144 0.73900002 11647419
0.00070380955 0.069677144 0.73900002 11581371
0.0021114287 0.069677144 0.73900002 11515576
0.0035190478 0.069677144 0.73900002 11384246
0.0049266671 0.069677144 0.73900002 11252662
0.0063428571 0.069771431 0.74000001 11252663
0.0077523813 0.069771431 0.74000001 11253673
0.0091866674 0.069960006 0.74200004 9740443
0.010614286 0.070054293 0.74300003 8289919
0.012029524 0.070054293 0.74300003 6907491
0.013444763 0.070054293 0.74300003 5531495
0.01486 0.070054293 0.74300003 5596779
0.016275238 0.070054293 0.74300003 5662059
0.017738096 0.070242859 0.74500006 5662316
0.019208571 0.070431434 0.74700004 5662572
0.020631431 0.070431434 0.74700004 5596780
0.022083811 0.070525713 0.74800003 5531242
0.02357143 0.070714295 0.75000006 5531241
0.025000002 0.070714295 0.75000006 5596779
0.026499048 0.070902862 0.75200003 5662573
0.027931429 0.070902862 0.75200003 5728624
0.029402858 0.070997149 0.75300002 5728371
0.030837145 0.070997149 0.75300002 5728369
0.032357145 0.071185715 0.75500005 6385519
0.033840001 0.071280003 0.75600004 7110790
0.035466667 0.071657151 0.76000005 8098206
0.036962859 0.071751431 0.76100004 9146004
0.038412381 0.071751431 0.76100004 9079178
0.040071428 0.072128579 0.76500005 9013640
0.041637145 0.072317138 0.76700002 8882823
0.043266669 0.0726 0.77000004 8751237
0.044849522 0.072788574 0.77200001 8554115
0.046500001 0.073071435 0.77500004 8356478
0.048100002 0.073260002 0.77700001 8224633
0.04958 0.073260002 0.77700001 8092784
0.051651429 0.074108571 0.78600001 7895399
0.053148571 0.074108571 0.78600001 7764076
0.054645717 0.074108571 0.78600001 7895410
0.056357145 0.074391425 0.78900003 8026213
-0.061928574 0.073585719 0.76500005 409441
-0.060313337 0.073393337 0.76300001 6460084
-0.058474287 0.07291238 0.75800002 12506312
-0.056804765 0.072623812 0.75500005 13096157
-0.055146668 0.072335243 0.75200003 13686237
