# .PCD v0.7 - Point Cloud Data file format
VERSION 0.7
FIELDS x y z rgba
SIZE 4 4 4 4
TYPE F F F U
COUNT 1 1 1 1
WIDTH 1092
HEIGHT 1
VIEWPOINT 0 0 0 1 0 0 0
POINTS 1092
DATA ascii
-0.036797144 0.014580001 0.72900003 12700105
-0.035408571 0.014580001 0.72900003 12304073
-0.034019999 0.014580001 0.72900003 11910846
-0.03272095 0.01462 0.73100001 11449523
-0.03132857 0.01462 0.73100001 11056044
-0.029936191 0.01462 0.73100001 10328741
-0.028543809 0.01462 0.73100001 9608369
-0.027151428 0.01462 0.73100001 10725309
-0.025759049 0.01462 0.73100001 11848148
-0.024366667 0.01462 0.73100001 13166314
-0.024702856 0.01572 0.78600001 14541285
-0.023205714 0.01572 0.78600001 14146273
-0.021653336 0.01568 0.78400004 13817822
-0.020108573 0.01564 0.78200006 13620700
-0.018571429 0.015600001 0.78000003 13423577
-0.017063811 0.015580001 0.77900004 13225943
-0.015539999 0.015539999 0.77700001 13028820
-0.01402381 0.015500002 0.77500004 13028817
-0.012547619 0.015500002 0.77500004 13028822
-0.011042858 0.015460001 0.77300006 13029083
-0.0095333336 0.0154 0.77000004 13094875
-0.0080457143 0.015360001 0.76800001 13029595
-0.0065742861 0.01534 0.76700002 13028823
-0.0051133335 0.01534 0.76700002 12897235
-0.0036428573 0.0153 0.76500005 12831698
-0.0021800001 0.015260001 0.76300001 12897233
-0.00072666665 0.015260001 0.76300001 12963028
0.00072380959 0.015200001 0.76000005 12963287
0.0021657145 0.01516 0.75800002 13029082
0.0036000002 0.015120002 0.75600004 13160669
0.0050400002 0.015120002 0.75600004 13358302
0.006471429 0.015100001 0.75500005 13489630
0.0078885714 0.01506 0.75300002 13621214
0.0093104765 0.015040001 0.75200003 13687007
0.010742858 0.015040001 0.75200003 13817822
0.012142858 0.015000001 0.75000006 13752285
0.013571429 0.015000001 0.75000006 13752027
0.015000001 0.015000001 0.75000006 13621210
0.016428573 0.015000001 0.75000006 13489113
0.017809525 0.01496 0.74800003 13292503
0.019234287 0.01496 0.74800003 13160918
0.020659048 0.01496 0.74800003 12898005
0.022083811 0.01496 0.74800003 12634058
0.023477143 0.014940001 0.74700004 12303807
0.024900001 0.014940001 0.74700004 11976125
0.026322858 0.014940001 0.74700004 11580859
0.027745714 0.014940001 0.74700004 11252407
0.029168572 0.014940001 0.74700004 10987955
0.030632382 0.01496 0.74800003 10791087
0.032057144 0.01496 0.74800003 10660010
0.033571433 0.015000001 0.75000006 10594215
0.035000004 0.015000001 0.75000006 10528421
0.036428574 0.015000001 0.75000006 10528165
0.037958097 0.015040001 0.75200003 10462630
0.039390475 0.015040001 0.75200003 10462116
0.04082286 0.015040001 0.75200003 10396579
0.04231143 0.01506 0.75300002 10330785
0.043745715 0.01506 0.75300002 10199711
0.045300003 0.015100001 0.75500005 10133663
0.046738099 0.015100001 0.75500005 10067870
0.048240002 0.015120002 0.75600004 10067357
0.049680002 0.015120002 0.75600004 10001563
0.051120002 0.015120002 0.75600004 9935768
0.052699048 0.01516 0.75800002 9738389
0.054285716 0.015200001 0.76000005 9541268
0.055733338 0.015200001 0.76000005 9277843
0.057256192 0.01522 0.76100004 9079953
0.05886 0.015260001 0.76300001 9014415
0.06047143 0.0153 0.76500005 9014411
0.061928574 0.0153 0.76500005 8818056
0.063551433 0.01534 0.76700002 8687243
0.065097138 0.015360001 0.76800001 8225422
0.06656 0.015360001 0.76800001 7765366
0.068022862 0.015360001 0.76800001 6906462
0.069666669 0.0154 0.77000004 6120287
0.071595237 0.015500002 0.77500004 5923936
0.073260002 0.015539999 0.77700001 5727071
0.07474 0.015539999 0.77700001 5661534
-0.051169526 0.016121905 0.73600006 6193548
-0.049632382 0.016078096 0.73400003 9945819
-0.048102859 0.016034286 0.73200005 13620697
-0.046708573 0.016034286 0.73200005 13423063
-0.045314286 0.016034286 0.73200005 13291222
-0.04386 0.01601238 0.73100001 13357270
-0.042467616 0.01601238 0.73100001 13488339
-0.041075241 0.01601238 0.73100001 13357008
-0.039574288 0.015968572 0.72900003 13225421
-0.038185716 0.015968572 0.72900003 12963018
-0.036797144 0.015968572 0.72900003 12699849
-0.035408571 0.015968572 0.72900003 12435912
-0.034019999 0.015968572 0.72900003 12107972
-0.03272095 0.01601238 0.73100001 11580864
-0.03132857 0.01601238 0.73100001 11056823
-0.029936191 0.01601238 0.73100001 10527406
-0.028543809 0.01601238 0.73100001 10002348
-0.027151428 0.01601238 0.73100001 10591658
-0.025759049 0.01601238 0.73100001 11123912
-0.024366667 0.01601238 0.73100001 12902630
-0.024702856 0.017217144 0.78600001 14607588
-0.023205714 0.017217144 0.78600001 14278114
-0.021653336 0.017173335 0.78400004 13949152
-0.020108573 0.017129526 0.78200006 13752030
-0.018571429 0.017085714 0.78000003 13555163
-0.017063811 0.017063811 0.77900004 13357528
-0.015539999 0.01702 0.77700001 13160147
-0.01398762 0.016932381 0.77300006 13094351
-0.012515238 0.016932381 0.77300006 13094357
-0.011 0.016866667 0.77000004 13094620
-0.0095333336 0.016866667 0.77000004 13095131
-0.0080457143 0.016822856 0.76800001 13095131
-0.0065742861 0.016800953 0.76700002 13094870
-0.0051000006 0.016757144 0.76500005 13094098
-0.0036428573 0.016757144 0.76500005 13093841
-0.0021800001 0.016713332 0.76300001 13159376
-0.00072666665 0.016713332 0.76300001 13225171
0.0007219048 0.016603809 0.75800002 13225431
0.0021600001 0.016559999 0.75600004 13291484
0.0036000002 0.016559999 0.75600004 13357794
0.0050333338 0.016538097 0.75500005 13489632
0.0064542862 0.016494285 0.75300002 13620959
0.0078885714 0.016494285 0.75300002 13752544
0.0093104765 0.016472382 0.75200003 13752289
0.010742858 0.016472382 0.75200003 13817823
0.012142858 0.016428573 0.75000006 13752286
0.013571429 0.016428573 0.75000006 13752029
0.015000001 0.016428573 0.75000006 13621212
0.016384762 0.016384762 0.74800003 13489114
0.017809525 0.016384762 0.74800003 13292249
0.019234287 0.016384762 0.74800003 13095128
0.020631431 0.016362859 0.74700004 12765656
0.022054287 0.016362859 0.74700004 12502475
0.023477143 0.016362859 0.74700004 12172735
0.024900001 0.016362859 0.74700004 11845053
0.026322858 0.016362859 0.74700004 11514811
0.027745714 0.016362859 0.74700004 11186613
0.029168572 0.016362859 0.74700004 10988464
0.030632382 0.016384762 0.74800003 10791340
0.032057144 0.016384762 0.74800003 10725544
0.033571433 0.016428573 0.75000006 10594467
0.035000004 0.016428573 0.75000006 10593951
0.036428574 0.016428573 0.75000006 10528418
0.037958097 0.016472382 0.75200003 10462374
0.039390475 0.016472382 0.75200003 10462371
0.04082286 0.016472382 0.75200003 10331041
0.04231143 0.016494285 0.75300002 10265248
0.043861907 0.016538097 0.75500005 10199456
0.045300003 0.016538097 0.75500005 10133664
0.046738099 0.016538097 0.75500005 10067616
0.048240002 0.016559999 0.75600004 10067359
0.049680002 0.016559999 0.75600004 10001311
0.051120002 0.016559999 0.75600004 9935515
0.052699048 0.016603809 0.75800002 9738392
0.054285716 0.01664762 0.76000005 9541784
0.055733338 0.01664762 0.76000005 9277337
0.057256192 0.016669523 0.76100004 9080213
0.05886 0.016713332 0.76300001 9079697
0.06047143 0.016757144 0.76500005 9145228
0.061928574 0.016757144 0.76500005 9014663
0.063551433 0.016800953 0.76700002 8883849
0.06501238 0.016800953 0.76700002 8224907
0.06656 0.016822856 0.76800001 7634038
0.068022862 0.016822856 0.76800001 6775394
0.069485709 0.016822856 0.76800001 5923936
0.071780004 0.01702 0.77700001 5792863
0.073260002 0.01702 0.77700001 5727327
0.07474 0.01702 0.77700001 5661279
-0.051169526 0.01752381 0.73600006 5336192
-0.049632382 0.01747619 0.73400003 9419725
-0.048102859 0.017428573 0.73200005 13490130
-0.046708573 0.017428573 0.73200005 13357271
-0.045314286 0.017428573 0.73200005 13291733
-0.04386 0.017404761 0.73100001 13357524
-0.042467616 0.017404761 0.73100001 13422802
-0.041075241 0.017404761 0.73100001 13357264
-0.039574288 0.017357143 0.72900003 13291470
-0.038185716 0.017357143 0.72900003 13028300
-0.036797144 0.017357143 0.72900003 12765643
-0.035408571 0.017357143 0.72900003 12567754
-0.034019999 0.017357143 0.72900003 12370113
-0.03272095 0.017404761 0.73100001 11712441
-0.03132857 0.017404761 0.73100001 11122612
-0.029936191 0.017404761 0.73100001 10791600
-0.028543809 0.017404761 0.73100001 10462123
-0.027151428 0.017404761 0.73100001 10458278
-0.025759049 0.017404761 0.73100001 10467014
-0.024366667 0.017404761 0.73100001 12573671
-0.022974286 0.017404761 0.73100001 14736868
-0.023146667 0.018666666 0.78400004 14409954
-0.021598097 0.018619049 0.78200006 14146785
-0.020057144 0.018571429 0.78000003 13883617
-0.018547619 0.018547619 0.77900004 13686494
-0.017063811 0.018547619 0.77900004 13489371
-0.015539999 0.0185 0.77700001 13291735
-0.01398762 0.018404763 0.77300006 13225684
-0.012515238 0.018404763 0.77300006 13160152
-0.011 0.018333334 0.77000004 13094876
-0.0095085716 0.018285714 0.76800001 13095133
-0.0080352379 0.018261906 0.76700002 13095390
-0.0065742861 0.018261906 0.76700002 13160414
-0.0051000006 0.018214287 0.76500005 13225694
-0.0036333334 0.018166667 0.76300001 13357789
-0.0021800001 0.018166667 0.76300001 13424349
-0.00072380959 0.01809524 0.76000005 13489886
0.0007219048 0.01804762 0.75800002 13490144
0.0021600001 0.018000001 0.75600004 13555681
0.0035952383 0.017976193 0.75500005 13555939
0.00502 0.017928572 0.75300002 13621217
0.0064542862 0.017928572 0.75300002 13752288
0.0078780958 0.017904762 0.75200003 13883872
0.0093104765 0.017904762 0.75200003 13884385
0.010742858 0.017904762 0.75200003 13883615
0.012142858 0.017857144 0.75000006 13818078
0.013571429 0.017857144 0.75000006 13752285
0.015000001 0.017857144 0.75000006 13621211
0.016384762 0.017809525 0.74800003 13489627
0.017809525 0.017809525 0.74800003 13226459
0.019234287 0.017809525 0.74800003 13029590
0.020631431 0.017785715 0.74700004 12699089
0.022054287 0.017785715 0.74700004 12436681
0.023477143 0.017785715 0.74700004 12107457
0.024900001 0.017785715 0.74700004 11779261
0.026322858 0.017785715 0.74700004 11449017
0.027745714 0.017785715 0.74700004 11120819
0.029207621 0.017809525 0.74800003 10989230
0.030632382 0.017809525 0.74800003 10857130
0.032057144 0.017809525 0.74800003 10725798
0.033571433 0.017857144 0.75000006 10660004
0.035000004 0.017857144 0.75000006 10594211
0.036428574 0.017857144 0.75000006 10593701
0.037857145 0.017857144 0.75000006 10527655
0.039390475 0.017904762 0.75200003 10462116
0.04082286 0.017904762 0.75200003 10331042
0.04231143 0.017928572 0.75300002 10265248
0.043861907 0.017976193 0.75500005 10199455
0.045300003 0.017976193 0.75500005 10133663
0.046738099 0.017976193 0.75500005 10067615
0.048240002 0.018000001 0.75600004 10067614
0.049680002 0.018000001 0.75600004 10001309
0.051120002 0.018000001 0.75600004 9935513
0.052699048 0.01804762 0.75800002 9738389
0.054142859 0.01804762 0.75800002 9606801
0.055733338 0.01809524 0.76000005 9342349
0.057256192 0.018119048 0.76100004 9079950
0.05886 0.018166667 0.76300001 9210767
0.06047143 0.018214287 0.76500005 9342090
0.061928574 0.018214287 0.76500005 9211526
0.063551433 0.018261906 0.76700002 9080970
0.06501238 0.018261906 0.76700002 8290189
0.06656 0.018285714 0.76800001 7502967
0.068022862 0.018285714 0.76800001 6578785
0.069666669 0.018333334 0.77000004 5727073
0.071780004 0.0185 0.77700001 5727584
0.073260002 0.0185 0.77700001 5727071
0.07474 0.0185 0.77700001 5726815
-0.048102859 0.018822858 0.73200005 13294283
-0.046708573 0.018822858 0.73200005 13358807
-0.045314286 0.018822858 0.73200005 13489108
-0.04386 0.018797142 0.73100001 13423314
-0.042467616 0.018797142 0.73100001 13422801
-0.041075241 0.018797142 0.73100001 13357264
-0.039574288 0.018745715 0.72900003 13291983
-0.038185716 0.018745715 0.72900003 13028046
-0.036797144 0.018745715 0.72900003 12765901
-0.035408571 0.018745715 0.72900003 12568012
-0.034019999 0.018745715 0.72900003 12370367
-0.032631427 0.018745715 0.72900003 11909554
-0.03132857 0.018797142 0.73100001 11450546
-0.029936191 0.018797142 0.73100001 10922931
-0.028543809 0.018797142 0.73100001 10397611
-0.027151428 0.018797142 0.73100001 10333091
-0.025759049 0.018797142 0.73100001 10268869
-0.024366667 0.018797142 0.73100001 12439528
-0.022974286 0.018797142 0.73100001 14675429
-0.021581903 0.018797142 0.73100001 14476771
-0.021653336 0.020160001 0.78400004 14279395
-0.020057144 0.020057144 0.78000003 14015204
-0.018547619 0.02003143 0.77900004 13752545
-0.01702 0.01998 0.77700001 13555422
-0.015500002 0.019928573 0.77500004 13423323
-0.01398762 0.019877145 0.77300006 13357785
-0.012499048 0.019851428 0.77200001 13292506
-0.011 0.0198 0.77000004 13292252
-0.0095085716 0.01974857 0.76800001 13226719
-0.0080352379 0.019722857 0.76700002 13292258
-0.0065742861 0.019722857 0.76700002 13292518
-0.0051000006 0.019671429 0.76500005 13424363
-0.0036333334 0.019619999 0.76300001 13621994
-0.0021800001 0.019619999 0.76300001 13688554
-0.00072380959 0.019542858 0.76000005 13820906
0.0007219048 0.019491429 0.75800002 13753834
0.0021600001 0.019440001 0.75600004 13687783
0.0035952383 0.019414287 0.75500005 13753060
0.00502 0.019362858 0.75300002 13753059
0.0064457143 0.019337144 0.75200003 13818594
0.0078780958 0.019337144 0.75200003 13949665
0.0093104765 0.019337144 0.75200003 13884129
0.010742858 0.019337144 0.75200003 13883872
0.012142858 0.019285716 0.75000006 13818079
0.013571429 0.019285716 0.75000006 13752541
0.01496 0.019234287 0.74800003 13621467
0.016384762 0.019234287 0.74800003 13490652
0.017785715 0.019208571 0.74700004 13226205
0.019208571 0.019208571 0.74700004 12964051
0.020631431 0.019208571 0.74700004 12633290
0.021995239 0.019157145 0.74500006 12371142
0.023414288 0.019157145 0.74500006 12041155
0.024900001 0.019208571 0.74700004 11713469
0.026322858 0.019208571 0.74700004 11383223
0.027745714 0.019208571 0.74700004 11055025
0.029207621 0.019234287 0.74800003 10988972
0.030632382 0.019234287 0.74800003 10857384
0.032057144 0.019234287 0.74800003 10791588
0.033481907 0.019234287 0.74800003 10660005
0.034906667 0.019234287 0.74800003 10593959
0.036428574 0.019285716 0.75000006 10528168
0.037857145 0.019285716 0.75000006 10462377
0.039390475 0.019337144 0.75200003 10396838
0.04082286 0.019337144 0.75200003 10331299
0.04231143 0.019362858 0.75300002 10265761
0.043861907 0.019414287 0.75500005 10199711
0.045300003 0.019414287 0.75500005 10133919
0.046738099 0.019414287 0.75500005 10133407
0.048240002 0.019440001 0.75600004 10067869
0.049680002 0.019440001 0.75600004 10001563
0.051120002 0.019440001 0.75600004 9935511
0.052699048 0.019491429 0.75800002 9738643
0.054142859 0.019491429 0.75800002 9540746
0.055733338 0.019542858 0.76000005 9276801
0.057256192 0.019568572 0.76100004 8948615
0.05886 0.019619999 0.76300001 9079949
0.06047143 0.019671429 0.76500005 9145737
0.062090475 0.019722857 0.76700002 9145734
0.063551433 0.019722857 0.76700002 9147019
0.065097138 0.01974857 0.76800001 8093584
0.06656 0.01974857 0.76800001 7109752
0.068022862 0.01974857 0.76800001 6447713
0.069485709 0.01974857 0.76800001 5857377
0.071133338 0.0198 0.77000004 5726818
0.0726 0.0198 0.77000004 5661280
0.07474 0.01998 0.77700001 5661023
-0.04836572 0.02032762 0.73600006 13096654
-0.046963815 0.02032762 0.73600006 13359833
-0.045438096 0.020272382 0.73400003 13685718
-0.043920003 0.020217143 0.73200005 13554643
-0.042467616 0.020189524 0.73100001 13422801
-0.041075241 0.020189524 0.73100001 13357519
-0.039574288 0.020134287 0.72900003 13291982
-0.038185716 0.020134287 0.72900003 13027789
-0.036797144 0.020134287 0.72900003 12831178
-0.035360001 0.020106668 0.72800004 12568263
-0.034019999 0.020134287 0.72900003 12370878
-0.03272095 0.020189524 0.73100001 12041142
-0.03132857 0.020189524 0.73100001 11777973
-0.029936191 0.020189524 0.73100001 11054516
-0.028543809 0.020189524 0.73100001 10332329
-0.027151428 0.020189524 0.73100001 10199455
-0.025759049 0.020189524 0.73100001 10069954
-0.024366667 0.020189524 0.73100001 12370917
-0.022911429 0.020134287 0.72900003 14674150
-0.021522857 0.020134287 0.72900003 14543592
-0.021653336 0.021653336 0.78400004 14410727
-0.020057144 0.021542858 0.78000003 14081510
-0.018547619 0.021515239 0.77900004 13818594
-0.01702 0.02146 0.77700001 13687007
-0.015500002 0.021404762 0.77500004 13620958
-0.01398762 0.021349525 0.77300006 13554908
-0.012499048 0.021321906 0.77200001 13489373
-0.011 0.021266669 0.77000004 13423837
-0.0095085716 0.021211429 0.76800001 13423583
-0.0080352379 0.021183809 0.76700002 13423586
-0.0065742861 0.021183809 0.76700002 13489384
-0.0051000006 0.021128573 0.76500005 13687534
-0.0036333334 0.021073334 0.76300001 13884395
-0.0021800001 0.021073334 0.76300001 14017257
-0.00072380959 0.020990476 0.76000005 14147817
0.0007219048 0.020935237 0.75800002 14016489
0.0021571429 0.020852383 0.75500005 13884647
0.0035857144 0.020797143 0.75300002 13884134
0.00502 0.020797143 0.75300002 13949668
0.0064457143 0.020769523 0.75200003 13949667
0.0078780958 0.020769523 0.75200003 14015201
0.0093104765 0.020769523 0.75200003 13949664
0.010714287 0.020714287 0.75000006 13883871
0.012142858 0.020714287 0.75000006 13818334
0.013571429 0.020714287 0.75000006 13818332
0.01496 0.020659048 0.74800003 13687514
0.016384762 0.020659048 0.74800003 13555931
0.017785715 0.020631431 0.74700004 13226205
0.019157145 0.020576192 0.74500006 12962513
0.020576192 0.020576192 0.74500006 12633285
0.021995239 0.020576192 0.74500006 12305347
0.023414288 0.020576192 0.74500006 11974850
0.024833336 0.020576192 0.74500006 11647677
0.026322858 0.020631431 0.74700004 11317432
0.027745714 0.020631431 0.74700004 11054515
0.029168572 0.020631431 0.74700004 10988718
0.030632382 0.020659048 0.74800003 10922921
0.032057144 0.020659048 0.74800003 10791845
0.033481907 0.020659048 0.74800003 10725539
0.034906667 0.020659048 0.74800003 10593954
0.03633143 0.020659048 0.74800003 10528166
0.03775619 0.020659048 0.74800003 10462635
0.039285716 0.020714287 0.75000006 10397096
0.04071429 0.020714287 0.75000006 10331557
0.04231143 0.020797143 0.75300002 10265506
0.043861907 0.020852383 0.75500005 10199968
0.045300003 0.020852383 0.75500005 10199455
0.046738099 0.020852383 0.75500005 10133662
0.048240002 0.020880001 0.75600004 10133149
0.049680002 0.020880001 0.75600004 10067357
0.051120002 0.020880001 0.75600004 10001047
0.052699048 0.020935237 0.75800002 9739154
0.054142859 0.020935237 0.75800002 9541262
0.055733338 0.020990476 0.76000005 9211274
0.057256192 0.021018095 0.76100004 8883852
0.05886 0.021073334 0.76300001 8949903
0.06047143 0.021128573 0.76500005 9014923
0.062090475 0.021183809 0.76700002 9080199
0.063551433 0.021183809 0.76700002 9212556
0.065097138 0.021211429 0.76800001 7962769
0.06656 0.021211429 0.76800001 6782329
0.068022862 0.021211429 0.76800001 6382177
0.069485709 0.021211429 0.76800001 5988962
0.070948571 0.021211429 0.76800001 5792611
0.072411425 0.021211429 0.76800001 5595745
-0.048234288 0.021670477 0.73400003 12637137
-0.04683619 0.021670477 0.73400003 13161436
-0.045314286 0.02161143 0.73200005 13685720
-0.04386 0.021581903 0.73100001 13554645
-0.042467616 0.021581903 0.73100001 13422802
-0.041075241 0.021581903 0.73100001 13357519
-0.039574288 0.021522857 0.72900003 13291982
-0.038185716 0.021522857 0.72900003 13093837
-0.036797144 0.021522857 0.72900003 12896712
-0.035360001 0.021493334 0.72800004 12634051
-0.034019999 0.021522857 0.72900003 12437182
-0.03272095 0.021581903 0.73100001 12172730
-0.03132857 0.021581903 0.73100001 11974328
-0.029936191 0.021581903 0.73100001 11251894
-0.028543809 0.021581903 0.73100001 10529448
-0.027151428 0.021581903 0.73100001 10330523
-0.025688572 0.021522857 0.72900003 10133182
-0.024300002 0.021522857 0.72900003 11843810
-0.022911429 0.021522857 0.72900003 13624552
-0.021493334 0.021493334 0.72800004 14083310
-0.020106668 0.021493334 0.72800004 14542059
-0.02003143 0.02299905 0.77900004 14278376
-0.0185 0.022940001 0.77700001 14015716
-0.016976191 0.022880953 0.77500004 13884385
-0.015460001 0.022821905 0.77300006 13818592
-0.013969524 0.022792382 0.77200001 13686240
-0.012499048 0.022792382 0.77200001 13620959
-0.010971429 0.022674287 0.76800001 13555167
-0.0095085716 0.022674287 0.76800001 13555168
-0.0080352379 0.022644762 0.76700002 13555170
-0.0065571428 0.022585716 0.76500005 13555434
-0.0050866669 0.022526667 0.76300001 13687026
-0.0036333334 0.022526667 0.76300001 13884653
-0.0021742857 0.022467621 0.76100004 13950440
-0.0007219048 0.022379048 0.75800002 14016488
0.00072000001 0.02232 0.75600004 14016233
0.0021514287 0.022231428 0.75300002 13950440
0.0035857144 0.022231428 0.75300002 14015720
0.0050133336 0.022201905 0.75200003 14081254
0.0064457143 0.022201905 0.75200003 14081252
0.0078780958 0.022201905 0.75200003 14081506
0.0092857154 0.022142859 0.75000006 14015712
0.010714287 0.022142859 0.75000006 13950175
0.012142858 0.022142859 0.75000006 13884382
0.013535239 0.022083811 0.74800003 13753051
0.014940001 0.022054287 0.74700004 13555929
0.01631905 0.021995239 0.74500006 13424603
0.017738096 0.021995239 0.74500006 13094366
0.019105716 0.021936191 0.74300003 12829903
0.020520953 0.021936191 0.74300003 12501953
0.021936191 0.021936191 0.74300003 12174273
0.023414288 0.021995239 0.74500006 11843777
0.024833336 0.021995239 0.74500006 11581885
0.026322858 0.022054287 0.74700004 11317177
0.027745714 0.022054287 0.74700004 10988724
0.029207621 0.022083811 0.74800003 10922928
0.030632382 0.022083811 0.74800003 10857131
0.032057144 0.022083811 0.74800003 10725798
0.033481907 0.022083811 0.74800003 10660002
0.034906667 0.022083811 0.74800003 10594206
0.03633143 0.022083811 0.74800003 10528421
0.03775619 0.022083811 0.74800003 10462637
0.039180957 0.022083811 0.74800003 10397098
0.04071429 0.022142859 0.75000006 10331303
0.042255241 0.022201905 0.75200003 10265508
0.043745715 0.022231428 0.75300002 10199713
0.045180004 0.022231428 0.75300002 10199455
0.046738099 0.022290478 0.75500005 10133406
0.048176192 0.022290478 0.75500005 10132638
0.049680002 0.02232 0.75600004 10067103
0.051120002 0.02232 0.75600004 10001304
0.052560002 0.02232 0.75600004 9739154
0.054142859 0.022379048 0.75800002 9542034
0.055586666 0.022379048 0.75800002 9276563
0.057180956 0.022438096 0.76000005 9015442
0.05886 0.022526667 0.76300001 9015185
0.06047143 0.022585716 0.76500005 9080716
0.061928574 0.022585716 0.76500005 9146504
0.063551433 0.022644762 0.76700002 9212557
0.06501238 0.022644762 0.76700002 7962771
0.06656 0.022674287 0.76800001 6717050
0.0682 0.022733334 0.77000004 6316641
0.069666669 0.022733334 0.77000004 5988963
0.071133338 0.022733334 0.77000004 5792613
0.072882861 0.022821905 0.77300006 5596002
0.074355245 0.022821905 0.77300006 5529952
-0.04836572 0.02313143 0.73600006 12177868
-0.046963815 0.02313143 0.73600006 12900573
-0.045438096 0.023068571 0.73400003 13686232
-0.043920003 0.023005717 0.73200005 13554644
-0.042525716 0.023005717 0.73200005 13423057
-0.041075241 0.022974286 0.73100001 13357519
-0.039682858 0.022974286 0.73100001 13291726
-0.038185716 0.022911429 0.72900003 13094604
-0.036797144 0.022911429 0.72900003 12962504
-0.035360001 0.022880001 0.72800004 12700100
-0.034019999 0.022911429 0.72900003 12502719
-0.03272095 0.022974286 0.73100001 12304571
-0.03132857 0.022974286 0.73100001 12172217
-0.029936191 0.022974286 0.73100001 11449527
-0.028543809 0.022974286 0.73100001 10792111
-0.027151428 0.022974286 0.73100001 10461863
-0.025759049 0.022974286 0.73100001 10199479
-0.024300002 0.022911429 0.72900003 11382472
-0.022911429 0.022911429 0.72900003 12637660
-0.021522857 0.022911429 0.72900003 13692656
-0.021515239 0.024482857 0.77900004 14739437
-0.02003143 0.024482857 0.77900004 14475243
-0.0185 0.024420001 0.77700001 14212838
-0.016976191 0.024357144 0.77500004 14147298
-0.015460001 0.024294289 0.77300006 14081507
-0.013969524 0.024262857 0.77200001 13883363
-0.012466667 0.024200002 0.77000004 13752035
-0.010971429 0.024137143 0.76800001 13686499
-0.0094961906 0.024105715 0.76700002 13686242
-0.0080142869 0.024042858 0.76500005 13686241
-0.0065571428 0.024042858 0.76500005 13686502
-0.0050866669 0.023980001 0.76300001 13752300
-0.0036333334 0.023980001 0.76300001 13884904
-0.0021742857 0.023917144 0.76100004 13884389
-0.0007219048 0.023822857 0.75800002 13950183
0.00072000001 0.023760002 0.75600004 14015978
0.0021514287 0.023665715 0.75300002 14081769
0.0035857144 0.023665715 0.75300002 14147561
0.0050133336 0.023634287 0.75200003 14278375
0.0064457143 0.023634287 0.75200003 14212837
0.0078571439 0.02357143 0.75000006 14212835
0.0092857154 0.02357143 0.75000006 14147553
0.010714287 0.02357143 0.75000006 14081759
0.012110476 0.023508571 0.74800003 13884894
0.013517143 0.023477143 0.74700004 13752796
0.014900001 0.023414288 0.74500006 13489114
0.01631905 0.023414288 0.74500006 13293020
0.017738096 0.023414288 0.74500006 12962526
0.019105716 0.023351429 0.74300003 12699343
0.020520953 0.023351429 0.74300003 12369856
0.021936191 0.023351429 0.74300003 12042431
0.023414288 0.023414288 0.74500006 11778239
0.024833336 0.023414288 0.74500006 11581627
0.026322858 0.023477143 0.74700004 11251639
0.027745714 0.023477143 0.74700004 10988723
0.029168572 0.023477143 0.74700004 10857390
0.030632382 0.023508571 0.74800003 10791338
0.032057144 0.023508571 0.74800003 10725543
0.033481907 0.023508571 0.74800003 10660003
0.034906667 0.023508571 0.74800003 10594464
0.03633143 0.023508571 0.74800003 10528676
0.03775619 0.023508571 0.74800003 10462888
0.039285716 0.02357143 0.75000006 10462374
0.040605716 0.023508571 0.74800003 10396581
0.042142861 0.02357143 0.75000006 10331043
0.043687619 0.023634287 0.75200003 10264992
0.045180004 0.023665715 0.75300002 10199200
0.046614286 0.023665715 0.75300002 10198945
0.048176192 0.023728572 0.75500005 10198431
0.049614292 0.023728572 0.75500005 10067101
0.051120002 0.023760002 0.75600004 10001304
0.052699048 0.023822857 0.75800002 9804691
0.054142859 0.023822857 0.75800002 9607827
0.055733338 0.023885716 0.76000005 9342098
0.057256192 0.023917144 0.76100004 9146002
0.05886 0.023980001 0.76300001 9147026
0.06047143 0.024042858 0.76500005 9146252
0.062090475 0.024105715 0.76700002 9147270
0.063634284 0.024137143 0.76800001 9212555
0.065097138 0.024137143 0.76800001 7897489
0.066733338 0.024200002 0.77000004 6650745
0.0682 0.024200002 0.77000004 6316898
0.069666669 0.024200002 0.77000004 5989219
0.071133338 0.024200002 0.77000004 5792612
0.0726 0.024200002 0.77000004 5661536
0.074066669 0.024200002 0.77000004 5464669
-0.049835242 0.024566669 0.73700005 6917554
-0.048431434 0.024566669 0.73700005 11915464
-0.046963815 0.024533335 0.73600006 12769758
-0.04556191 0.024533335 0.73600006 13686744
-0.043920003 0.024400003 0.73200005 13554643
-0.042525716 0.024400003 0.73200005 13423313
-0.041131433 0.024400003 0.73200005 13357264
-0.039682858 0.024366667 0.73100001 13291726
-0.038185716 0.024300002 0.72900003 13160140
-0.036797144 0.024300002 0.72900003 13028297
-0.035360001 0.024266668 0.72800004 12831174
-0.034019999 0.024300002 0.72900003 12633793
-0.03272095 0.024366667 0.73100001 12436668
-0.03132857 0.024366667 0.73100001 12239546
-0.029936191 0.024366667 0.73100001 11646648
-0.028543809 0.024366667 0.73100001 11054774
-0.027151428 0.024366667 0.73100001 10790324
-0.025759049 0.024366667 0.73100001 10462641
-0.024366667 0.024366667 0.73100001 10987694
-0.022974286 0.024366667 0.73100001 11454160
-0.021581903 0.024366667 0.73100001 13165554
-0.021515239 0.025966669 0.77900004 14805744
-0.01998 0.025899999 0.77700001 14607598
-0.0185 0.025899999 0.77700001 14474985
-0.016932381 0.025766669 0.77300006 14409700
-0.015439999 0.025733333 0.77200001 14344421
-0.013969524 0.025733333 0.77200001 14212071
-0.012434285 0.025600001 0.76800001 14079975
-0.010957143 0.025566667 0.76700002 14014951
-0.0094961906 0.025566667 0.76700002 13949923
-0.0080142869 0.025500001 0.76500005 13949408
-0.0065571428 0.025500001 0.76500005 13949155
-0.0050866669 0.025433334 0.76300001 14015462
-0.0036238097 0.025366668 0.76100004 14147556
-0.0021714286 0.025333336 0.76000005 14147043
-0.00072000001 0.0252 0.75600004 14146535
0.00071714289 0.0251 0.75300002 14147307
0.0021514287 0.0251 0.75300002 14213098
0.0035809525 0.025066668 0.75200003 14278890
0.0050133336 0.025066668 0.75200003 14344680
0.0064457143 0.025066668 0.75200003 14344423
0.0078571439 0.025000002 0.75000006 14278628
0.0092857154 0.025000002 0.75000006 14213090
0.010685714 0.024933333 0.74800003 14147808
0.012094286 0.024900001 0.74700004 13884126
0.013517143 0.024900001 0.74700004 13687261
0.014900001 0.024833336 0.74500006 13488860
0.01631905 0.024833336 0.74500006 13292765
0.017690476 0.024766667 0.74300003 12962527
0.019105716 0.024766667 0.74300003 12634319
0.020520953 0.024766667 0.74300003 12303807
0.021936191 0.024766667 0.74300003 11976382
0.023351429 0.024766667 0.74300003 11777981
0.024833336 0.024833336 0.74500006 11515833
0.026252383 0.024833336 0.74500006 11251894
0.027745714 0.024900001 0.74700004 10988977
0.029168572 0.024900001 0.74700004 10857389
0.03059143 0.024900001 0.74700004 10725802
0.032057144 0.024933333 0.74800003 10660008
0.033481907 0.024933333 0.74800003 10594469
0.03486 0.024900001 0.74700004 10528930
0.03633143 0.024933333 0.74800003 10528930
0.03775619 0.024933333 0.74800003 10462883
0.039180957 0.024933333 0.74800003 10462371
0.040605716 0.024933333 0.74800003 10396836
0.042142861 0.025000002 0.75000006 10396834
0.043687619 0.025066668 0.75200003 10265248
0.045120001 0.025066668 0.75200003 10199202
0.046614286 0.0251 0.75300002 10198948
0.048176192 0.025166668 0.75500005 10198687
0.049614292 0.025166668 0.75500005 10067355
0.051120002 0.0252 0.75600004 10001304
0.052699048 0.025266668 0.75800002 9804693
0.054142859 0.025266668 0.75800002 9608339
0.055733338 0.025333336 0.76000005 9408146
0.057180956 0.025333336 0.76000005 9211283
0.05886 0.025433334 0.76300001 9146004
0.06047143 0.025500001 0.76500005 9146252
0.062090475 0.025566667 0.76700002 9146501
0.063634284 0.025600001 0.76800001 9212554
0.065097138 0.025600001 0.76800001 7896207
0.066733338 0.025666667 0.77000004 6584697
0.068022862 0.025600001 0.76800001 6251108
0.069666669 0.025666667 0.77000004 5988708
0.071133338 0.025666667 0.77000004 5792612
0.072411425 0.025600001 0.76800001 5661535
0.073874287 0.025600001 0.76800001 5529946
-0.049835242 0.025970478 0.73700005 6654124
-0.048431434 0.025970478 0.73700005 11651781
-0.046963815 0.02593524 0.73600006 12638942
-0.045438096 0.025864763 0.73400003 13686489
-0.043920003 0.025794286 0.73200005 13554899
-0.042525716 0.025794286 0.73200005 13423058
-0.041131433 0.025794286 0.73200005 13357264
-0.039682858 0.025759049 0.73100001 13291470
-0.038185716 0.025688572 0.72900003 13160140
-0.036797144 0.025688572 0.72900003 13093833
-0.035360001 0.025653334 0.72800004 12896967
-0.034019999 0.025688572 0.72900003 12765123
-0.032631427 0.025688572 0.72900003 12567998
-0.03132857 0.025759049 0.73100001 12370879
-0.029936191 0.025759049 0.73100001 11844032
-0.028543809 0.025759049 0.73100001 11383481
-0.027151428 0.025759049 0.73100001 11053490
-0.025759049 0.025759049 0.73100001 10790575
-0.024366667 0.025759049 0.73100001 10527661
-0.022974286 0.025759049 0.73100001 10336461
-0.021581903 0.025759049 0.73100001 12638700
-0.02146 0.027380001 0.77700001 14936302
-0.01998 0.027380001 0.77700001 14805745
-0.01845238 0.027309524 0.77500004 14739692
-0.016976191 0.027309524 0.77500004 14673640
-0.015460001 0.027239049 0.77300006 14606823
-0.013969524 0.027203809 0.77200001 14475750
-0.012466667 0.027133334 0.77000004 14409959
-0.010957143 0.02702762 0.76700002 14344169
-0.0094961906 0.02702762 0.76700002 14277864
-0.0080142869 0.026957145 0.76500005 14212072
-0.00654 0.026886668 0.76300001 14212328
-0.0050866669 0.026886668 0.76300001 14344679
-0.0036238097 0.026816191 0.76100004 14476007
-0.0021714286 0.026780955 0.76000005 14410726
-0.00072000001 0.026640002 0.75600004 14344936
0.00071714289 0.026534285 0.75300002 14344683
0.0021514287 0.026534285 0.75300002 14409963
0.0035809525 0.026499048 0.75200003 14410476
0.0050133336 0.026499048 0.75200003 14476010
0.0064457143 0.026499048 0.75200003 14410472
0.0078571439 0.026428573 0.75000006 14410213
0.0092609525 0.026358096 0.74800003 14278883
0.010685714 0.026358096 0.74800003 14213344
0.012094286 0.026322858 0.74700004 13949150
0.013480954 0.026252383 0.74500006 13686749
0.014900001 0.026252383 0.74500006 13488861
0.01631905 0.026252383 0.74500006 13292506
0.017690476 0.026181906 0.74300003 12896983
0.019105716 0.026181906 0.74300003 12568265
0.020520953 0.026181906 0.74300003 12238012
0.021936191 0.026181906 0.74300003 11975869
0.023351429 0.026181906 0.74300003 11712445
0.024833336 0.026252383 0.74500006 11515065
0.026252383 0.026252383 0.74500006 11252149
0.027745714 0.026322858 0.74700004 10988977
0.029168572 0.026322858 0.74700004 10857646
0.030632382 0.026358096 0.74800003 10725803
0.032057144 0.026358096 0.74800003 10594729
0.033481907 0.026358096 0.74800003 10529190
0.034906667 0.026358096 0.74800003 10529188
0.03633143 0.026358096 0.74800003 10528933
0.03775619 0.026358096 0.74800003 10528422
0.039285716 0.026428573 0.75000006 10527654
0.04071429 0.026428573 0.75000006 10462375
0.042142861 0.026428573 0.75000006 10462116
0.043687619 0.026499048 0.75200003 10331042
0.045120001 0.026499048 0.75200003 10264993
0.046614286 0.026534285 0.75300002 10198945
0.048048571 0.026534285 0.75300002 10198686
0.049614292 0.026604762 0.75500005 10067612
0.051052384 0.026604762 0.75500005 10001304
0.052560002 0.026640002 0.75600004 9804693
0.054142859 0.026710477 0.75800002 9672591
0.055733338 0.026780955 0.76000005 9474186
0.057256192 0.026816191 0.76100004 9342605
0.05886 0.026886668 0.76300001 9211793
0.06047143 0.026957145 0.76500005 9146254
0.062090475 0.02702762 0.76700002 9146251
0.063634284 0.027062858 0.76800001 9212550
0.065097138 0.027062858 0.76800001 7895170
0.066733338 0.027133334 0.77000004 6584181
0.068022862 0.027062858 0.76800001 6250857
0.069666669 0.027133334 0.77000004 5988455
0.071133338 0.027133334 0.77000004 5792612
0.072411425 0.027062858 0.76800001 5661281
0.073874287 0.027062858 0.76800001 5661022
-0.049970478 0.027448572 0.73900002 5796262
-0.048431434 0.027374288 0.73700005 10536386
-0.047027621 0.027374288 0.73700005 12113887
-0.04556191 0.027337145 0.73600006 13686489
-0.044040002 0.027262859 0.73400003 13554644
-0.042641908 0.027262859 0.73400003 13423058
-0.041131433 0.027188573 0.73200005 13357265
-0.039574288 0.027077144 0.72900003 13357006
-0.038185716 0.027077144 0.72900003 13225932
-0.036797144 0.027077144 0.72900003 13159626
-0.035360001 0.027040001 0.72800004 12962505
-0.033973332 0.027040001 0.72800004 12830917
-0.032631427 0.027077144 0.72900003 12633793
-0.031242857 0.027077144 0.72900003 12436933
-0.029854286 0.027077144 0.72900003 12041417
-0.028543809 0.027151428 0.73100001 11646652
-0.027077144 0.027077144 0.72900003 11316912
-0.025759049 0.027151428 0.73100001 11052974
-0.024366667 0.027151428 0.73100001 10660013
-0.022974286 0.027151428 0.73100001 10332874
-0.021581903 0.027151428 0.73100001 12175591
-0.02146 0.028859999 0.77700001 14084077
-0.01998 0.028859999 0.77700001 14609396
-0.01845238 0.028785717 0.77500004 15133680
-0.016932381 0.028711431 0.77300006 14936301
-0.015439999 0.028674286 0.77200001 14738153
-0.013933334 0.0286 0.77000004 14607078
-0.012434285 0.028525714 0.76800001 14476008
-0.010957143 0.028488571 0.76700002 14344427
-0.0094714295 0.028414287 0.76500005 14278382
-0.0080142869 0.028414287 0.76500005 14278385
-0.00654 0.028339999 0.76300001 14278381
-0.0050733336 0.028265715 0.76100004 14409961
-0.0036190478 0.028228572 0.76000005 14541801
-0.0021657145 0.028154286 0.75800002 14476266
-0.00071904768 0.028042858 0.75500005 14477290
0.00071714289 0.027968572 0.75300002 14476267
0.0021485714 0.027931429 0.75200003 14541037
0.0035809525 0.027931429 0.75200003 14607855
0.0050133336 0.027931429 0.75200003 14608364
0.0064285719 0.027857145 0.75000006 14542058
0.0078571439 0.027857145 0.75000006 14476007
0.0092609525 0.027782857 0.74800003 14344676
0.010671429 0.027745714 0.74700004 14213601
0.012061905 0.02767143 0.74500006 13949150
0.013480954 0.02767143 0.74500006 13686238
0.014900001 0.02767143 0.74500006 13489374
0.016275238 0.027597144 0.74300003 13292502
0.017690476 0.027597144 0.74300003 12830671
0.019105716 0.027597144 0.74300003 12371140
0.020520953 0.027597144 0.74300003 12106938
0.021936191 0.027597144 0.74300003 11844284
0.023351429 0.027597144 0.74300003 11580606
0.024766667 0.027597144 0.74300003 11383225
0.026252383 0.02767143 0.74500006 11121076
0.02767143 0.02767143 0.74500006 10923442
0.029168572 0.027745714 0.74700004 10792112
0.03059143 0.027745714 0.74700004 10726061
0.032057144 0.027782857 0.74800003 10594730
0.033481907 0.027782857 0.74800003 10528680
0.034906667 0.027782857 0.74800003 10528935
0.03633143 0.027782857 0.74800003 10528936
0.03775619 0.027782857 0.74800003 10462633
0.039285716 0.027857145 0.75000006 10462122
0.04071429 0.027857145 0.75000006 10462123
0.042142861 0.027857145 0.75000006 10396583
0.043687619 0.027931429 0.75200003 10331044
0.045120001 0.027931429 0.75200003 10199713
0.046614286 0.027968572 0.75300002 10199454
0.048048571 0.027968572 0.75300002 10199197
0.049482856 0.027968572 0.75300002 10067613
0.051052384 0.028042858 0.75500005 10001305
0.052560002 0.028080001 0.75600004 9804437
0.054142859 0.028154286 0.75800002 9671307
0.055733338 0.028228572 0.76000005 9473922
0.057256192 0.028265715 0.76100004 9342600
0.05886 0.028339999 0.76300001 9211534
0.06047143 0.028414287 0.76500005 9146000
0.062090475 0.028488571 0.76700002 9146514
0.063551433 0.028488571 0.76700002 9212547
0.065097138 0.028525714 0.76800001 7829877
0.06656 0.028525714 0.76800001 6452594
0.068022862 0.028525714 0.76800001 6185583
0.069485709 0.028525714 0.76800001 5988458
0.070948571 0.028525714 0.76800001 5792357
0.072411425 0.028525714 0.76800001 5661284
0.073874287 0.028525714 0.76800001 5661027
-0.049970478 0.028856192 0.73900002 4938642
-0.048431434 0.028778099 0.73700005 9482935
-0.047027621 0.028778099 0.73700005 11589085
-0.04556191 0.02873905 0.73600006 13685979
-0.044160005 0.02873905 0.73600006 13554649
-0.042641908 0.028660953 0.73400003 13423317
-0.041131433 0.02858286 0.73200005 13423058
-0.039574288 0.028465716 0.72900003 13422800
-0.038185716 0.028465716 0.72900003 13291725
-0.036797144 0.028465716 0.72900003 13225675
-0.035360001 0.028426668 0.72800004 13028298
-0.033973332 0.028426668 0.72800004 12896711
-0.032631427 0.028465716 0.72900003 12699588
-0.031242857 0.028465716 0.72900003 12568004
-0.029854286 0.028465716 0.72900003 12239044
-0.028543809 0.028543809 0.73100001 11909820
-0.027151428 0.028543809 0.73100001 11580341
-0.025759049 0.028543809 0.73100001 11315891
-0.024366667 0.028543809 0.73100001 10791602
-0.023005717 0.02858286 0.73200005 10332351
-0.02161143 0.02858286 0.73200005 11777997
-0.02146 0.030339999 0.77700001 13293282
-0.019928573 0.030261906 0.77500004 14413303
-0.01845238 0.030261906 0.77500004 15593203
-0.016932381 0.030183813 0.77300006 15265775
-0.015439999 0.030144762 0.77200001 14935533
-0.013933334 0.030066667 0.77000004 14739435
-0.012418096 0.029949524 0.76700002 14542059
-0.010928571 0.02987143 0.76500005 14410220
-0.0094714295 0.02987143 0.76500005 14344430
-0.007993333 0.029793333 0.76300001 14344176
-0.00654 0.029793333 0.76300001 14345199
-0.0050666668 0.029676192 0.76000005 14477550
-0.0036095236 0.029598096 0.75800002 14608110
-0.0021571429 0.029480955 0.75500005 14607598
-0.00071714289 0.029402858 0.75300002 14607598
0.00071619049 0.029363809 0.75200003 14673391
0.0021485714 0.029363809 0.75200003 14739182
0.0035809525 0.029363809 0.75200003 14739694
0.0050000004 0.029285716 0.75000006 14804973
0.0064285719 0.029285716 0.75000006 14674156
0.007836191 0.029207621 0.74800003 14607850
0.0092485715 0.029168572 0.74700004 14410473
0.010642858 0.029090477 0.74500006 14279138
0.012061905 0.029090477 0.74500006 13949404
0.013480954 0.029090477 0.74500006 13686235
0.014900001 0.029090477 0.74500006 13489627
0.016275238 0.029012382 0.74300003 13357522
0.017690476 0.029012382 0.74300003 12764362
0.019105716 0.029012382 0.74300003 12174275
0.020520953 0.029012382 0.74300003 11975868
0.021936191 0.029012382 0.74300003 11778236
0.023351429 0.029012382 0.74300003 11514556
0.024766667 0.029012382 0.74300003 11252150
0.026252383 0.029090477 0.74500006 11055537
0.02767143 0.029090477 0.74500006 10923695
0.029090477 0.029090477 0.74500006 10792366
0.03059143 0.029168572 0.74700004 10725804
0.032014288 0.029168572 0.74700004 10660523
0.033437144 0.029168572 0.74700004 10594218
0.034906667 0.029207621 0.74800003 10528937
0.03633143 0.029207621 0.74800003 10528680
0.03775619 0.029207621 0.74800003 10462632
0.039285716 0.029285716 0.75000006 10462376
0.04071429 0.029285716 0.75000006 10396584
0.042142861 0.029285716 0.75000006 10396581
0.043687619 0.029363809 0.75200003 10265506
0.045120001 0.029363809 0.75200003 10199712
0.046614286 0.029402858 0.75300002 10199710
0.048048571 0.029402858 0.75300002 10198940
0.049482856 0.029402858 0.75300002 10133147
0.051052384 0.029480955 0.75500005 10067095
0.052699048 0.029598096 0.75800002 9869715
0.054142859 0.029598096 0.75800002 9671311
0.05580667 0.02971524 0.76100004 9539467
0.057256192 0.02971524 0.76100004 9408396
0.05886 0.029793333 0.76300001 9277581
0.06047143 0.02987143 0.76500005 9146767
0.062090475 0.029949524 0.76700002 9212562
0.063634284 0.029988572 0.76800001 9277823
0.065097138 0.029988572 0.76800001 7764845
0.06656 0.029988572 0.76800001 6319214
0.068022862 0.029988572 0.76800001 6185838
0.069485709 0.029988572 0.76800001 6054249
0.070948571 0.029988572 0.76800001 5857892
0.072411425 0.029988572 0.76800001 5661281
-0.049970478 0.030263809 0.73900002 4476542
-0.048431434 0.030181907 0.73700005 8298668
-0.047027621 0.030181907 0.73700005 10997211
-0.04556191 0.030140955 0.73600006 13753052
-0.044160005 0.030140955 0.73600006 13620702
-0.042641908 0.030059047 0.73400003 13554649
-0.041131433 0.029977145 0.73200005 13488852
-0.039682858 0.029936191 0.73100001 13423313
-0.038185716 0.029854286 0.72900003 13291727
-0.036797144 0.029854286 0.72900003 13226189
-0.035360001 0.029813336 0.72800004 13094091
-0.033973332 0.029813336 0.72800004 12962761
-0.032631427 0.029854286 0.72900003 12765384
-0.031200001 0.029813336 0.72800004 12568260
-0.029854286 0.029854286 0.72900003 12304832
-0.028465716 0.029854286 0.72900003 12042173
-0.027077144 0.029854286 0.72900003 11711162
-0.025759049 0.029936191 0.73100001 11382456
-0.024366667 0.029936191 0.73100001 10988471
-0.023005717 0.029977145 0.73200005 10594229
-0.02161143 0.029977145 0.73200005 11251379
-0.020189524 0.029936191 0.73100001 11847126
-0.018797142 0.029936191 0.73100001 13426682
-0.018404763 0.031656191 0.77300006 14940149
-0.016910477 0.031615239 0.77200001 15332849
-0.015439999 0.031615239 0.77200001 15722992
-0.013897142 0.03145143 0.76800001 15658224
-0.012418096 0.031410474 0.76700002 15593711
-0.010928571 0.03132857 0.76500005 15526894
-0.0094466675 0.031246668 0.76300001 15525615
-0.007993333 0.031246668 0.76300001 15526896
-0.0065142862 0.03112381 0.76000005 15528178
-0.0050533335 0.031041905 0.75800002 15593460
-0.0036000002 0.030960003 0.75600004 15658995
-0.0021514287 0.030837145 0.75300002 15659251
-0.00071714289 0.030837145 0.75300002 15659763
0.00071619049 0.030796193 0.75200003 15461619
0.0021485714 0.030796193 0.75200003 15263472
0.0035809525 0.030796193 0.75200003 15329262
0.0050000004 0.030714288 0.75000006 15329262
0.0064285719 0.030714288 0.75000006 15460590
0.007836191 0.030632382 0.74800003 15592174
0.0092485715 0.03059143 0.74700004 14804463
0.010642858 0.030509528 0.74500006 14082532
0.012061905 0.030509528 0.74500006 13817562
0.013480954 0.030509528 0.74500006 13555161
0.01486 0.03042762 0.74300003 13292248
0.016275238 0.03042762 0.74300003 13094863
0.017690476 0.03042762 0.74300003 12567238
0.019105716 0.03042762 0.74300003 12108738
0.020520953 0.03042762 0.74300003 11844031
0.021936191 0.03042762 0.74300003 11646652
0.023351429 0.03042762 0.74300003 11383226
0.024766667 0.03042762 0.74300003 11186612
0.026181906 0.03042762 0.74300003 11055278
0.02767143 0.030509528 0.74500006 10923949
0.029090477 0.030509528 0.74500006 10792109
0.03059143 0.03059143 0.74700004 10660268
0.032014288 0.03059143 0.74700004 10660012
0.033437144 0.03059143 0.74700004 10594475
0.034906667 0.030632382 0.74800003 10594219
0.03633143 0.030632382 0.74800003 10528425
0.03775619 0.030632382 0.74800003 10462631
0.039285716 0.030714288 0.75000006 10462630
0.04071429 0.030714288 0.75000006 10396837
0.042255241 0.030796193 0.75200003 10396579
0.043687619 0.030796193 0.75200003 10265505
0.045120001 0.030796193 0.75200003 10199967
0.046614286 0.030837145 0.75300002 10199454
0.048048571 0.030837145 0.75300002 10198939
0.049482856 0.030837145 0.75300002 10067609
0.051052384 0.030919051 0.75500005 10001813
0.052560002 0.030960003 0.75600004 9804434
0.054142859 0.031041905 0.75800002 9671571
0.05580667 0.031164765 0.76100004 9539732
0.057256192 0.031164765 0.76100004 9408656
0.05886 0.031246668 0.76300001 9277581
0.06047143 0.03132857 0.76500005 9146767
0.062090475 0.031410474 0.76700002 9212306
0.063634284 0.03145143 0.76800001 9277820
0.065097138 0.03145143 0.76800001 7698278
0.06656 0.03145143 0.76800001 6120554
0.068022862 0.03145143 0.76800001 6055022
0.069485709 0.03145143 0.76800001 6054249
0.070948571 0.03145143 0.76800001 5857892
0.072411425 0.03145143 0.76800001 5661278
-0.049970478 0.031671431 0.73900002 4014435
-0.048431434 0.031585716 0.73700005 7179934
-0.047027621 0.031585716 0.73700005 10471130
-0.04556191 0.03154286 0.73600006 13819098
-0.044160005 0.03154286 0.73600006 13752539
-0.042641908 0.031457145 0.73400003 13750999
-0.041131433 0.03137143 0.73200005 13554644
-0.039682858 0.03132857 0.73100001 13423057
-0.038185716 0.031242857 0.72900003 13291983
-0.036797144 0.031242857 0.72900003 13226189
-0.035360001 0.031200001 0.72800004 13094603
-0.033973332 0.031200001 0.72800004 13028297
-0.032631427 0.031242857 0.72900003 12831431
-0.031200001 0.031200001 0.72800004 12634306
-0.029854286 0.031242857 0.72900003 12370878
-0.028465716 0.031242857 0.72900003 12174012
-0.027077144 0.031242857 0.72900003 11776698
-0.025759049 0.03132857 0.73100001 11448245
-0.024400003 0.03137143 0.73200005 11185584
-0.023005717 0.03137143 0.73200005 10922674
-0.02161143 0.03137143 0.73200005 10659252
-0.020217143 0.03137143 0.73200005 10468301
-0.018822858 0.03137143 0.73200005 12374503
-0.018404763 0.033128574 0.77300006 14346223
-0.016910477 0.033085715 0.77200001 15465463
-0.0154 0.033 0.77000004 16579831
-0.013897142 0.032914288 0.76800001 16645879
-0.012385715 0.032785717 0.76500005 16711414
-0.010899999 0.032699998 0.76300001 16711414
-0.0094466675 0.032699998 0.76300001 16711414
-0.0079723811 0.032614287 0.76100004 16711415
-0.0064971428 0.032485716 0.75800002 16711416
-0.0050533335 0.032485716 0.75800002 16711417
-0.0036000002 0.032400001 0.75600004 16711416
-0.0021514287 0.03227143 0.75300002 16711416
-0.00071619049 0.03222857 0.75200003 16711416
0.00071619049 0.03222857 0.75200003 16252664
0.0021485714 0.03222857 0.75200003 15855605
0.0035714288 0.032142859 0.75000006 15854066
0.0050000004 0.032142859 0.75000006 15921908
0.006411429 0.032057144 0.74800003 16252662
0.0078257145 0.032014288 0.74700004 16577778
0.0092238095 0.031928573 0.74500006 15264238
0.010642858 0.031928573 0.74500006 13950693
0.012061905 0.031928573 0.74500006 13685725
0.013480954 0.031928573 0.74500006 13489112
0.01486 0.031842858 0.74300003 13159891
0.016275238 0.031842858 0.74300003 12831949
0.017690476 0.031842858 0.74300003 12435655
0.019105716 0.031842858 0.74300003 12042947
0.020520953 0.031842858 0.74300003 11777983
0.021936191 0.031842858 0.74300003 11515068
0.023351429 0.031842858 0.74300003 11317434
0.024766667 0.031842858 0.74300003 11120565
0.026181906 0.031842858 0.74300003 10989232
0.02767143 0.031928573 0.74500006 10923437
0.029090477 0.031928573 0.74500006 10792107
0.030509528 0.031928573 0.74500006 10660267
0.032014288 0.032014288 0.74700004 10660011
0.033437144 0.032014288 0.74700004 10659754
0.034906667 0.032057144 0.74800003 10594217
0.03633143 0.032057144 0.74800003 10593959
