# .PCD v0.7 - Point Cloud Data file format
VERSION 0.7
FIELDS x y z
SIZE 4 4 4
TYPE F F F
COUNT 1 1 1
WIDTH 1406
HEIGHT 1
VIEWPOINT 0 0 0 1 0 0 0
POINTS 1406
DATA ascii
-0.024970001 -0.016469 0.10905
-0.024544001 -0.018059 0.10905
0.062921003 -0.017409001 0.10905
0.063646004 -0.018059 0.10905
0.064874001 -0.018059 0.10714
-0.024970001 -0.016835 0.111
-0.024718 -0.018059 0.111
0.060968 -0.016372999 0.111
0.062707998 -0.018059 0.111
0.062921003 -0.018059 0.11049
-0.024970001 -0.016399 0.11296
-0.024573 -0.018059 0.11296
0.060945 -0.018059 0.11296
0.060968 -0.018059 0.11293
-0.024549 -0.018059 0.11491
0.059014998 -0.016914999 0.11491
0.060059998 -0.018059 0.11491
-0.024631999 -0.018059 0.11686
0.058867998 -0.018059 0.11686
0.059014998 -0.018059 0.11661
-0.024525 -0.018059 0.11882
0.057062 -0.017285001 0.11882
0.057826001 -0.018059 0.11882
-0.024319001 -0.018059 0.12077
0.056678001 -0.018059 0.12077
0.057062 -0.018059 0.12006
-0.023017 -0.016736001 0.12272
-0.023722 -0.018059 0.12272
0.055108 -0.017486 0.12272
0.055521 -0.018059 0.12272
-0.023017 -0.018051 0.12468
-0.023023 -0.018059 0.12468
0.053155001 -0.016798999 0.12468
0.054471999 -0.018059 0.12468
0.055108 -0.018059 0.12356
-0.023017 -0.018059 0.12469
-0.021063 -0.017185999 0.12662999
-0.021825001 -0.018059 0.12662999
0.053096 -0.018059 0.12662999
0.053155001 -0.018059 0.12655
-0.021063 -0.018059 0.1276
-0.01911 -0.016971 0.12858
-0.020268001 -0.018059 0.12858
0.051201999 -0.016843 0.12858
0.051984999 -0.018059 0.12858
-0.01911 -0.018059 0.12996
-0.017157 -0.017165 0.13054
-0.018404 -0.018059 0.13054
0.049249001 -0.016532 0.13054
0.050563999 -0.018059 0.13054
0.051201999 -0.018059 0.12969001
-0.017157 -0.018059 0.13149001
-0.015204 -0.017333999 0.13248999
-0.016076 -0.018059 0.13248999
0.0491 -0.018059 0.13248999
0.049249001 -0.018059 0.13228001
-0.015204 -0.018059 0.13345
-0.013251 -0.016673001 0.13444
-0.01454 -0.018059 0.13444
0.047295999 -0.017418999 0.13444
0.047956999 -0.018059 0.13444
-0.013251 -0.018059 0.13601001
-0.011298 -0.016409 0.1364
-0.012887 -0.018059 0.1364
0.045343 -0.016744999 0.1364
0.046535999 -0.018059 0.1364
0.047295999 -0.018059 0.13512
-0.011298 -0.018059 0.13809
-0.0093448004 -0.016277 0.13835
-0.011051 -0.018059 0.13835
0.043389998 -0.016314 0.13835
0.045132998 -0.018059 0.13835
0.045343 -0.018059 0.13811
-0.0093448004 -0.017942 0.14030001
-0.0094715999 -0.018059 0.14030001
-0.0073917001 -0.016218999 0.14030001
0.043389998 -0.018013 0.14030001
0.043428 -0.018059 0.14030001
-0.0093448004 -0.018059 0.14042
-0.0073917001 -0.018059 0.14218
-0.0054385001 -0.016683999 0.14225
-0.0073127002 -0.018059 0.14225
0.041437 -0.017487001 0.14225
0.041887 -0.018059 0.14225
0.043389998 -0.018059 0.14035
-0.0054385001 -0.018059 0.14387
-0.0034854 -0.016904 0.14421
-0.0049430998 -0.018059 0.14421
0.039483 -0.017229 0.14421
0.040309999 -0.018059 0.14421
0.041437 -0.018059 0.1429
-0.0034854 -0.018059 0.14556
-0.0015323 -0.016845999 0.14616001
-0.0028860001 -0.018059 0.14616001
0.037530001 -0.016930001 0.14616001
0.038665999 -0.018059 0.14616001
0.039483 -0.018059 0.14527
-0.0015323 -0.018059 0.14779
0.00042085 -0.016845999 0.14811
-0.0012126 -0.018059 0.14811
0.035576999 -0.016775001 0.14811
0.03712 -0.018059 0.14811
0.037530001 -0.018059 0.14759
0.00042085 -0.018059 0.14949
0.0023739999 -0.017267 0.15007
0.0011336 -0.018059 0.15007
0.033624001 -0.016734 0.15007
0.034908 -0.018059 0.15007
0.035576999 -0.018059 0.1495
0.0023739999 -0.018059 0.15098999
0.0043270998 -0.017307 0.15202001
0.0034576999 -0.018059 0.15202001
0.031670999 -0.016546 0.15202001
0.032976002 -0.018059 0.15202001
0.033624001 -0.018059 0.15137
0.0043270998 -0.018059 0.15288
0.0062802001 -0.017554 0.15397
0.0057267002 -0.018059 0.15397
0.029718 -0.016349001 0.15397
0.031197 -0.018059 0.15397
0.031670999 -0.018059 0.15343
0.0062802001 -0.018059 0.15443
0.0082333004 -0.018059 0.1559
0.010186 -0.016571 0.15593
0.0082700001 -0.018059 0.15593
0.029718 -0.017881 0.15593
0.029881001 -0.018059 0.15593
0.010186 -0.018059 0.15717
0.01214 -0.017252 0.15787999
0.011103 -0.018059 0.15787999
0.027765 -0.017839 0.15787999
0.02802 -0.018059 0.15787999
0.029718 -0.018059 0.15616
0.01214 -0.018059 0.15888
0.014093 -0.017519999 0.15983
0.013368 -0.018059 0.15983
0.016046001 -0.016604999 0.15983
0.023858 -0.016155001 0.15983
0.025812 -0.017835001 0.15983
0.026001999 -0.018059 0.15983
0.027765 -0.018059 0.15808
0.014093 -0.018059 0.16031
0.016046001 -0.018059 0.16164
0.017999001 -0.017169001 0.16179
0.016306 -0.018059 0.16179
0.019951999 -0.016838999 0.16179
0.021904999 -0.016991001 0.16179
0.023556 -0.018059 0.16179
0.023858 -0.018059 0.16152
0.025812 -0.018059 0.16
0.017999001 -0.018059 0.16297001
0.019951999 -0.018059 0.16322
0.021904999 -0.018059 0.16292
-0.26324999 -0.01919 -0.09798
-0.26374999 -0.020012001 -0.09798
-0.26359001 -0.020012001 -0.099932998
-0.25347999 -0.019076001 -0.09798
-0.25329 -0.020012001 -0.09798
-0.25152999 -0.020012001 -0.099210002
-0.25152999 -0.019098001 -0.09798
-0.25068 -0.020012001 -0.099932998
-0.23005 -0.018288 -0.099932998
-0.18708 -0.018502001 -0.099932998
-0.18513 -0.018973 -0.099932998
-0.18122 -0.019327 -0.099932998
-0.17927 -0.018308001 -0.099932998
-0.17731 -0.018911 -0.099932998
-0.17341 -0.018552 -0.099932998
-0.17145 -0.018665001 -0.099932998
-0.16949999 -0.019303 -0.099932998
-0.16755 -0.018890001 -0.099932998
-0.16559 -0.019602999 -0.099932998
-0.16364001 -0.019308999 -0.099932998
-0.16169 -0.01818 -0.099932998
-0.15388 -0.018976999 -0.099932998
-0.15192001 -0.019071 -0.099932998
-0.14997 -0.019090001 -0.099932998
-0.14802 -0.01908 -0.099932998
-0.14606 -0.018059 -0.098916002
-0.14606 -0.019078 -0.099932998
-0.26519999 -0.019688999 -0.096027002
-0.26519999 -0.020012001 -0.096257001
-0.25347999 -0.019396 -0.096027002
-0.25205001 -0.020012001 -0.096027002
-0.24958 -0.020012001 -0.096802004
-0.24958 -0.01932 -0.096027002
-0.25119999 -0.020012001 -0.096027002
-0.24902 -0.020012001 -0.096027002
-0.25152999 -0.020012001 -0.095940001
-0.24763 -0.020012001 -0.094632
-0.24763 -0.019423001 -0.094074003
-0.24594 -0.020012001 -0.094074003
-0.24372 -0.018989 -0.094074003
-0.24539 -0.020012001 -0.094074003
-0.24372 -0.020012001 -0.094433002
-0.24177 -0.020012001 -0.094278999
-0.24177 -0.019580999 -0.094074003
-0.23981 -0.020012001 -0.094554998
-0.23981 -0.018754 -0.094074003
-0.23785999 -0.020012001 -0.094695002
-0.23785999 -0.018914999 -0.094074003
-0.23591 -0.020012001 -0.094443999
-0.23591 -0.018943001 -0.094074003
-0.23395 -0.020012001 -0.094408996
-0.23395 -0.018743001 -0.094074003
-0.23205 -0.020012001 -0.094074003
-0.24567001 -0.020012001 -0.094030999
-0.23199999 -0.020012001 -0.094065003
-0.23005 -0.020012001 -0.093849003
-0.22809 -0.020012001 -0.093459003
-0.22614001 -0.020012001 -0.093696997
-0.22419 -0.020012001 -0.093634002
-0.22223 -0.020012001 -0.093594998
-0.22028001 -0.020012001 -0.093680002
-0.21833 -0.020012001 -0.093607999
-0.21638 -0.020012001 -0.093489997
-0.21442001 -0.020012001 -0.093547001
-0.21247 -0.020012001 -0.093381003
-0.21052 -0.020012001 -0.093085997
-0.20856 -0.020012001 -0.092877999
-0.20856 -0.01873 -0.092120998
-0.20660999 -0.020012001 -0.092490003
-0.20660999 -0.019338001 -0.092120998
-0.20466 -0.020012001 -0.092519999
-0.20466 -0.019252 -0.092120998
-0.2027 -0.020012001 -0.092216
-0.2027 -0.019832 -0.092120998
-0.20196 -0.020012001 -0.092120998
0.21917 -0.019237 -0.092120998
0.21917 -0.020012001 -0.092896
0.2184 -0.020012001 -0.092120998
0.22112 -0.01928 -0.092120998
0.22112 -0.020012001 -0.092853002
0.22186001 -0.020012001 -0.092120998
-0.20074999 -0.020012001 -0.091949001
-0.1988 -0.020012001 -0.091934003
-0.19684 -0.020012001 -0.091536999
-0.19489001 -0.020012001 -0.091311
-0.19294 -0.020012001 -0.090990998
-0.19294 -0.018654 -0.090167999
-0.19098 -0.020012001 -0.090981998
-0.19098 -0.018536 -0.090167999
-0.18903001 -0.020012001 -0.090931997
-0.18903001 -0.018373 -0.090167999
-0.18708 -0.020012001 -0.090740003
-0.18708 -0.018913001 -0.090167999
-0.18513 -0.020012001 -0.090597004
-0.18513 -0.019204 -0.090167999
-0.18317001 -0.020012001 -0.090585001
-0.18317001 -0.019148 -0.090167999
-0.18122 -0.020012001 -0.090333
-0.18122 -0.019574 -0.090167999
-0.17927 -0.020012001 -0.090595998
-0.17927 -0.019141 -0.090167999
-0.17731 -0.020012001 -0.090828001
-0.17731 -0.018833 -0.090167999
-0.17535999 -0.020012001 -0.090622
-0.17535999 -0.019187 -0.090167999
-0.17341 -0.020012001 -0.090654999
-0.17341 -0.019153001 -0.090167999
-0.17145 -0.020012001 -0.090645
-0.17145 -0.019167 -0.090167999
-0.16949999 -0.020012001 -0.090400003
-0.16949999 -0.01966 -0.090167999
-0.16755 -0.020012001 -0.090369001
-0.16755 -0.019702001 -0.090167999
-0.16559 -0.020012001 -0.090446003
-0.16559 -0.019544 -0.090167999
-0.16364001 -0.020012001 -0.090526
-0.16364001 -0.019354001 -0.090167999
-0.16169 -0.020012001 -0.090535
-0.16169 -0.019352 -0.090167999
-0.15973 -0.020012001 -0.090589002
-0.15973 -0.019328 -0.090167999
-0.15778001 -0.020012001 -0.090645999
-0.15778001 -0.019246001 -0.090167999
-0.15583 -0.020012001 -0.090377003
-0.15583 -0.019626001 -0.090167999
-0.15388 -0.020012001 -0.090203002
-0.15388 -0.019929999 -0.090167999
-0.15319 -0.020012001 -0.090167999
0.21135999 -0.019065 -0.090167999
0.21331 -0.019148 -0.090167999
0.21331 -0.020012001 -0.091031998
0.21135999 -0.020012001 -0.091116004
0.21527 -0.019086 -0.090167999
0.21527 -0.020012001 -0.091094002
0.21721999 -0.020012001 -0.091081001
0.22112 -0.019153001 -0.090167999
0.22307999 -0.020012001 -0.090994
0.22307999 -0.019185999 -0.090167999
0.22397999 -0.020012001 -0.090167999
-0.15192001 -0.020012001 -0.090097003
-0.14997 -0.020012001 -0.089950003
-0.14802 -0.020012001 -0.089773998
-0.14606 -0.020012001 -0.089727998
-0.14410999 -0.020012001 -0.089740999
-0.14216 -0.020012001 -0.089537002
-0.1402 -0.020012001 -0.089541003
-0.13824999 -0.020012001 -0.089428
-0.1363 -0.020012001 -0.089391999
-0.13434 -0.020012001 -0.089244999
-0.13239001 -0.020012001 -0.089184001
-0.13239001 -0.01815 -0.088215001
-0.13044 -0.020012001 -0.089116
-0.13044 -0.018076999 -0.088215001
-0.12848 -0.020012001 -0.089097999
-0.12848 -0.018098 -0.088215001
-0.12653001 -0.020012001 -0.089001
-0.12653001 -0.01856 -0.088215001
-0.12458 -0.020012001 -0.088881999
-0.12458 -0.018802 -0.088215001
-0.12263 -0.020012001 -0.088885002
-0.12263 -0.018661 -0.088215001
-0.12067 -0.020012001 -0.088869996
-0.12067 -0.018753 -0.088215001
-0.11872 -0.020012001 -0.088698998
-0.11872 -0.019055 -0.088215001
-0.11677 -0.020012001 -0.088644996
-0.11677 -0.01915 -0.088215001
-0.11481 -0.020012001 -0.088739
-0.11481 -0.019097 -0.088215001
-0.11286 -0.020012001 -0.088389002
-0.11286 -0.019640001 -0.088215001
-0.11091 -0.020012001 -0.088466004
-0.11091 -0.019463999 -0.088215001
-0.10895 -0.020012001 -0.088293999
-0.10895 -0.019835999 -0.088215001
-0.107 -0.020012001 -0.088237002
-0.107 -0.019964 -0.088215001
-0.10625 -0.020012001 -0.088215001
0.20941 -0.019081 -0.090167999
0.20941 -0.018059 -0.089142002
0.22503 -0.020012001 -0.089180999
0.22698 -0.020012001 -0.089047
0.22894 -0.020012001 -0.089055002
0.23089001 -0.018593 -0.088215001
0.23089001 -0.020012001 -0.089713
0.23284 -0.020012001 -0.089075997
-0.10505 -0.020012001 -0.088179
-0.1031 -0.020012001 -0.088156998
-0.10114 -0.020012001 -0.087962002
-0.099188 -0.020012001 -0.087912001
-0.097235002 -0.020012001 -0.087894998
-0.095282003 -0.020012001 -0.087773003
-0.093328997 -0.020012001 -0.087393001
-0.091375999 -0.020012001 -0.087425999
-0.089423001 -0.020012001 -0.087453
-0.087470002 -0.020012001 -0.087526001
-0.085516997 -0.020012001 -0.087369002
-0.085516997 -0.018165 -0.086262003
-0.083563 -0.020012001 -0.086791001
-0.083563 -0.019447999 -0.086262003
-0.08258 -0.020012001 -0.086262003
-0.081610002 -0.020012001 -0.085463002
-0.081610002 -0.019037001 -0.084307998
-0.080994003 -0.020012001 -0.084307998
-0.080526002 -0.020012001 -0.082355
-0.079795003 -0.020012001 -0.080402002
0.14885999 -0.019804999 -0.080402002
0.14845 -0.020012001 -0.080402002
0.14885999 -0.020012001 -0.080542997
0.15081 -0.020012001 -0.080707997
0.15081 -0.019493001 -0.080402002
0.15277 -0.020012001 -0.080803998
0.15277 -0.019045001 -0.080402002
0.15471999 -0.020012001 -0.080619998
0.15471999 -0.019556999 -0.080402002
0.15633 -0.020012001 -0.080402002
0.1723 -0.019749001 -0.080402002
0.1714 -0.020012001 -0.080402002
0.1723 -0.020012001 -0.080564998
0.17425001 -0.020012001 -0.080453999
0.17425001 -0.019918 -0.080402002
0.1762 -0.020012001 -0.080489002
0.1762 -0.019851999 -0.080402002
0.17734 -0.020012001 -0.080402002
0.19182999 -0.019877 -0.080402002
0.18988 -0.020012001 -0.080402002
0.19182999 -0.020012001 -0.080487996
0.19378 -0.020012001 -0.080526002
0.19378 -0.019801 -0.080402002
0.19573 -0.020012001 -0.080462001
0.19573 -0.019902 -0.080402002
0.1964 -0.020012001 -0.080402002
-0.079910003 -0.020012001 -0.078449003
0.14691 -0.018735001 -0.078449003
0.14573 -0.020012001 -0.078449003
0.14691 -0.020012001 -0.079598002
0.15667 -0.020012001 -0.080361001
0.15862 -0.020012001 -0.080242001
0.16057999 -0.020012001 -0.080283999
0.16253 -0.020012001 -0.080201998
0.16448 -0.020012001 -0.079999998
0.16644 -0.020012001 -0.080160998
0.16839001 -0.020012001 -0.080104999
0.17034 -0.020012001 -0.080219999
0.17816 -0.020012001 -0.080334
0.18010999 -0.020012001 -0.080365002
0.18206 -0.020012001 -0.080209002
0.18402 -0.020012001 -0.080190003
0.18596999 -0.020012001 -0.080137998
0.18792 -0.020012001 -0.080188997
0.19769 -0.020012001 -0.080289997
0.19964001 -0.020012001 -0.080155
0.20159 -0.020012001 -0.079983003
0.20355 -0.020012001 -0.079876997
0.20550001 -0.020012001 -0.079763003
0.20745 -0.020012001 -0.079639003
0.20941 -0.020012001 -0.079672001
0.21135999 -0.020012001 -0.07987
0.21331 -0.020012001 -0.080035999
0.21527 -0.020012001 -0.080082998
0.21721999 -0.020012001 -0.079917997
0.21917 -0.020012001 -0.079977997
0.22112 -0.020012001 -0.079974003
0.22307999 -0.020012001 -0.080017999
0.22503 -0.020012001 -0.079958998
0.22698 -0.020012001 -0.079659
0.22894 -0.020012001 -0.079599001
0.23089001 -0.020012001 -0.079673998
0.23284 -0.020012001 -0.079741001
-0.080633 -0.020012001 -0.076495998
0.14521 -0.020012001 -0.076495998
-0.081610002 -0.018878 -0.074542999
-0.081156999 -0.020012001 -0.074542999
0.14543 -0.020012001 -0.074542999
-0.081610002 -0.020012001 -0.073879004
-0.082506999 -0.020012001 -0.072590001
0.14548001 -0.020012001 -0.072590001
-0.083563 -0.019006999 -0.070637003
-0.083097003 -0.020012001 -0.070637003
0.12542 -0.018271999 -0.072590001
0.14603999 -0.020012001 -0.070637003
-0.083563 -0.020012001 -0.069697998
-0.083922997 -0.020012001 -0.068682998
0.14691 -0.020012001 -0.068720996
0.14692 -0.020012001 -0.068682998
-0.084238 -0.020012001 -0.06673
-0.060125999 -0.019969 -0.06673
-0.060773 -0.020012001 -0.06673
-0.060125999 -0.020012001 -0.066758998
-0.059868 -0.020012001 -0.06673
0.14744 -0.020012001 -0.06673
-0.084354997 -0.020012001 -0.064777002
-0.068305001 -0.020012001 -0.064777002
-0.067938 -0.020012001 -0.065208003
-0.065985002 -0.020012001 -0.066359997
-0.064032003 -0.020012001 -0.066560999
-0.062079001 -0.020012001 -0.066670001
-0.058173001 -0.020012001 -0.066540003
-0.056219999 -0.020012001 -0.066396996
-0.054267 -0.020012001 -0.066345997
-0.052313 -0.020012001 -0.066063002
-0.052313 -0.018213 -0.064777002
-0.050360002 -0.020012001 -0.065494001
-0.050360002 -0.019125 -0.064777002
-0.048806001 -0.020012001 -0.064777002
0.14783999 -0.020012001 -0.064777002
-0.085516997 -0.018122001 -0.062824003
-0.084513001 -0.020012001 -0.062824003
-0.069617003 -0.020012001 -0.062824003
-0.048407 -0.020012001 -0.064525999
-0.048407 -0.018653 -0.062824003
-0.047060002 -0.020012001 -0.062824003
0.14885999 -0.018425999 -0.062824003
0.14801 -0.020012001 -0.062824003
-0.084165998 -0.020012001 -0.060871001
-0.071845002 -0.019752 -0.060871001
-0.071906 -0.020012001 -0.060871001
-0.071845002 -0.020012001 -0.060931999
-0.069891997 -0.020012001 -0.062639996
-0.046454001 -0.020012001 -0.061903
-0.046454001 -0.019486999 -0.060871001
-0.045990001 -0.020012001 -0.060871001
0.1137 -0.019652 -0.060871001
0.11319 -0.020012001 -0.060871001
0.1137 -0.020012001 -0.061214
0.11565 -0.020012001 -0.062075
0.11565 -0.01843 -0.060871001
0.11761 -0.020012001 -0.062238
0.11956 -0.020012001 -0.062261999
0.12151 -0.020012001 -0.062011
0.12347 -0.020012001 -0.061882999
0.12347 -0.018188 -0.060871001
0.12542 -0.020012001 -0.061684001
0.12542 -0.018539 -0.060871001
0.12737 -0.020012001 -0.061356999
0.12737 -0.019157 -0.060871001
0.12932999 -0.020012001 -0.061104
0.12932999 -0.019393001 -0.060871001
0.13012999 -0.020012001 -0.060871001
0.14885999 -0.018908 -0.060871001
0.14825 -0.020012001 -0.060871001
-0.083563 -0.020012001 -0.059156999
-0.083563 -0.019861 -0.058917999
-0.083393 -0.020012001 -0.058917999
-0.074437998 -0.020012001 -0.058917999
-0.073798001 -0.020012001 -0.059404999
-0.046454001 -0.018561 -0.058917999
-0.045412999 -0.020012001 -0.058917999
0.11175 -0.019464999 -0.058917999
0.11127 -0.020012001 -0.058917999
0.11175 -0.020012001 -0.059696
0.13128 -0.020012001 -0.060447
0.133 -0.020012001 -0.058917999
0.14885999 -0.019935001 -0.058917999
0.14881 -0.020012001 -0.058917999
-0.081712998 -0.020012001 -0.056965001
-0.077129997 -0.020012001 -0.056965001
-0.075750999 -0.020012001 -0.057932001
-0.046454001 -0.018154001 -0.056965001
-0.045058001 -0.020012001 -0.056965001
0.11175 -0.018554 -0.056965001
0.1105 -0.020012001 -0.056965001
0.13323 -0.020012001 -0.058750998
0.13478 -0.020012001 -0.056965001
0.14885999 -0.020012001 -0.058125999
0.14891 -0.020012001 -0.056965001
-0.081610002 -0.020012001 -0.056894001
-0.079657003 -0.020012001 -0.056150001
-0.079657003 -0.018149 -0.055011999
-0.077703997 -0.020012001 -0.056373
-0.044527002 -0.020012001 -0.055011999
0.1098 -0.019808 -0.055011999
0.10955 -0.020012001 -0.055011999
0.1098 -0.020012001 -0.055447001
0.13519 -0.020012001 -0.056566
0.13655999 -0.020012001 -0.055011999
0.14907999 -0.020012001 -0.055011999
-0.044500999 -0.020012001 -0.054765999
-0.044500999 -0.019709 -0.053059001
-0.044282999 -0.020012001 -0.053059001
0.1098 -0.019091999 -0.053059001
0.10895 -0.020012001 -0.053059001
0.13714001 -0.020012001 -0.054437999
0.13887 -0.020012001 -0.053059001
0.14885999 -0.019340999 -0.053059001
0.14842001 -0.020012001 -0.053059001
0.14885999 -0.020012001 -0.054148
-0.044500999 -0.018954 -0.051105
-0.043634001 -0.020012001 -0.051105
0.1098 -0.018615 -0.051105
0.10851 -0.020012001 -0.051105
0.13909 -0.020012001 -0.052806001
0.14105 -0.020012001 -0.051442001
0.14105 -0.019130999 -0.051105
0.14162999 -0.020012001 -0.051105
0.14885999 -0.018310999 -0.051105
0.14721 -0.020012001 -0.051105
-0.042672999 -0.020012001 -0.049152002
0.10784 -0.019915 -0.049152002
0.10775 -0.020012001 -0.049152002
0.10784 -0.020012001 -0.049378
0.14300001 -0.020012001 -0.050066002
0.14495 -0.020012001 -0.049887002
0.14495 -0.018941 -0.049152002
0.14691 -0.020012001 -0.050787002
-0.042548001 -0.020012001 -0.048923999
-0.042548001 -0.018647 -0.047199
-0.041166 -0.020012001 -0.047199
0.10784 -0.019407 -0.047199
0.10711 -0.020012001 -0.047199
-0.040594999 -0.020012001 -0.046749
-0.040594999 -0.018069001 -0.045246001
-0.038642 -0.020012001 -0.045766
-0.038642 -0.019416999 -0.045246001
-0.036688 -0.020012001 -0.045318
-0.036688 -0.019894 -0.045246001
-0.036366001 -0.020012001 -0.045246001
-0.028875999 -0.01991 -0.045246001
-0.029405 -0.020012001 -0.045246001
-0.028875999 -0.020012001 -0.045302
-0.026923001 -0.020012001 -0.045253001
-0.026923001 -0.019994 -0.045246001
-0.024970001 -0.020012001 -0.045526002
-0.024970001 -0.019462001 -0.045246001
-0.023017 -0.020012001 -0.045635
-0.023017 -0.019197 -0.045246001
-0.021063 -0.020012001 -0.045600001
-0.021063 -0.019376 -0.045246001
-0.01911 -0.020012001 -0.045738999
-0.01911 -0.019095 -0.045246001
-0.017157 -0.020012001 -0.045681
-0.017157 -0.019107999 -0.045246001
-0.015204 -0.020012001 -0.045713998
-0.015204 -0.019100999 -0.045246001
-0.013251 -0.020012001 -0.045754001
-0.013251 -0.019067001 -0.045246001
-0.011298 -0.020012001 -0.045922998
-0.011298 -0.018856 -0.045246001
-0.0093448004 -0.020012001 -0.046006002
-0.0093448004 -0.018681999 -0.045246001
-0.0073917001 -0.020012001 -0.045998
-0.0073917001 -0.018769 -0.045246001
-0.0054385001 -0.020012001 -0.045832999
-0.0054385001 -0.019003 -0.045246001
-0.0035865 -0.020012001 -0.045246001
0.10589 -0.019876 -0.045246001
0.10573 -0.020012001 -0.045246001
0.10589 -0.020012001 -0.045448001
0.10784 -0.018154001 -0.045246001
-0.034735002 -0.020012001 -0.044937
-0.032782 -0.020012001 -0.044987001
-0.030828999 -0.020012001 -0.045084
-0.0034854 -0.020012001 -0.045191001
-0.0034854 -0.018232999 -0.043292999
-0.0020017 -0.020012001 -0.043292999
0.10589 -0.018621 -0.043292999
0.10447 -0.020012001 -0.043292999
-0.0016981 -0.020012001 -0.041340001
0.10394 -0.019955 -0.041340001
0.10386 -0.020012001 -0.041340001
0.10394 -0.020012001 -0.041536
0.10589 -0.018084999 -0.041340001
-0.0020411001 -0.020012001 -0.039386999
0.10394 -0.019834001 -0.039386999
0.10381 -0.020012001 -0.039386999
-0.0022356999 -0.020012001 -0.037434001
0.10394 -0.019931 -0.037434001
0.10388 -0.020012001 -0.037434001
-0.0025029001 -0.020012001 -0.03548
0.10394 -0.020012001 -0.037261002
0.10589 -0.018665001 -0.03548
0.10464 -0.020012001 -0.03548
-0.0034854 -0.018084001 -0.033527002
-0.0028170999 -0.020012001 -0.033527002
0.10589 -0.019717 -0.033527002
0.10561 -0.020012001 -0.033527002
-0.0034854 -0.019873001 -0.031574
-0.0034499001 -0.020012001 -0.031574
0.10589 -0.020012001 -0.03283
0.10784 -0.018603999 -0.031574
0.10639 -0.020012001 -0.031574
-0.0034854 -0.020012001 -0.031264
-0.0036203 -0.020012001 -0.029620999
0.10784 -0.019749001 -0.029620999
0.10763 -0.020012001 -0.029620999
-0.0035677999 -0.020012001 -0.027667999
0.10784 -0.020012001 -0.029177999
0.1098 -0.018711001 -0.027667999
0.10863 -0.020012001 -0.027667999
-0.0037322 -0.020012001 -0.025715001
0.1098 -0.01956 -0.025715001
0.10936 -0.020012001 -0.025715001
-0.0036394 -0.020012001 -0.023762001
0.1098 -0.020012001 -0.023964001
0.10984 -0.020012001 -0.023762001
-0.0041185999 -0.020012001 -0.021808
0.11175 -0.018666999 -0.021808
0.11052 -0.020012001 -0.021808
-0.0040369001 -0.020012001 -0.019855
0.11175 -0.019277999 -0.019855
0.11091 -0.020012001 -0.019855
-0.0039062998 -0.020012001 -0.017902
0.11175 -0.020012001 -0.018556001
0.11209 -0.020012001 -0.017902
-0.0040378999 -0.020012001 -0.015949
0.1137 -0.018673999 -0.015949
0.11217 -0.020012001 -0.015949
-0.0038481001 -0.020012001 -0.013996
0.1137 -0.019177999 -0.013996
0.11238 -0.020012001 -0.013996
-0.0036126999 -0.020012001 -0.012043
0.1137 -0.018774001 -0.012043
0.11248 -0.020012001 -0.012043
-0.0034854 -0.020012001 -0.011242
-0.0034854 -0.019724 -0.01009
-0.0033146001 -0.020012001 -0.01009
0.11222 -0.020012001 -0.01009
-0.0034854 -0.019522 -0.0081366003
-0.0032768 -0.020012001 -0.0081366003
0.11197 -0.020012001 -0.0081366003
-0.0034854 -0.018746 -0.0061834999
-0.0029768001 -0.020012001 -0.0061834999
0.11175 -0.018885 -0.0061834999
0.11105 -0.020012001 -0.0061834999
0.11175 -0.020012001 -0.0075337999
-0.0034854 -0.018491 -0.0042304001
-0.0028401001 -0.020012001 -0.0042304001
0.11041 -0.020012001 -0.0042304001
-0.0034854 -0.018137001 -0.0022773
-0.0027222999 -0.020012001 -0.0022773
0.10983 -0.020012001 -0.0022773
-0.0034854 -0.018572999 -0.00032413
-0.0028653999 -0.020012001 -0.00032414999
0.10949 -0.020012001 -0.00032414999
0.1098 -0.020012001 -0.0020383
-0.0034854 -0.018534999 0.0016289999
-0.0028402 -0.020012001 0.0016289999
0.10887 -0.020012001 0.0016289999
-0.0034854 -0.018678 0.0035820999
-0.0030143999 -0.020012001 0.0035820999
0.10845 -0.020012001 0.0035820999
-0.0034854 -0.01987 0.0055351998
-0.0034435999 -0.020012001 0.0055351998
0.10784 -0.01929 0.0055351998
0.10807 -0.020012001 0.0055351998
-0.0034854 -0.020012001 0.0057051
-0.0038691 -0.020012001 0.0074883001
0.0043270998 -0.019047 0.0074884002
0.10774 -0.020012001 0.0074883001
0.10784 -0.020012001 0.0067745
-0.0044161999 -0.020012001 0.0094414996
0.0043270998 -0.019087 0.0094414996
0.10759 -0.020012001 0.0094414996
-0.0048475 -0.020012001 0.011395
0.0032730999 -0.020012001 0.011395
0.0043270998 -0.020012001 0.010367
0.1071 -0.020012001 0.011395
-0.0054385001 -0.019549999 0.013348
-0.0052954 -0.020012001 0.013348
0.0033189 -0.020012001 0.013348
0.10693 -0.020012001 0.013348
-0.0054385001 -0.020012001 0.01383
-0.0058128 -0.020012001 0.015301
0.0033177 -0.020012001 0.015301
0.10589 -0.018890999 0.015301
0.10639 -0.020012001 0.015301
-0.0061337999 -0.020012001 0.017254001
0.0023739999 -0.019082 0.017254001
0.0033038999 -0.020012001 0.017254001
0.1055 -0.020012001 0.017254001
0.10589 -0.020012001 0.016325001
-0.0067292 -0.020012001 0.019207001
0.0012914001 -0.020012001 0.019207001
0.0023739999 -0.020012001 0.018184001
0.105 -0.020012001 0.019207001
-0.0073917001 -0.020012001 0.021016
-0.0074574999 -0.020012001 0.021159999
0.0013675001 -0.020012001 0.021159999
0.10394 -0.019011 0.021159999
0.10435 -0.020012001 0.021159999
-0.0081674997 -0.020012001 0.023112999
0.00042085 -0.019068999 0.023112999
0.0013642 -0.020012001 0.023112999
0.10368 -0.020012001 0.023112999
0.10394 -0.020012001 0.022260001
-0.0088290004 -0.020012001 0.025067
0.10334 -0.020012001 0.025067
-0.0093448004 -0.019095 0.02702
-0.0092173005 -0.020012001 0.02702
0.10198 -0.018860999 0.02702
0.10252 -0.020012001 0.02702
-0.0093448004 -0.020012001 0.027511001
-0.0097310999 -0.020012001 0.028973
0.10198 -0.019528 0.028973
0.10217 -0.020012001 0.028973
-0.010272 -0.020012001 0.030926
-0.00058349001 -0.020012001 0.028973
-0.00062303001 -0.020012001 0.030926
0.10174 -0.020012001 0.030926
0.10198 -0.020012001 0.029903
-0.01065 -0.020012001 0.032878999
-0.0025642 -0.020012001 0.032878999
-0.0015323 -0.020012001 0.031835001
0.10003 -0.01864 0.032878999
0.10101 -0.020012001 0.032878999
-0.011298 -0.018859999 0.034832001
-0.011071 -0.020012001 0.034832001
-0.0025514001 -0.020012001 0.034832001
0.10003 -0.019452 0.034832001
0.10043 -0.020012001 0.034832001
-0.011298 -0.020012001 0.035980999
-0.011466 -0.020012001 0.036784999
0.099679001 -0.020012001 0.036784999
0.10003 -0.020012001 0.035948001
-0.012029 -0.020012001 0.038738001
0.098076999 -0.018622 0.038738001
0.098935001 -0.020012001 0.038738001
-0.013251 -0.018702 0.040690999
-0.012734 -0.020012001 0.040690999
0.098076999 -0.019835001 0.040690999
0.098168999 -0.020012001 0.040690999
-0.013251 -0.020012001 0.041999999
-0.013489 -0.020012001 0.042645
0.097557001 -0.020012001 0.042645
0.098076999 -0.020012001 0.040920001
-0.013882 -0.020012001 0.044597998
0.096124001 -0.018498 0.044597998
0.096887998 -0.020012001 0.044597998
-0.014157 -0.020012001 0.046551
0.096124001 -0.019691 0.046551
0.096332997 -0.020012001 0.046551
-0.014727 -0.020012001 0.048503999
0.095535003 -0.020012001 0.048503999
0.096124001 -0.020012001 0.047010999
-0.015204 -0.020012001 0.050016999
-0.015321 -0.020012001 0.050457001
0.094171003 -0.019158 0.050457001
0.094779998 -0.020012001 0.050457001
-0.015473 -0.020012001 0.052409999
0.094043002 -0.020012001 0.052409999
0.094171003 -0.020012001 0.052092999
-0.015991 -0.020012001 0.054363001
0.092217997 -0.018831 0.054363001
0.093135998 -0.020012001 0.054363001
-0.016314 -0.020012001 0.056315999
0.092217997 -0.019672001 0.056315999
0.092453003 -0.020012001 0.056315999
-0.017157 -0.018216001 0.05827
-0.016682999 -0.020012001 0.05827
0.090264998 -0.018165 0.05827
0.091522999 -0.020012001 0.05827
0.092217997 -0.020012001 0.056839
-0.017157 -0.019996 0.060222998
-0.017153 -0.020012001 0.060222998
0.090264998 -0.019546 0.060222998
0.090602003 -0.020012001 0.060222998
-0.017157 -0.020012001 0.060235001
-0.017759001 -0.020012001 0.062176
0.088312 -0.018154999 0.062176
0.089553997 -0.020012001 0.062176
0.090264998 -0.020012001 0.060913
-0.018155999 -0.020012001 0.064129002
0.088312 -0.0196 0.064129002
0.088546 -0.020012001 0.064129002
-0.018655 -0.020012001 0.066082001
0.087806001 -0.020012001 0.066082001
0.088312 -0.020012001 0.064735003
-0.01911 -0.019523 0.068034999
-0.01901 -0.020012001 0.068034999
0.086358003 -0.019267 0.068034999
0.086883001 -0.020012001 0.068034999
-0.01911 -0.020012001 0.068649001
-0.019324001 -0.020012001 0.069987997
0.084404998 -0.018263999 0.069987997
0.085863002 -0.020012001 0.069987997
0.086358003 -0.020012001 0.069078997
-0.019556999 -0.020012001 0.071942002
0.084342003 -0.020012001 0.071942002
0.084404998 -0.020012001 0.071849003
-0.019905001 -0.020012001 0.073895
0.082451999 -0.018345 0.073895
0.083694004 -0.020012001 0.073895
-0.020060999 -0.020012001 0.075847998
0.082451999 -0.019323001 0.075847998
0.082967997 -0.020012001 0.075847998
-0.020438001 -0.020012001 0.077800997
0.081900001 -0.020012001 0.077800997
0.082451999 -0.020012001 0.076788999
-0.021063 -0.018193999 0.079754002
-0.020721 -0.020012001 0.079754002
0.080499001 -0.019316001 0.079754002
0.080976002 -0.020012001 0.079754002
-0.021063 -0.020012001 0.081334002
-0.021145999 -0.020012001 0.081707001
0.079912998 -0.020012001 0.081707001
0.080499001 -0.020012001 0.080554999
-0.021517999 -0.020012001 0.083659999
0.078546003 -0.019282 0.083659999
0.078974999 -0.020012001 0.083659999
-0.021931 -0.020012001 0.085612997
0.076592997 -0.018221 0.085612997
0.077965997 -0.020012001 0.085612997
0.078546003 -0.020012001 0.084540002
-0.022146 -0.020012001 0.087567002
0.076592997 -0.019243 0.087567002
0.077211998 -0.020012001 0.087567002
-0.022430001 -0.020012001 0.08952
0.076136 -0.020012001 0.08952
0.076592997 -0.020012001 0.088648997
-0.023017 -0.018546 0.091472998
-0.02273 -0.020012001 0.091472998
0.074639998 -0.019384 0.091472998
0.074996002 -0.020012001 0.091472998
-0.023017 -0.019370999 0.093425997
-0.022877 -0.020012001 0.093425997
0.074148998 -0.020012001 0.093425997
0.074639998 -0.020012001 0.092312001
-0.023017 -0.020012001 0.094751999
-0.023088999 -0.020012001 0.095379002
0.072687 -0.01956 0.095379002
0.072979003 -0.020012001 0.095379002
-0.023523999 -0.020012001 0.097332001
0.070733003 -0.018715 0.097332001
0.071516998 -0.020012001 0.097332001
0.072687 -0.020012001 0.095826998
-0.023607999 -0.020012001 0.099284999
0.070474997 -0.020012001 0.099284999
0.070733003 -0.020012001 0.098728999
-0.023653001 -0.020012001 0.10124
0.068779998 -0.018848 0.10124
0.069626004 -0.020012001 0.10124
-0.023835 -0.020012001 0.10319
0.068516999 -0.020012001 0.10319
0.068779998 -0.020012001 0.10274
-0.023949999 -0.020012001 0.10514
0.066826999 -0.019266 0.10514
0.067437001 -0.020012001 0.10514
-0.024276 -0.020012001 0.1071
0.066249996 -0.020012001 0.1071
0.066826999 -0.020012001 0.10602
-0.024157999 -0.020012001 0.10905
0.064874001 -0.019385001 0.10905
0.065366 -0.020012001 0.10905
-0.024150001 -0.020012001 0.111
0.062921003 -0.018308001 0.111
0.064462997 -0.020012001 0.111
0.064874001 -0.020012001 0.11013
-0.024119001 -0.020012001 0.11296
0.060968 -0.018088 0.11296
0.062921003 -0.019386999 0.11296
0.063638002 -0.020012001 0.11296
-0.024363 -0.020012001 0.11491
0.060968 -0.018859999 0.11491
0.062166002 -0.020012001 0.11491
0.062921003 -0.020012001 0.11393
-0.024635 -0.020012001 0.11686
0.059014998 -0.018216999 0.11686
0.060968 -0.019835001 0.11686
0.061110001 -0.020012001 0.11686
-0.024606001 -0.020012001 0.11882
0.059014998 -0.019106001 0.11882
0.059897002 -0.020012001 0.11882
0.060968 -0.020012001 0.11713
-0.024476999 -0.020012001 0.12077
0.057062 -0.018515 0.12077
0.058385 -0.020012001 0.12077
0.059014998 -0.020012001 0.12
-0.024133001 -0.020012001 0.12272
0.057007 -0.020012001 0.12272
0.057062 -0.020012001 0.12265
-0.023751 -0.020012001 0.12468
0.055108 -0.019111 0.12468
0.055691998 -0.020012001 0.12468
-0.023017 -0.019828999 0.12662999
-0.023111001 -0.020012001 0.12662999
0.053155001 -0.018126 0.12662999
0.054579999 -0.020012001 0.12662999
0.055108 -0.020012001 0.12563001
-0.023017 -0.020012001 0.12685999
-0.021063 -0.018850001 0.12858
-0.022136999 -0.020012001 0.12858
0.053155001 -0.019669 0.12858
0.053422999 -0.020012001 0.12858
-0.021063 -0.020012001 0.13029
-0.01911 -0.018549001 0.13054
-0.020862 -0.020012001 0.13054
0.051201999 -0.018699 0.13054
0.052389 -0.020012001 0.13054
0.053155001 -0.020012001 0.12905
-0.01911 -0.020012001 0.1322
-0.017157 -0.018798999 0.13248999
-0.018823 -0.020012001 0.13248999
0.049249001 -0.018203 0.13248999
0.050958999 -0.020012001 0.13248999
0.051201999 -0.020012001 0.13214
-0.017157 -0.020012001 0.13441999
-0.015204 -0.018707 0.13444
-0.017137 -0.020012001 0.13444
0.049249001 -0.019409001 0.13444
0.049764998 -0.020012001 0.13444
-0.015204 -0.020012001 0.13578001
-0.013251 -0.018483 0.1364
-0.014524 -0.020012001 0.1364
0.047295999 -0.019053999 0.1364
0.048362002 -0.020012001 0.1364
0.049249001 -0.020012001 0.13516
-0.013251 -0.020012001 0.13790999
-0.011298 -0.018308001 0.13835
-0.012895 -0.020012001 0.13835
0.045343 -0.018319 0.13835
0.047019999 -0.020012001 0.13835
0.047295999 -0.020012001 0.13796
-0.011298 -0.019853 0.14030001
-0.011461 -0.020012001 0.14030001
0.045235999 -0.020012001 0.14030001
0.045343 -0.020012001 0.14015
-0.011298 -0.020012001 0.14047
-0.0093448004 -0.019734001 0.14225
-0.0096578002 -0.020012001 0.14225
-0.0073917001 -0.018127 0.14225
0.043389998 -0.019769 0.14225
0.04369 -0.020012001 0.14225
-0.0093448004 -0.020012001 0.14258
-0.0076473001 -0.020012001 0.14421
-0.0073917001 -0.0198 0.14421
-0.0054385001 -0.018417999 0.14421
0.041437 -0.019087 0.14421
0.042381 -0.020012001 0.14421
0.043389998 -0.020012001 0.14263999
-0.0073917001 -0.020012001 0.14444
-0.0054385001 -0.020012001 0.14607
-0.0034854 -0.018579001 0.14616001
-0.0053254999 -0.020012001 0.14616001
0.039483 -0.018779 0.14616001
0.040736999 -0.020012001 0.14616001
0.041437 -0.020012001 0.14539
-0.0034854 -0.020012001 0.14755
-0.0015323 -0.018347001 0.14811
-0.0029090999 -0.020012001 0.14811
0.037530001 -0.018525001 0.14811
0.038833998 -0.020012001 0.14811
0.039483 -0.020012001 0.14748999
-0.0015323 -0.020012001 0.14963999
0.00042085 -0.018627999 0.15007
-0.0010775001 -0.020012001 0.15007
0.035576999 -0.018773001 0.15007
0.036927 -0.020012001 0.15007
0.037530001 -0.020012001 0.14954001
0.00042085 -0.020012001 0.15144999
0.0023739999 -0.018968999 0.15202001
0.0010308 -0.020012001 0.15202001
0.033624001 -0.018603001 0.15202001
0.035303 -0.020012001 0.15202001
0.035576999 -0.020012001 0.15165
0.0023739999 -0.020012001 0.1533
0.0043270998 -0.019165 0.15397
0.0032242001 -0.020012001 0.15397
0.031670999 -0.018445 0.15397
0.033481002 -0.020012001 0.15397
0.033624001 -0.020012001 0.1538
0.0043270998 -0.020012001 0.15473001
0.0062802001 -0.019733001 0.15593
0.0059806998 -0.020012001 0.15593
0.0082333004 -0.018085999 0.15593
0.031631999 -0.020012001 0.15593
0.031670999 -0.020012001 0.15589
0.0062802001 -0.020012001 0.15617
0.0082333004 -0.020012001 0.15775999
0.010186 -0.018773001 0.15787999
0.0083929999 -0.020012001 0.15787999
0.029718 -0.019997001 0.15787999
0.02973 -0.020012001 0.15787999
0.010186 -0.020012001 0.15918
0.01214 -0.019037999 0.15983
0.011063 -0.020012001 0.15983
0.027607 -0.020012001 0.15983
0.027765 -0.020012001 0.15968999
0.029718 -0.020012001 0.15789001
0.01214 -0.020012001 0.16069999
0.014093 -0.019649001 0.16179
0.013605 -0.020012001 0.16179
0.016046001 -0.01822 0.16179
0.023858 -0.018368 0.16179
0.025753001 -0.020012001 0.16179
0.025812 -0.020012001 0.16173001
0.014093 -0.020012001 0.1621
0.016046001 -0.020012001 0.16345
0.017999001 -0.019103 0.16373999
0.016725 -0.020012001 0.16373999
0.019951999 -0.018541001 0.16373999
0.021904999 -0.019203 0.16373999
0.023009 -0.020012001 0.16373999
0.023858 -0.020012001 0.16316999
0.017999001 -0.020012001 0.16467001
0.019951999 -0.020012001 0.16472
0.021904999 -0.020012001 0.16448
-0.26324999 -0.021846 -0.099932998
-0.26504999 -0.021965001 -0.09798
-0.26324999 -0.021965001 -0.099877998
-0.26322001 -0.021965001 -0.099932998
-0.25152999 -0.021671999 -0.09798
-0.24958 -0.021965001 -0.098094001
-0.25080001 -0.021965001 -0.099932998
-0.24958 -0.021806 -0.09798
-0.24952 -0.021965001 -0.09798
-0.26519999 -0.021965001 -0.097891003
-0.25152999 -0.020127 -0.096027002
-0.24763 -0.021965001 -0.096156999
-0.24763 -0.02176 -0.096027002
-0.24736001 -0.021965001 -0.096027002
-0.24567001 -0.021965001 -0.095285997
-0.24567001 -0.020109 -0.094074003
-0.24372 -0.021965001 -0.095039003
-0.24177 -0.021965001 -0.095141999
-0.23981 -0.021965001 -0.095077999
-0.23785999 -0.021965001 -0.095430002
-0.23591 -0.021965001 -0.095156997
-0.23395 -0.021965001 -0.095003001
-0.23199999 -0.021965001 -0.095040999
-0.23199999 -0.020033 -0.094074003
-0.23005 -0.021965001 -0.094861001
-0.23005 -0.020457 -0.094074003
-0.22809 -0.021965001 -0.094388001
-0.22809 -0.021289 -0.094074003
-0.22614001 -0.021965001 -0.094273001
-0.22614001 -0.021274 -0.094074003
-0.22419 -0.021965001 -0.094469003
-0.22419 -0.021035001 -0.094074003
-0.22223 -0.021965001 -0.094636999
-0.22223 -0.02094 -0.094074003
-0.22028001 -0.021965001 -0.094755001
-0.22028001 -0.020705 -0.094074003
-0.21833 -0.021965001 -0.094559997
-0.21833 -0.020974001 -0.094074003
-0.21638 -0.021965001 -0.094140001
-0.21638 -0.021787999 -0.094074003
-0.21442001 -0.021965001 -0.094259001
-0.21442001 -0.021472 -0.094074003
-0.21247 -0.021965001 -0.094362997
-0.21247 -0.021461001 -0.094074003
-0.21052 -0.021965001 -0.094228998
-0.21052 -0.021756001 -0.094074003
-0.20856 -0.021965001 -0.094140001
-0.20856 -0.021859 -0.094074003
-0.20821001 -0.021965001 -0.094074003
-0.20660999 -0.021965001 -0.093791001
-0.20466 -0.021965001 -0.09375
-0.2027 -0.021965001 -0.093295999
-0.20074999 -0.021965001 -0.092988998
-0.20074999 -0.020311 -0.092120998
-0.1988 -0.021965001 -0.092840999
-0.1988 -0.02032 -0.092120998
-0.19684 -0.021965001 -0.092506997
-0.19684 -0.021212 -0.092120998
-0.19489001 -0.021965001 -0.092578001
-0.19489001 -0.021252001 -0.092120998
-0.19294 -0.021965001 -0.092413999
-0.19294 -0.021516001 -0.092120998
-0.19129001 -0.021965001 -0.092120998
0.21135999 -0.021965001 -0.093020998
0.21135999 -0.021065 -0.092120998
0.21225999 -0.021965001 -0.092120998
0.21527 -0.021148 -0.092120998
0.21527 -0.021965001 -0.092937998
0.21445 -0.021965001 -0.092120998
0.21624 -0.021965001 -0.092120998
0.21917 -0.021965001 -0.092817001
0.21833 -0.021965001 -0.092120998
0.22112 -0.021965001 -0.092881002
0.22307999 -0.021743 -0.092120998
0.22307999 -0.021965001 -0.092343003
0.2233 -0.021965001 -0.092120998
-0.19098 -0.021965001 -0.092058003
-0.18903001 -0.021965001 -0.091738999
-0.18708 -0.021965001 -0.091775998
-0.18513 -0.021965001 -0.091775
-0.18317001 -0.021965001 -0.091712996
-0.18122 -0.021965001 -0.091619
-0.17927 -0.021965001 -0.091605999
-0.17731 -0.021965001 -0.091659002
-0.17535999 -0.021965001 -0.091753997
-0.17341 -0.021965001 -0.091654003
-0.17145 -0.021965001 -0.091610998
-0.16949999 -0.021965001 -0.091564998
-0.16755 -0.021965001 -0.091539003
-0.16559 -0.021965001 -0.091418996
-0.16364001 -0.021965001 -0.091577999
-0.16169 -0.021965001 -0.091633998
-0.15973 -0.021965001 -0.091573998
-0.15778001 -0.021965001 -0.091747001
-0.15583 -0.021965001 -0.091411002
-0.15388 -0.021965001 -0.091248997
-0.15192001 -0.021965001 -0.091153003
-0.15192001 -0.020129001 -0.090167999
-0.14997 -0.021965001 -0.090937003
-0.14997 -0.020389 -0.090167999
-0.14802 -0.021965001 -0.090919003
-0.14802 -0.020637 -0.090167999
-0.14606 -0.021965001 -0.090829
-0.14606 -0.02076 -0.090167999
-0.14410999 -0.021965001 -0.090820998
-0.14410999 -0.020706 -0.090167999
-0.14216 -0.021965001 -0.090714
-0.14216 -0.021047 -0.090167999
-0.1402 -0.021965001 -0.090438001
-0.1402 -0.021419 -0.090167999
-0.13824999 -0.021965001 -0.090562001
-0.13824999 -0.021303 -0.090167999
-0.1363 -0.021965001 -0.090558998
-0.1363 -0.021291001 -0.090167999
-0.13434 -0.021965001 -0.090425998
-0.13434 -0.021528 -0.090167999
-0.13239001 -0.021965001 -0.090392001
-0.13239001 -0.021593001 -0.090167999
-0.13044 -0.021965001 -0.090337999
-0.13044 -0.021662001 -0.090167999
-0.12848 -0.021965001 -0.090255
-0.12848 -0.021828 -0.090167999
-0.12699001 -0.021965001 -0.090167999
0.21331 -0.021965001 -0.091092996
0.21721999 -0.021965001 -0.091237001
0.22503 -0.02121 -0.090167999
0.22503 -0.021965001 -0.090847999
0.22698 -0.021362999 -0.090167999
0.22698 -0.021965001 -0.090769999
0.22894 -0.021290001 -0.090167999
0.22894 -0.021965001 -0.090843
0.23089001 -0.020601001 -0.090167999
0.23089001 -0.021965001 -0.090820998
0.23284 -0.021574 -0.090167999
0.23284 -0.021965001 -0.090558998
-0.12653001 -0.021965001 -0.090144001
-0.12458 -0.021965001 -0.089989997
-0.12263 -0.021965001 -0.089906
-0.12067 -0.021965001 -0.089869
-0.11872 -0.021965001 -0.089757003
-0.11677 -0.021965001 -0.0898
-0.11481 -0.021965001 -0.089759
-0.11286 -0.021965001 -0.089593001
-0.11091 -0.021965001 -0.089451998
-0.10895 -0.021965001 -0.089313999
-0.107 -0.021965001 -0.089400001
-0.10505 -0.021965001 -0.089392997
-0.10505 -0.020079 -0.088215001
-0.1031 -0.021965001 -0.089325003
-0.1031 -0.020107999 -0.088215001
-0.10114 -0.021965001 -0.089218996
-0.10114 -0.020408999 -0.088215001
-0.099188 -0.021965001 -0.088996001
-0.099188 -0.020634999 -0.088215001
-0.097235002 -0.021965001 -0.088937998
-0.097235002 -0.020676 -0.088215001
-0.095282003 -0.021965001 -0.088863
-0.095282003 -0.020784 -0.088215001
-0.093328997 -0.021965001 -0.088614002
-0.093328997 -0.021335 -0.088215001
-0.091375999 -0.021965001 -0.088481002
-0.091375999 -0.021483 -0.088215001
-0.089423001 -0.021965001 -0.088430002
-0.089423001 -0.021569001 -0.088215001
-0.087470002 -0.021965001 -0.088651001
-0.087470002 -0.021133 -0.088215001
-0.085516997 -0.021965001 -0.088473998
-0.085516997 -0.021506 -0.088215001
-0.083563 -0.021965001 -0.088229999
-0.083563 -0.021942999 -0.088215001
-0.083516002 -0.021965001 -0.088215001
-0.081610002 -0.021965001 -0.087361999
-0.081610002 -0.020745 -0.086262003
-0.080288999 -0.021965001 -0.086262003
-0.079657003 -0.021965001 -0.084628001
-0.079657003 -0.021872999 -0.084307998
-0.079595998 -0.021965001 -0.084307998
-0.079657003 -0.021954 -0.082355
-0.079648003 -0.021965001 -0.082355
-0.079657003 -0.020539001 -0.080402002
-0.079227 -0.021965001 -0.080402002
0.14691 -0.020788001 -0.080402002
0.14532 -0.021965001 -0.080402002
0.14691 -0.021965001 -0.081451997
0.14885999 -0.021965001 -0.081653997
0.15081 -0.021965001 -0.081836
0.15277 -0.021965001 -0.081857003
0.15471999 -0.021965001 -0.081483997
0.15667 -0.021965001 -0.081423998
0.15667 -0.020091999 -0.080402002
0.15862 -0.021965001 -0.081450999
0.15862 -0.020248 -0.080402002
0.16057999 -0.021965001 -0.081428997
0.16057999 -0.020222999 -0.080402002
0.16253 -0.021965001 -0.081325002
0.16253 -0.020413 -0.080402002
0.16448 -0.021965001 -0.081188999
0.16448 -0.020808 -0.080402002
0.16644 -0.021965001 -0.081514001
0.16644 -0.020365 -0.080402002
0.16839001 -0.021965001 -0.081386
0.16839001 -0.020559 -0.080402002
0.17034 -0.021965001 -0.081496999
0.17034 -0.020313 -0.080402002
0.1723 -0.021965001 -0.081580997
0.17425001 -0.021965001 -0.081587002
0.1762 -0.021965001 -0.081506997
0.17816 -0.021965001 -0.081341997
0.17816 -0.020133 -0.080402002
0.18010999 -0.021965001 -0.081366003
0.18010999 -0.020079 -0.080402002
0.18206 -0.021965001 -0.081332996
0.18206 -0.020364 -0.080402002
0.18402 -0.021965001 -0.081156
0.18402 -0.020473 -0.080402002
0.18596999 -0.021965001 -0.081317998
0.18596999 -0.020522 -0.080402002
0.18792 -0.021965001 -0.081410997
0.18792 -0.02038 -0.080402002
0.18987 -0.021965001 -0.081416003
0.18987 -0.020013001 -0.080402002
0.19182999 -0.021965001 -0.081606999
0.19378 -0.021965001 -0.081580997
0.19573 -0.021965001 -0.081513003
0.19769 -0.021965001 -0.081298999
0.19769 -0.02024 -0.080402002
0.19964001 -0.021965001 -0.081133999
0.19964001 -0.020547999 -0.080402002
0.20159 -0.021965001 -0.081173003
0.20159 -0.020695999 -0.080402002
0.20355 -0.021965001 -0.080953002
0.20355 -0.021007 -0.080402002
0.20550001 -0.021965001 -0.080885999
0.20550001 -0.0211 -0.080402002
0.20745 -0.021965001 -0.080655001
0.20745 -0.021547001 -0.080402002
0.20941 -0.021965001 -0.080848999
0.20941 -0.021265 -0.080402002
0.21135999 -0.021965001 -0.080995001
0.21135999 -0.020996001 -0.080402002
0.21331 -0.021965001 -0.080963999
0.21331 -0.020947 -0.080402002
0.21527 -0.021965001 -0.081047997
0.21527 -0.020659 -0.080402002
0.21721999 -0.021965001 -0.081086002
0.21721999 -0.020802001 -0.080402002
0.21917 -0.021965001 -0.080968998
0.21917 -0.020791 -0.080402002
0.22112 -0.021965001 -0.080971003
0.22112 -0.020793 -0.080402002
0.22307999 -0.021965001 -0.081042998
0.22307999 -0.020662 -0.080402002
0.22503 -0.021965001 -0.081005
0.22503 -0.020717001 -0.080402002
0.22698 -0.021965001 -0.080724001
0.22698 -0.021283001 -0.080402002
0.22894 -0.021965001 -0.080444001
0.22894 -0.021868 -0.080402002
0.23089001 -0.021965001 -0.080654003
0.23089001 -0.021482 -0.080402002
0.23284 -0.021965001 -0.080554999
0.23284 -0.021619 -0.080402002
-0.079657003 -0.020962 -0.078449003
-0.079462998 -0.021965001 -0.078449003
0.14495 -0.021051001 -0.078449003
0.14439 -0.021965001 -0.078449003
0.14495 -0.021965001 -0.079819001
-0.079657003 -0.021965001 -0.077547997
-0.079884 -0.021965001 -0.076495998
0.14495 -0.020485001 -0.076495998
0.14437 -0.021965001 -0.076495998
-0.080453001 -0.021965001 -0.074542999
0.14495 -0.021163 -0.074542999
0.1446 -0.021965001 -0.074542999
-0.081610002 -0.021965001 -0.072779
-0.081727996 -0.021965001 -0.072590001
0.14495 -0.021965001 -0.073128998
0.14505 -0.021965001 -0.072590001
-0.082388997 -0.021965001 -0.070637003
0.14548001 -0.021965001 -0.070637003
-0.083563 -0.021116 -0.068682998
-0.083177 -0.021965001 -0.068682998
0.14691 -0.020052001 -0.068682998
0.14594001 -0.021965001 -0.068682998
-0.083563 -0.021311 -0.06673
-0.083228 -0.021965001 -0.06673
-0.065985002 -0.020578999 -0.06673
-0.067212999 -0.021965001 -0.06673
-0.065985002 -0.021965001 -0.067594998
-0.064032003 -0.021965001 -0.067447998
-0.064032003 -0.020491 -0.06673
-0.062079001 -0.021965001 -0.067639001
-0.062079001 -0.020116 -0.06673
-0.060125999 -0.021965001 -0.067717001
-0.058173001 -0.021965001 -0.067620002
-0.058173001 -0.020362001 -0.06673
-0.056219999 -0.021965001 -0.067529
-0.056219999 -0.020599 -0.06673
-0.054267 -0.021965001 -0.067523003
-0.054267 -0.020625999 -0.06673
-0.052313 -0.021965001 -0.067336001
-0.052313 -0.021039 -0.06673
-0.050360002 -0.021965001 -0.067046002
-0.050360002 -0.021503 -0.06673
-0.048864 -0.021965001 -0.06673
0.14691 -0.021016 -0.06673
0.14639001 -0.021965001 -0.06673
-0.083563 -0.021965001 -0.064883001
-0.083586 -0.021965001 -0.064777002
-0.068297997 -0.021965001 -0.064777002
-0.067938 -0.021965001 -0.065687001
-0.048407 -0.021965001 -0.06662
-0.048407 -0.020179 -0.064777002
-0.046454001 -0.021965001 -0.065086
-0.046454001 -0.021771001 -0.064777002
-0.046243999 -0.021965001 -0.064777002
0.14691 -0.021965001 -0.065180004
0.14703999 -0.021965001 -0.064777002
-0.083593003 -0.021965001 -0.062824003
-0.069742002 -0.021965001 -0.062824003
-0.046454001 -0.020609001 -0.062824003
-0.045249 -0.021965001 -0.062824003
0.1137 -0.02194 -0.062824003
0.11366 -0.021965001 -0.062824003
0.1137 -0.021965001 -0.06284
0.11565 -0.021965001 -0.063340999
0.11565 -0.021111 -0.062824003
0.11761 -0.021965001 -0.063354999
0.11761 -0.021002 -0.062824003
0.11956 -0.021965001 -0.063235
0.11956 -0.021121001 -0.062824003
0.12151 -0.021965001 -0.063049003
0.12151 -0.021539999 -0.062824003
0.12347 -0.021965001 -0.062921003
0.12347 -0.021801 -0.062824003
0.12422 -0.021965001 -0.062824003
0.14737999 -0.021965001 -0.062824003
-0.083563 -0.021965001 -0.062483002
-0.083563 -0.021614 -0.060871001
-0.083307996 -0.021965001 -0.060871001
-0.072324 -0.021965001 -0.060871001
-0.071845002 -0.021965001 -0.061213002
-0.069891997 -0.021965001 -0.062691003
-0.044500999 -0.021965001 -0.060915999
-0.044500999 -0.021947 -0.060871001
-0.044486001 -0.021965001 -0.060871001
0.11175 -0.020956 -0.060871001
0.11053 -0.021965001 -0.060871001
0.11175 -0.021965001 -0.061887
0.12542 -0.021965001 -0.062680997
0.12737 -0.021965001 -0.062341999
0.12932999 -0.021965001 -0.061825
0.13075 -0.021965001 -0.060871001
0.14767 -0.021965001 -0.060871001
-0.081651002 -0.021965001 -0.058917999
-0.074790999 -0.021965001 -0.058917999
-0.073798001 -0.021965001 -0.059765
