# .PCD v0.7 - Point Cloud Data file format
VERSION 0.7
FIELDS x y z normal_x normal_y normal_z curvature
SIZE 4 4 4 4 4 4 4
TYPE F F F F F F F
COUNT 1 1 1 1 1 1 1
WIDTH 711
HEIGHT 1
VIEWPOINT 0 0 0 1 0 0 0
POINTS 711
DATA ascii
0.2538 0.18684 1.1340001 -0.10984021 0.11012624 -0.98782963 nan
0.25596002 0.18684 1.1340001 0.017944081 0.098946258 -0.99493098 nan
0.25903046 0.18749905 1.138 0.17058702 0.094066486 -0.98084229 nan
0.26119807 0.18749905 1.138 0.31580716 0.087137826 -0.94481367 nan
0.26336572 0.18749905 1.138 0.43022063 0.079779819 -0.8991915 nan
0.26553333 0.18749905 1.138 0.50085944 0.070945896 -0.86261606 nan
0.26864192 0.18815809 1.1420001 0.56729102 0.063713476 -0.82104903 nan
0.27081716 0.18815809 1.1420001 0.62455362 0.063862249 -0.77836651 nan
0.27394855 0.18881716 1.146 0.6630131 0.06975697 -0.74535066 nan
0.27613145 0.18881716 1.146 0.68460238 0.076181568 -0.7249248 nan
0.27928573 0.18947621 1.1500001 0.69414866 0.083533838 -0.71496838 nan
0.28318954 0.19062953 1.1570001 0.69251049 0.088126048 -0.71600491 nan
0.28539336 0.19062953 1.1570001 0.68554837 0.089255638 -0.72253501 nan
0.28958574 0.19194762 1.1650001 0.66776139 0.092377998 -0.73862106 nan
0.29280668 0.19260666 1.169 0.63698578 0.082144298 -0.76648641 nan
0.29503334 0.19260666 1.169 0.61305445 0.082526922 -0.7857185 nan
0.29827717 0.19326572 1.1730001 0.59869665 0.074513651 -0.79750234 nan
0.30051145 0.19326572 1.1730001 0.53200531 0.023784606 -0.84640688 nan
0.30274573 0.19326572 1.1730001 0.49377969 0.041440029 -0.86859906 nan
0.30498004 0.19326572 1.1730001 0.51767695 -0.05335797 -0.85391068 nan
0.30721429 0.19326572 1.1730001 0.50672185 -0.00023948388 -0.8621096 nan
0.3094486 0.19326572 1.1730001 0.52835274 0.025168179 -0.84865183 nan
0.31380859 0.19458382 1.1810001 0.60073328 0.035353236 -0.79866743 nan
0.31712857 0.19524287 1.1850001 0.38609898 0.15429428 -0.90946186 nan
0.31938571 0.19524287 1.1850001 -0.00022362165 0.51531577 -0.85700035 nan
0.32164285 0.19524287 1.1850001 nan nan nan nan
0.32390001 0.19524287 1.1850001 nan nan nan nan
0.32615715 0.19524287 1.1850001 nan nan nan nan
0.18437621 0.20816667 1.2490001 nan nan nan nan
0.18615714 0.2075 1.245 nan nan nan nan
0.18777142 0.20666666 1.24 nan nan nan nan
0.18691334 0.20316668 1.2190001 -0.97551525 0.13511272 -0.17353556 nan
0.18923526 0.20316668 1.2190001 -0.96973109 0.050100572 -0.23898014 nan
0.19155715 0.20316668 1.2190001 -0.80776787 -0.14323002 -0.57183588 nan
0.19308382 0.20233335 1.2140001 -0.74944758 -0.1920452 -0.63359845 nan
0.1953962 0.20233335 1.2140001 -0.69241184 -0.13390356 -0.70896804 nan
0.19770859 0.20233335 1.2140001 -0.77524346 -0.093187541 -0.62475085 nan
0.20002097 0.20233335 1.2140001 -0.75958246 -0.11342281 -0.64044499 nan
0.20166667 0.20166667 1.21 -0.75514531 -0.054548066 -0.65328407 nan
0.20329715 0.20100002 1.2060001 -0.78802556 -0.015971946 -0.6154353 nan
0.20491238 0.20033334 1.202 -0.7944169 0.0052960915 -0.60734981 nan
0.20634 0.19950001 1.197 -0.81240183 0.011400184 -0.58298653 nan
0.20949143 0.20033334 1.202 -0.83652747 0.029038617 -0.5471549 nan
0.21019526 0.19883335 1.1930001 -0.85065168 0.051518131 -0.52319944 nan
0.21246764 0.19883335 1.1930001 -0.83720696 0.070675544 -0.54230022 nan
0.21402 0.19816667 1.189 -0.82611549 0.084269509 -0.55716413 nan
0.21628475 0.19816667 1.189 -0.81923872 0.098777726 -0.56488127 nan
0.2178143 0.19750001 1.1850001 -0.83787394 0.095636278 -0.53742069 nan
0.2193286 0.19683334 1.1810001 -0.85006356 0.093632869 -0.51829022 nan
0.22082762 0.19616666 1.177 -0.83931923 0.090497658 -0.53605354 nan
0.22231144 0.19550002 1.1730001 -0.84327739 0.10181041 -0.52774793 nan
0.22378001 0.19483334 1.169 -0.86355042 0.10865824 -0.49241656 nan
0.22600667 0.19483334 1.169 -0.87417251 0.10648637 -0.47379643 nan
0.2274524 0.19416668 1.1650001 -0.8649708 0.10679667 -0.49032643 nan
0.22967143 0.19416668 1.1650001 -0.85109079 0.11344409 -0.51261574 nan
0.23109429 0.1935 1.161 -0.83938766 0.12097752 -0.52989882 nan
0.23250191 0.19283333 1.1570001 -0.83188188 0.14048983 -0.53687537 nan
0.23470572 0.19283333 1.1570001 -0.81782806 0.15596862 -0.55392331 nan
0.23609048 0.19216666 1.153 -0.79972261 0.17279904 -0.57496452 nan
0.23828667 0.19216666 1.153 -0.78896499 0.17614807 -0.58864772 nan
0.23902285 0.191 1.146 -0.78308976 0.15381904 -0.60258621 nan
0.24120572 0.191 1.146 -0.73635727 0.14984997 -0.6597901 nan
0.24338856 0.191 1.146 -0.65965712 0.1610949 -0.73409867 nan
0.24471429 0.19033335 1.1420001 -0.6119687 0.16315524 -0.77386993 nan
0.24688953 0.19033335 1.1420001 -0.56602734 0.16394626 -0.80791998 nan
0.24819237 0.18966667 1.138 -0.46609175 0.16504402 -0.86920595 nan
0.25035998 0.18966667 1.138 -0.36794606 0.14391683 -0.91864228 nan
0.25252759 0.18966667 1.138 -0.25452453 0.14591379 -0.95599496 nan
0.2538 0.18900001 1.1340001 -0.11811449 0.13673183 -0.98354125 nan
0.25686285 0.18966667 1.138 0.017739255 0.133598 -0.99087685 nan
0.25903046 0.18966667 1.138 0.16895682 0.12709038 -0.97739536 nan
0.26119807 0.18966667 1.138 0.31244081 0.12541194 -0.94162232 nan
0.26336572 0.18966667 1.138 0.4249292 0.11516324 -0.89787114 nan
0.26646668 0.19033335 1.1420001 0.49896842 0.10376231 -0.86038589 nan
0.26864192 0.19033335 1.1420001 0.56596416 0.094012722 -0.81905198 nan
0.27081716 0.19033335 1.1420001 0.62154716 0.086340472 -0.77860415 nan
0.27394855 0.191 1.146 0.66219604 0.075159378 -0.74555176 nan
0.27709526 0.19166668 1.1500001 0.68572438 0.06655845 -0.72481173 nan
0.27928573 0.19166668 1.1500001 0.69654435 0.064673848 -0.71459311 nan
0.28318954 0.19283333 1.1570001 0.69624174 0.059654478 -0.71532428 nan
0.28736669 0.19416668 1.1650001 0.68938047 0.060415979 -0.72187567 nan
0.28958574 0.19416668 1.1650001 0.67076713 0.05267692 -0.73979497 nan
0.29280668 0.19483334 1.169 0.64011866 0.039645929 -0.76725245 nan
0.29503334 0.19483334 1.169 0.61450416 0.032842547 -0.78822964 nan
0.29827717 0.19550002 1.1730001 0.5479809 -0.054602895 -0.83470684 nan
0.30051145 0.19550002 1.1730001 0.48681343 -0.031611457 -0.8729338 nan
0.30274573 0.19550002 1.1730001 0.44722798 -0.10111609 -0.88868594 nan
0.30498004 0.19550002 1.1730001 0.48859182 -0.094170488 -0.86741567 nan
0.30721429 0.19550002 1.1730001 0.56295514 -0.049087051 -0.82502848 nan
0.31050384 0.19616666 1.177 0.60119832 0.035318311 -0.79831898 nan
0.31380859 0.19683334 1.1810001 0.6702401 0.00025236516 -0.74214429 nan
0.3160581 0.19683334 1.1810001 0.6561749 -0.13094395 -0.7431609 nan
0.31830764 0.19683334 1.1810001 nan nan nan nan
0.32055715 0.19683334 1.1810001 nan nan nan nan
0.32390001 0.19750001 1.1850001 nan nan nan nan
0.17723906 0.21054572 1.2490001 nan nan nan nan
0.17961811 0.21054572 1.2490001 nan nan nan nan
0.18199715 0.21054572 1.2490001 nan nan nan nan
0.18437621 0.21054572 1.2490001 nan nan nan nan
0.18615714 0.20987143 1.245 nan nan nan nan
0.18852857 0.20987143 1.245 -0.98408353 0.091295622 -0.15246214 nan
0.18691334 0.20548858 1.2190001 -0.98647124 -0.11044098 -0.12114991 nan
0.18923526 0.20548858 1.2190001 -0.97640282 -0.083369143 -0.19921617 nan
0.19155715 0.20548858 1.2190001 -0.7745207 -0.092084557 -0.62581003 nan
0.19308382 0.20464574 1.2140001 -0.73246467 -0.11092675 -0.67170733 nan
0.1953962 0.20464574 1.2140001 -0.69249433 -0.14514473 -0.70667154 nan
0.19770859 0.20464574 1.2140001 -0.76023293 -0.1163177 -0.63915259 nan
0.19936191 0.20397145 1.21 -0.75437641 -0.11421226 -0.64643002 nan
0.20166667 0.20397145 1.21 -0.7482056 -0.093284786 -0.65687621 nan
0.20262285 0.20262285 1.202 -0.77604103 -0.053087436 -0.62844414 nan
0.20491238 0.20262285 1.202 -0.78681582 -0.022589957 -0.61677432 nan
0.20634 0.20178001 1.197 -0.80594546 -0.0091073075 -0.59191978 nan
0.20862001 0.20178001 1.197 -0.82893747 0.009801154 -0.55925536 nan
0.21019526 0.20110573 1.1930001 -0.84360307 0.039270367 -0.53552932 nan
0.21246764 0.20110573 1.1930001 -0.83115178 0.064203046 -0.55232662 nan
0.21402 0.20043144 1.189 -0.82155418 0.077604771 -0.5648241 nan
0.21628475 0.20043144 1.189 -0.81695426 0.0931997 -0.56912172 nan
0.2178143 0.19975714 1.1850001 -0.83871531 0.089735642 -0.53712583 nan
0.2193286 0.19908287 1.1810001 -0.84994578 0.093572438 -0.51849431 nan
0.22082762 0.19840857 1.177 -0.83680362 0.090859234 -0.53991133 nan
0.22231144 0.1977343 1.1730001 -0.83953649 0.096691117 -0.53463006 nan
0.22378001 0.19706 1.169 -0.8633182 0.097820342 -0.49508876 nan
0.22600667 0.19706 1.169 -0.8744244 0.09579014 -0.47561139 nan
0.2274524 0.19638573 1.1650001 -0.86367178 0.096145377 -0.49480012 nan
0.22888285 0.19571143 1.161 -0.8485713 0.10847255 -0.51784211 nan
0.23029812 0.19503716 1.1570001 -0.83280051 0.12115397 -0.54015279 nan
0.23250191 0.19503716 1.1570001 -0.82322246 0.14698349 -0.54836178 nan
0.23389429 0.19436285 1.153 -0.81122714 0.16198947 -0.56184506 nan
0.23609048 0.19436285 1.153 -0.79686904 0.17199573 -0.57915217 nan
0.23766668 0.19385716 1.1500001 -0.79655933 0.16673106 -0.58111447 nan
0.23985717 0.19385716 1.1500001 -0.79279268 0.15002051 -0.59073991 nan
0.24120572 0.19318287 1.146 -0.7404744 0.14734851 -0.65573323 nan
0.24253906 0.19250859 1.1420001 -0.66356564 0.15865541 -0.73110133 nan
0.24471429 0.19250859 1.1420001 -0.62067705 0.16024195 -0.76751709 nan
0.24688953 0.19250859 1.1420001 -0.57702243 0.15319462 -0.80223221 nan
0.24819237 0.19183429 1.138 -0.48135903 0.14777009 -0.86397773 nan
0.25035998 0.19183429 1.138 -0.37804535 0.12637615 -0.91712093 nan
0.25252759 0.19183429 1.138 -0.25642198 0.11946972 -0.95915312 nan
0.25469524 0.19183429 1.138 -0.11867879 0.11909435 -0.98576462 nan
0.25686285 0.19183429 1.138 0.017762294 0.12498257 -0.99199992 nan
0.25903046 0.19183429 1.138 0.17718059 0.11848121 -0.97702062 nan
0.26119807 0.19183429 1.138 0.31947902 0.11734558 -0.94029951 nan
0.26429144 0.19250859 1.1420001 0.42499915 0.10130747 -0.89950681 nan
0.26646668 0.19250859 1.1420001 0.49493593 0.091234572 -0.86412656 nan
0.26864192 0.19250859 1.1420001 0.5638361 0.082310848 -0.82177478 nan
0.27176571 0.19318287 1.146 0.62005258 0.075530425 -0.78091609 nan
0.27490479 0.19385716 1.1500001 0.65873575 0.065295823 -0.74953562 nan
0.27709526 0.19385716 1.1500001 0.68478572 0.056930192 -0.72651732 nan
0.28001428 0.19436285 1.153 0.69741529 0.040799893 -0.71550494 nan
0.28318954 0.19503716 1.1570001 0.69810063 0.026033085 -0.71552622 nan
0.28736669 0.19638573 1.1650001 0.68974972 0.02154769 -0.72372717 nan
0.28958574 0.19638573 1.1650001 0.66659129 0.00694102 -0.74539107 nan
0.29280668 0.19706 1.169 0.63489944 -0.0093157794 -0.77253866 nan
0.29503334 0.19706 1.169 0.6117335 -0.029995592 -0.79049504 nan
0.29726002 0.19706 1.169 0.53107738 -0.12050889 -0.83871001 nan
0.29948667 0.19706 1.169 0.48266947 -0.10718989 -0.86921835 nan
0.30274573 0.1977343 1.1730001 0.44780695 -0.13010442 -0.88461393 nan
0.30498004 0.1977343 1.1730001 0.47660816 -0.1145581 -0.87161982 nan
0.30721429 0.1977343 1.1730001 0.57874191 -0.12075321 -0.80652124 nan
0.31050384 0.19840857 1.177 0.60688376 -0.035667893 -0.79398984 nan
0.31380859 0.19908287 1.1810001 0.59013432 -0.13090551 -0.79662114 nan
0.3160581 0.19908287 1.1810001 0.37392309 -0.18651995 -0.9085108 nan
0.31830764 0.19908287 1.1810001 nan nan nan nan
0.32055715 0.19908287 1.1810001 nan nan nan nan
0.32390001 0.19975714 1.1850001 nan nan nan nan
0.17794858 0.21377715 1.2540001 nan nan nan nan
0.18033715 0.21377715 1.2540001 nan nan nan nan
0.18272573 0.21377715 1.2540001 nan nan nan nan
0.18437621 0.21292478 1.2490001 nan nan nan nan
0.18615714 0.21224286 1.245 -0.91165888 -0.24170877 -0.33234769 nan
0.18656002 0.21002668 1.2320001 -0.86135876 -0.50795662 -0.0064119864 nan
0.18691334 0.20781049 1.2190001 -0.92181575 -0.36687875 -0.12512262 nan
0.18923526 0.20781049 1.2190001 -0.95756054 -0.20240495 -0.20520726 nan
0.19077145 0.2069581 1.2140001 -0.74816889 -0.095634729 -0.65658003 nan
0.19308382 0.2069581 1.2140001 -0.71102917 -0.10892644 -0.69467437 nan
0.1953962 0.2069581 1.2140001 -0.692936 -0.12663943 -0.70979017 nan
0.19770859 0.2069581 1.2140001 -0.76178098 -0.1029611 -0.63960046 nan
0.19936191 0.20627619 1.21 -0.74903607 -0.10441586 -0.65424943 nan
0.20166667 0.20627619 1.21 -0.73622954 -0.094656587 -0.67007923 nan
0.20262285 0.20491238 1.202 -0.75768197 -0.054443672 -0.65034908 nan
0.20406 0.20406 1.197 -0.77665955 -0.022939917 -0.62950277 nan
0.20634 0.20406 1.197 -0.80028111 -0.0092004165 -0.59955442 nan
0.20862001 0.20406 1.197 -0.81890619 0.0099647278 -0.57384092 nan
0.21090001 0.20406 1.197 -0.83219761 0.040143766 -0.55302405 nan
0.21246764 0.20337811 1.1930001 -0.82379425 0.065068386 -0.56314224 nan
0.21402 0.2026962 1.189 -0.81660378 0.072164103 -0.57266968 nan
0.21628475 0.2026962 1.189 -0.81460607 0.087528057 -0.5733723 nan
0.2178143 0.20201428 1.1850001 -0.83632129 0.090178557 -0.54077214 nan
0.2193286 0.20133239 1.1810001 -0.84788501 0.10525994 -0.51962614 nan
0.22082762 0.20065048 1.177 -0.83698463 0.10244717 -0.53755116 nan
0.22231144 0.19996858 1.1730001 -0.83737779 0.10863417 -0.53572106 nan
0.22454573 0.19996858 1.1730001 -0.86127394 0.10918082 -0.49627286 nan
0.22600667 0.19928667 1.169 -0.87466168 0.1063173 -0.47293085 nan
0.2274524 0.19860478 1.1650001 -0.86352235 0.10160579 -0.49396908 nan
0.22967143 0.19860478 1.1650001 -0.84397984 0.11507462 -0.52388537 nan
0.23109429 0.19792286 1.161 -0.82340884 0.13469219 -0.55123127 nan
0.23250191 0.19724096 1.1570001 -0.81256258 0.1609271 -0.56021821 nan
0.23389429 0.19655904 1.153 -0.80689037 0.1686776 -0.56610578 nan
0.23609048 0.19655904 1.153 -0.80094212 0.16507439 -0.57553643 nan
0.23766668 0.19604763 1.1500001 -0.80362731 0.15902993 -0.57349163 nan
0.23902285 0.19536571 1.146 -0.79872805 0.14873601 -0.58301896 nan
0.24120572 0.19536571 1.146 -0.74415773 0.14675711 -0.65168369 nan
0.24253906 0.19468382 1.1420001 -0.66343158 0.15134712 -0.73277044 nan
0.24471429 0.19468382 1.1420001 -0.62468702 0.15213135 -0.76591265 nan
0.24602474 0.1940019 1.138 -0.58750093 0.14437231 -0.79624069 nan
0.24819237 0.1940019 1.138 -0.5025394 0.13828722 -0.853423 nan
0.25035998 0.1940019 1.138 -0.4038105 0.11693869 -0.90733808 nan
0.25252759 0.1940019 1.138 -0.26601988 0.11042635 -0.95762175 nan
0.25469524 0.1940019 1.138 -0.10966882 0.1100319 -0.98785919 nan
0.25686285 0.1940019 1.138 0.026660835 0.11603976 -0.99288666 nan
0.25903046 0.1940019 1.138 0.17798086 0.10197271 -0.9787361 nan
0.26119807 0.1940019 1.138 0.31424618 0.10247929 -0.94379413 nan
0.26429144 0.19468382 1.1420001 0.41972584 0.08764188 -0.90340972 nan
0.26646668 0.19468382 1.1420001 0.49770474 0.084448799 -0.86322558 nan
0.26864192 0.19468382 1.1420001 0.56570536 0.086527653 -0.82005513 nan
0.27176571 0.19536571 1.146 0.62012172 0.074117437 -0.78099662 nan
0.27490479 0.19604763 1.1500001 0.65950745 0.058743782 -0.74939913 nan
0.27781808 0.19655904 1.153 0.67980957 0.046326876 -0.731924 nan
0.28001428 0.19655904 1.153 0.68972355 0.020523094 -0.72378188 nan
0.28318954 0.19724096 1.1570001 0.69467837 0.00036697547 -0.71932042 nan
0.28637999 0.19792286 1.161 0.68810081 -0.0046403622 -0.72560024 nan
0.28958574 0.19860478 1.1650001 0.66424131 -0.020796442 -0.74722886 nan
0.29280668 0.19928667 1.169 0.62920547 -0.033418842 -0.77652019 nan
0.29503334 0.19928667 1.169 0.59960192 -0.055898342 -0.79834384 nan
0.29726002 0.19928667 1.169 0.52649015 -0.14565569 -0.8376112 nan
0.29948667 0.19928667 1.169 0.47614735 -0.15140171 -0.86623394 nan
0.30274573 0.19996858 1.1730001 0.41661251 -0.17878373 -0.89133066 nan
0.30498004 0.19996858 1.1730001 0.45057625 -0.17664282 -0.87508762 nan
0.30721429 0.19996858 1.1730001 0.56377536 -0.22090037 -0.79583937 nan
0.31050384 0.20065048 1.177 0.5911231 -0.1107872 -0.79893661 nan
0.31380859 0.20133239 1.1810001 0.61254668 -0.30624476 -0.72869796 nan
0.3160581 0.20133239 1.1810001 nan nan nan nan
0.31830764 0.20133239 1.1810001 nan nan nan nan
0.32055715 0.20133239 1.1810001 nan nan nan nan
0.17626001 0.21702763 1.2590001 nan nan nan nan
0.17794858 0.21616572 1.2540001 nan nan nan nan
0.18033715 0.21616572 1.2540001 nan nan nan nan
0.18199715 0.21530382 1.2490001 nan nan nan nan
0.18437621 0.21530382 1.2490001 -0.89856392 -0.25254968 -0.35888931 nan
0.18481143 0.21306285 1.2360001 -0.95070273 -0.3027485 -0.067138806 nan
0.18459144 0.21013241 1.2190001 -0.94542521 -0.31690893 -0.07576187 nan
0.18691334 0.21013241 1.2190001 -0.95748562 -0.25102639 -0.14215146 nan
0.18923526 0.21013241 1.2190001 -0.92052472 -0.16229813 -0.355378 nan
0.19077145 0.20927049 1.2140001 -0.90471864 -0.075433396 -0.41927791 nan
0.19308382 0.20927049 1.2140001 -0.755849 -0.090059817 -0.64852256 nan
0.1953962 0.20927049 1.2140001 -0.78093654 -0.09749721 -0.61695415 nan
0.19770859 0.20927049 1.2140001 -0.77914357 -0.13082138 -0.61304247 nan
0.19936191 0.20858096 1.21 -0.74002695 -0.11336394 -0.66295451 nan
0.20100002 0.20789143 1.2060001 -0.72777915 -0.12411264 -0.67448765 nan
0.20262285 0.2072019 1.202 -0.74268621 -0.097810224 -0.66245782 nan
0.20406 0.20634 1.197 -0.7685442 -0.079487577 -0.63483983 nan
0.20634 0.20634 1.197 -0.79423654 -0.056970682 -0.60493195 nan
0.20949143 0.2072019 1.202 -0.81123281 -0.029902466 -0.58395821 nan
0.21090001 0.20634 1.197 -0.82672447 -0.0042737848 -0.56259078 nan
0.21246764 0.20565049 1.1930001 -0.82452005 0.014367683 -0.56565028 nan
0.21474002 0.20565049 1.1930001 -0.82005799 0.014508013 -0.57209653 nan
0.21628475 0.20496096 1.189 -0.81537062 0.036688957 -0.57777566 nan
0.2178143 0.20427144 1.1850001 -0.83580756 0.041576955 -0.54744601 nan
0.2193286 0.20358191 1.1810001 -0.84954673 0.065504558 -0.52343053 nan
0.22082762 0.20289238 1.177 -0.83984864 0.067068599 -0.53866136 nan
0.22231144 0.20220287 1.1730001 -0.83634901 0.085771732 -0.54144579 nan
0.22454573 0.20220287 1.1730001 -0.8627817 0.087137885 -0.49801081 nan
0.22600667 0.20151334 1.169 -0.87753344 0.089888327 -0.47101507 nan
0.2274524 0.20082383 1.1650001 -0.86232287 0.10196028 -0.49598733 nan
0.22967143 0.20082383 1.1650001 -0.83690363 0.12236359 -0.53349739 nan
0.23109429 0.20013429 1.161 -0.8107692 0.14916338 -0.56604201 nan
0.23250191 0.19944477 1.1570001 -0.80680138 0.16228046 -0.56809908 nan
0.23470572 0.19944477 1.1570001 -0.80939686 0.16784377 -0.56276566 nan
0.23609048 0.19875523 1.153 -0.80356842 0.16425098 -0.57210082 nan
0.23766668 0.19823812 1.1500001 -0.8035298 0.17056391 -0.57030499 nan
0.23902285 0.19754858 1.146 -0.80313468 0.15364009 -0.57564694 nan
0.24120572 0.19754858 1.146 -0.75031179 0.15220003 -0.64332527 nan
0.24338856 0.19754858 1.146 -0.67216325 0.15010238 -0.72502816 nan
0.24471429 0.19685906 1.1420001 -0.63570404 0.13574854 -0.75990313 nan
0.24602474 0.19616953 1.138 -0.59911406 0.1276207 -0.79042727 nan
0.24819237 0.19616953 1.138 -0.5172466 0.12086189 -0.84725934 nan
0.25035998 0.19616953 1.138 -0.4117668 0.11664287 -0.90379339 nan
0.25252759 0.19616953 1.138 -0.26587492 0.11037088 -0.95766842 nan
0.25469524 0.19616953 1.138 -0.10959217 0.10997476 -0.98787403 nan
0.25686285 0.19616953 1.138 0.017854208 0.10757077 -0.99403709 nan
0.25903046 0.19616953 1.138 0.17832245 0.093641751 -0.97950619 nan
0.26119807 0.19616953 1.138 0.32069522 0.1019531 -0.94167942 nan
0.26429144 0.19685906 1.1420001 0.42212114 0.10141071 -0.9008494 nan
0.26646668 0.19685906 1.1420001 0.50162649 0.10342083 -0.8588801 nan
0.26864192 0.19685906 1.1420001 0.56280535 0.10024632 -0.82048815 nan
0.27176571 0.19754858 1.146 0.61036605 0.082326934 -0.78782964 nan
0.27490479 0.19823812 1.1500001 0.65083152 0.050522849 -0.75753933 nan
0.27781808 0.19875523 1.153 0.67259568 0.033054747 -0.73927158 nan
0.28001428 0.19875523 1.153 0.68271267 0.0069347066 -0.730654 nan
0.28318954 0.19944477 1.1570001 0.69178671 -0.013383933 -0.72197783 nan
0.28637999 0.20013429 1.161 0.68467903 -0.013570008 -0.7287184 nan
0.28958574 0.20082383 1.1650001 0.6581884 -0.0359549 -0.75199419 nan
0.29280668 0.20151334 1.169 0.62283748 -0.055518474 -0.78037888 nan
0.29503334 0.20151334 1.169 0.58627266 -0.080088951 -0.80614519 nan
0.29726002 0.20151334 1.169 0.52176559 -0.14649613 -0.84041631 nan
0.29948667 0.20151334 1.169 0.4834595 -0.17171064 -0.85836029 nan
0.30171335 0.20151334 1.169 0.42719051 -0.20644967 -0.88027656 nan
0.30498004 0.20220287 1.1730001 0.42108437 -0.24103373 -0.87440878 nan
0.30721429 0.20220287 1.1730001 0.52752185 -0.32679039 -0.78417391 nan
0.3094486 0.20220287 1.1730001 0.56340361 -0.30076477 -0.76949137 nan
0.31274575 0.20289238 1.177 0.53647459 -0.53667909 -0.6512838 nan
0.3160581 0.20358191 1.1810001 nan nan nan nan
0.31830764 0.20358191 1.1810001 nan nan nan nan
0.32055715 0.20358191 1.1810001 nan nan nan nan
0.17626001 0.21942572 1.2590001 nan nan nan nan
0.1786581 0.21942572 1.2590001 nan nan nan nan
0.18033715 0.21855429 1.2540001 -0.78162855 0.31205973 -0.54006994 nan
0.18199715 0.21768287 1.2490001 -0.88979715 -0.15353198 -0.4297545 nan
0.18378572 0.21698572 1.245 -0.97838438 -0.15766908 -0.13380741 nan
0.18481143 0.21541716 1.2360001 -0.99369758 -0.053630177 -0.098432556 nan
0.18459144 0.21245429 1.2190001 -0.97475928 -0.1804813 -0.13141857 nan
0.18691334 0.21245429 1.2190001 -0.96514851 -0.12286074 -0.23107049 nan
0.18923526 0.21245429 1.2190001 -0.90223086 -0.089110039 -0.42194659 nan
0.19077145 0.21158287 1.2140001 -0.88866216 -0.12549664 -0.44105574 nan
0.19308382 0.21158287 1.2140001 -0.75617951 -0.13173997 -0.64096576 nan
0.1953962 0.21158287 1.2140001 -0.79583102 -0.12560776 -0.59234756 nan
0.19770859 0.21158287 1.2140001 -0.78335249 -0.15419553 -0.60214829 nan
0.19936191 0.21088572 1.21 -0.74110079 -0.12552835 -0.6595546 nan
0.20100002 0.21018858 1.2060001 -0.72768962 -0.14549612 -0.6702975 nan
0.20262285 0.20949143 1.202 -0.73818767 -0.12668543 -0.66259319 nan
0.20406 0.20862001 1.197 -0.76210231 -0.12321942 -0.63562334 nan
0.20634 0.20862001 1.197 -0.78302217 -0.099932261 -0.61391354 nan
0.20862001 0.20862001 1.197 -0.80190438 -0.071346067 -0.59317714 nan
0.21090001 0.20862001 1.197 -0.82190806 -0.050366208 -0.56738913 nan
0.21246764 0.20792288 1.1930001 -0.82600135 -0.043983903 -0.56194949 nan
0.21402 0.20722571 1.189 -0.81788152 -0.03834074 -0.57410783 nan
0.21628475 0.20722571 1.189 -0.81356311 -0.0095068952 -0.5813989 nan
0.2178143 0.20652857 1.1850001 -0.83466506 -0.0028478275 -0.55075049 nan
0.2193286 0.20583144 1.1810001 -0.84886158 0.030460117 -0.52773684 nan
0.22082762 0.20513429 1.177 -0.83880544 0.037308805 -0.5431515 nan
0.22306953 0.20513429 1.177 -0.83564413 0.056131441 -0.54639566 nan
0.22454573 0.20443715 1.1730001 -0.86465573 0.058908928 -0.49889898 nan
0.22678001 0.20443715 1.1730001 -0.87648523 0.063033149 -0.47728443 nan
0.22823334 0.20374 1.169 -0.85848945 0.081709377 -0.50628 nan
0.23046 0.20374 1.169 -0.83200198 0.10278057 -0.5451687 nan
0.23109429 0.20234571 1.161 -0.81119442 0.122109 -0.57188547 nan
0.23250191 0.20164859 1.1570001 -0.81193995 0.12247154 -0.57074881 nan
0.23389429 0.20095141 1.153 -0.81472605 0.12835908 -0.56546038 nan
0.23609048 0.20095141 1.153 -0.80875129 0.12410885 -0.5749073 nan
0.23766668 0.20042858 1.1500001 -0.81459081 0.12944825 -0.56540692 nan
0.23985717 0.20042858 1.1500001 -0.81829369 0.1170458 -0.56275725 nan
0.24120572 0.19973142 1.146 -0.76476437 0.11332159 -0.6342662 nan
0.24338856 0.19973142 1.146 -0.691522 0.11514711 -0.71311885 nan
0.24471429 0.19903429 1.1420001 -0.65399647 0.10555373 -0.74909747 nan
0.24602474 0.19833714 1.138 -0.61043394 0.11100188 -0.78425056 nan
0.24819237 0.19833714 1.138 -0.52347696 0.11220624 -0.84461921 nan
0.25035998 0.19833714 1.138 -0.42072362 0.1076203 -0.9007827 nan
0.25252759 0.19833714 1.138 -0.27611721 0.09229096 -0.95668262 nan
0.25469524 0.19833714 1.138 -0.1103304 0.083037421 -0.9904201 nan
0.25686285 0.19833714 1.138 0.0180395 0.072369486 -0.99721473 nan
0.25903046 0.19833714 1.138 0.18770994 0.059890214 -0.98039693 nan
0.26119807 0.19833714 1.138 0.336611 0.062836893 -0.93954486 nan
0.26429144 0.19903429 1.1420001 0.43490666 0.065259717 -0.89810765 nan
0.26646668 0.19903429 1.1420001 0.50847417 0.072025143 -0.8580597 nan
0.26864192 0.19903429 1.1420001 0.56414771 0.06100364 -0.82341719 nan
0.27176571 0.19973142 1.146 0.6034807 0.040100727 -0.7963686 nan
0.27490479 0.20042858 1.1500001 0.64447868 0.01552355 -0.76446468 nan
0.27781808 0.20095141 1.153 0.66682768 -0.00094139791 -0.74521136 nan
0.28098571 0.20164859 1.1570001 0.67486548 -0.032442085 -0.73722726 nan
0.28318954 0.20164859 1.1570001 0.69014966 -0.051834937 -0.72180784 nan
0.28539336 0.20164859 1.1570001 0.68362606 -0.067963429 -0.72666109 nan
0.28859141 0.20234571 1.161 0.65085173 -0.094509676 -0.75329936 nan
0.29180479 0.20304286 1.1650001 0.61389506 -0.11818149 -0.78049082 nan
0.29503334 0.20374 1.169 0.57474923 -0.14838232 -0.80476457 nan
0.29726002 0.20374 1.169 0.51024765 -0.22206604 -0.83086342 nan
0.29948667 0.20374 1.169 0.4763771 -0.18378669 -0.85981816 nan
0.30171335 0.20374 1.169 0.40579513 -0.21039334 -0.8894183 nan
0.30498004 0.20443715 1.1730001 0.40732649 -0.22414477 -0.88534981 nan
0.30721429 0.20443715 1.1730001 0.47825226 -0.34546521 -0.80742091 nan
0.3094486 0.20443715 1.1730001 0.50344068 -0.42625323 -0.75156879 nan
0.31274575 0.20513429 1.177 0.53731215 -0.53680295 -0.65049076 nan
0.31498763 0.20513429 1.177 nan nan nan nan
0.31722951 0.20513429 1.177 nan nan nan nan
0.31947142 0.20513429 1.177 nan nan nan nan
0.18199715 0.22006191 1.2490001 -0.96822971 -0.037469767 -0.24723917 nan
0.18378572 0.21935713 1.245 -0.97785956 -0.10032161 -0.18364707 nan
0.18481143 0.21777143 1.2360001 -0.98634684 -0.056848384 -0.15455812 nan
0.18580288 0.21618573 1.2270001 -0.97173643 -0.11123504 -0.20821875 nan
0.18691334 0.2147762 1.2190001 -0.96166617 -0.047125984 -0.27014324 nan
0.18923526 0.2147762 1.2190001 -0.94296736 -0.14749677 -0.29842454 nan
0.19077145 0.21389526 1.2140001 -0.84401917 -0.19891016 -0.49806267 nan
0.19308382 0.21389526 1.2140001 -0.85661393 -0.2020506 -0.47475058 nan
0.19475238 0.21319048 1.21 -0.81110477 -0.12988935 -0.57029623 nan
0.19705714 0.21319048 1.21 -0.78808993 -0.15509403 -0.59570134 nan
0.19936191 0.21319048 1.21 -0.74528581 -0.15427211 -0.64865184 nan
0.20100002 0.21248573 1.2060001 -0.72701812 -0.17385203 -0.66424406 nan
0.20262285 0.21178097 1.202 -0.73307252 -0.15572999 -0.6620822 nan
0.20406 0.21090001 1.197 -0.75800896 -0.15824154 -0.63275748 nan
0.20634 0.21090001 1.197 -0.77315414 -0.14210066 -0.61809391 nan
0.20862001 0.21090001 1.197 -0.79367924 -0.11880322 -0.59662306 nan
0.21090001 0.21090001 1.197 -0.82047707 -0.10162517 -0.56257421 nan
0.21246764 0.21019526 1.1930001 -0.82478368 -0.095085107 -0.55739641 nan
0.21402 0.20949046 1.189 -0.810543 -0.084747814 -0.57951516 nan
0.21628475 0.20949046 1.189 -0.80726522 -0.062355723 -0.58688557 nan
0.2178143 0.20878571 1.1850001 -0.82639748 -0.041123621 -0.56158352 nan
0.2193286 0.20808096 1.1810001 -0.84204072 0.00039961367 -0.53941381 nan
0.22082762 0.2073762 1.177 -0.8364439 0.013031591 -0.54789758 nan
0.22231144 0.20667145 1.1730001 -0.83358264 0.031930905 -0.55147117 nan
0.22454573 0.20667145 1.1730001 -0.86470401 0.041834757 -0.5005365 nan
0.22600667 0.20596667 1.169 -0.87675136 0.046322525 -0.47870791 nan
0.22823334 0.20596667 1.169 -0.8581692 0.054127559 -0.51050544 nan
0.23046 0.20596667 1.169 -0.83284146 0.069232717 -0.54916477 nan
0.23189048 0.20526192 1.1650001 -0.81728834 0.071298599 -0.57180095 nan
0.23250191 0.20385239 1.1570001 -0.81916767 0.077724129 -0.56826335 nan
0.23470572 0.20385239 1.1570001 -0.82571965 0.077278614 -0.55876207 nan
0.23609048 0.20314761 1.153 -0.82070976 0.065670349 -0.56755871 nan
0.23828667 0.20314761 1.153 -0.82485276 0.065615751 -0.56152695 nan
0.23985717 0.20261906 1.1500001 -0.82981306 0.059031352 -0.55491048 nan
0.24120572 0.2019143 1.146 -0.77769566 0.050159417 -0.62663668 nan
0.24338856 0.2019143 1.146 -0.70041323 0.054586753 -0.71164709 nan
0.24471429 0.20120955 1.1420001 -0.65437162 0.064635403 -0.75340563 nan
0.24602474 0.20050476 1.138 -0.60677731 0.08322911 -0.79050249 nan
0.24819237 0.20050476 1.138 -0.53087413 0.095088355 -0.84209907 nan
0.25035998 0.20050476 1.138 -0.43962657 0.080845691 -0.89453477 nan
0.25252759 0.20050476 1.138 -0.29602733 0.064910486 -0.9529714 nan
0.25469524 0.20050476 1.138 -0.12977566 0.055803087 -0.98997188 nan
0.25686285 0.20050476 1.138 1.5202507e-05 0.036632333 -0.99932879 nan
0.25903046 0.20050476 1.138 0.18141654 0.017351741 -0.98325324 nan
0.26119807 0.20050476 1.138 0.33984721 0.015918858 -0.94034594 nan
0.26429144 0.20120955 1.1420001 0.4444246 0.014666613 -0.89569622 nan
0.26646668 0.20120955 1.1420001 0.51361662 0.020382073 -0.85777766 nan
0.26864192 0.20120955 1.1420001 0.55872989 0.0064265979 -0.82932478 nan
0.27176571 0.2019143 1.146 0.59890056 -0.012081788 -0.80073225 nan
0.27490479 0.20261906 1.1500001 0.64057988 -0.033882238 -0.76714367 nan
0.27781808 0.20314761 1.153 0.65862471 -0.054677464 -0.75048244 nan
0.28001428 0.20314761 1.153 0.66597331 -0.086302631 -0.74096656 nan
0.28318954 0.20385239 1.1570001 0.68143231 -0.10439605 -0.7243973 nan
0.28539336 0.20385239 1.1570001 0.67400742 -0.13199005 -0.72683746 nan
0.28859141 0.20455715 1.161 0.64337444 -0.16714524 -0.74708217 nan
0.29180479 0.20526192 1.1650001 0.60405105 -0.19543236 -0.7726115 nan
0.29503334 0.20596667 1.169 0.56209886 -0.23146439 -0.79402083 nan
0.29726002 0.20596667 1.169 0.5102433 -0.30769402 -0.8031041 nan
0.29948667 0.20596667 1.169 0.47513846 -0.23743689 -0.84727043 nan
0.30171335 0.20596667 1.169 0.39407623 -0.24254915 -0.88649523 nan
0.30394 0.20596667 1.169 0.36061388 -0.21206026 -0.90828854 nan
0.30616668 0.20596667 1.169 0.42589948 -0.31228435 -0.84916908 nan
0.30839336 0.20596667 1.169 0.46064886 -0.37689546 -0.8035872 nan
0.31168288 0.20667145 1.1730001 0.44214377 -0.44155389 -0.78072983 nan
0.31391716 0.20667145 1.1730001 0.4111287 -0.68400139 -0.6025905 nan
0.31722951 0.2073762 1.177 nan nan nan nan
0.31947142 0.2073762 1.177 nan nan nan nan
0.32171333 0.2073762 1.177 nan nan nan nan
0.18481143 0.22012573 1.2360001 -0.98293096 -0.10028557 -0.15423875 nan
0.18656002 0.21941335 1.2320001 -0.97159696 -0.14413039 -0.18768543 nan
0.18691334 0.21709812 1.2190001 -0.96163338 -0.15384507 -0.22714081 nan
0.18923526 0.21709812 1.2190001 -0.911255 -0.1287687 -0.39119431 nan
0.19077145 0.21620764 1.2140001 -0.89350361 -0.20958346 -0.39714745 nan
0.19308382 0.21620764 1.2140001 -0.83105826 -0.18772145 -0.52354831 nan
0.1953962 0.21620764 1.2140001 -0.79386699 -0.12587982 -0.59491974 nan
0.19770859 0.21620764 1.2140001 -0.80831844 -0.13603926 -0.57281291 nan
0.19936191 0.21549524 1.21 -0.75243437 -0.16157433 -0.63854229 nan
0.20100002 0.21478288 1.2060001 -0.72603965 -0.18122242 -0.66334373 nan
0.20262285 0.21407047 1.202 -0.73187017 -0.17018406 -0.65985107 nan
0.20406 0.21318001 1.197 -0.75731522 -0.17895237 -0.62805229 nan
0.20634 0.21318001 1.197 -0.7660532 -0.16398275 -0.621508 nan
0.20862001 0.21318001 1.197 -0.78733009 -0.14668284 -0.59882843 nan
0.21090001 0.21318001 1.197 -0.81499577 -0.13462156 -0.56361246 nan
0.21246764 0.21246764 1.1930001 -0.8196196 -0.1215722 -0.55986065 nan
0.21402 0.21175523 1.189 -0.80441141 -0.11036431 -0.58373106 nan
0.21628475 0.21175523 1.189 -0.79848987 -0.095103696 -0.59444869 nan
0.2178143 0.21104287 1.1850001 -0.81338125 -0.066733673 -0.57789057 nan
0.2193286 0.21033049 1.1810001 -0.83438116 -0.037539948 -0.54990804 nan
0.22082762 0.20961811 1.177 -0.83152574 -0.018572018 -0.55517566 nan
0.22231144 0.20890573 1.1730001 -0.82849342 0.0068976888 -0.55995631 nan
0.22454573 0.20890573 1.1730001 -0.86312532 0.018529387 -0.5046497 nan
0.22678001 0.20890573 1.1730001 -0.87684864 0.029319052 -0.47987166 nan
0.22823334 0.20819335 1.169 -0.85751635 0.042504009 -0.51269788 nan
0.22967143 0.20748097 1.1650001 -0.83387905 0.05693958 -0.54900235 nan
0.23189048 0.20748097 1.1650001 -0.81826812 0.058647566 -0.57183719 nan
0.23250191 0.20605619 1.1570001 -0.81808472 0.065246604 -0.57138455 nan
0.23389429 0.2053438 1.153 -0.82999152 0.064318649 -0.55405521 nan
0.23609048 0.2053438 1.153 -0.82331032 0.065347999 -0.56381714 nan
0.23828667 0.2053438 1.153 -0.82828736 0.05877129 -0.55721271 nan
0.23985717 0.20480955 1.1500001 -0.83657134 0.045469284 -0.54596788 nan
0.24120572 0.20409714 1.146 -0.78284991 0.03567623 -0.62118697 nan
0.24338856 0.20409714 1.146 -0.69748032 0.039201841 -0.71553087 nan
0.24471429 0.20338477 1.1420001 -0.64618468 0.040885475 -0.76208514 nan
0.24602474 0.20267238 1.138 -0.60007387 0.050568059 -0.79834467 nan
0.24819237 0.20267238 1.138 -0.5377388 0.052259181 -0.84149033 nan
0.25035998 0.20267238 1.138 -0.45900065 0.045005359 -0.88729531 nan
0.25252759 0.20267238 1.138 -0.30741185 0.027999077 -0.95116454 nan
0.25469524 0.20267238 1.138 -0.14050801 0.0093798051 -0.99003512 nan
0.25686285 0.20267238 1.138 -0.018462844 -1.5722618e-06 -0.99982953 nan
0.25903046 0.20267238 1.138 0.17443286 -0.017446896 -0.98451447 nan
0.26119807 0.20267238 1.138 0.34240782 -0.031828925 -0.93901217 nan
0.26429144 0.20338477 1.1420001 0.44815919 -0.04387857 -0.89287627 nan
0.26646668 0.20338477 1.1420001 0.51410836 -0.047812067 -0.85639161 nan
0.26864192 0.20338477 1.1420001 0.55550373 -0.056930229 -0.8295629 nan
0.27081716 0.20338477 1.1420001 0.58940864 -0.071400754 -0.80467343 nan
0.27394855 0.20409714 1.146 0.6298008 -0.10195953 -0.77003586 nan
0.27781808 0.2053438 1.153 0.64803904 -0.12108915 -0.75191945 nan
0.28098571 0.20605619 1.1570001 0.65452707 -0.14683616 -0.74164242 nan
0.28318954 0.20605619 1.1570001 0.67240167 -0.16784853 -0.72090423 nan
0.28539336 0.20605619 1.1570001 0.66160864 -0.1865996 -0.72626072 nan
0.28859141 0.20676857 1.161 0.62886781 -0.20819418 -0.74911982 nan
0.29080287 0.20676857 1.161 0.59016812 -0.23209715 -0.77319628 nan
0.29402384 0.20748097 1.1650001 0.54601383 -0.26400542 -0.79509121 nan
0.29726002 0.20819335 1.169 0.51071715 -0.30783769 -0.80274773 nan
0.29948667 0.20819335 1.169 0.48452529 -0.31587881 -0.81575477 nan
0.30171335 0.20819335 1.169 0.39000574 -0.33009741 -0.85961109 nan
0.30394 0.20819335 1.169 0.30807573 -0.2421421 -0.92003071 nan
0.30616668 0.20819335 1.169 0.36322626 -0.27238193 -0.89099652 nan
0.3094486 0.20890573 1.1730001 0.40304622 -0.35821781 -0.84216017 nan
0.31168288 0.20890573 1.1730001 0.46251833 -0.23101354 -0.85598451 nan
0.31391716 0.20890573 1.1730001 0.36752236 -0.36720136 -0.85445333 nan
0.31615144 0.20890573 1.1730001 nan nan nan nan
0.31947142 0.20961811 1.177 nan nan nan nan
0.32171333 0.20961811 1.177 nan nan nan nan
0.18481143 0.22248 1.2360001 -0.98472995 -0.078673266 -0.15529782 nan
0.18656002 0.22176002 1.2320001 -0.96605361 -0.13388726 -0.22094023 nan
0.18691334 0.21942002 1.2190001 -0.93569434 -0.11469432 -0.3336485 nan
0.18923526 0.21942002 1.2190001 -0.9246912 -0.15062912 -0.34965277 nan
0.19077145 0.21852002 1.2140001 -0.88905025 -0.13909784 -0.43616673 nan
0.19308382 0.21852002 1.2140001 -0.82518792 -0.10756671 -0.55452168 nan
0.19475238 0.21780001 1.21 -0.78703249 -0.10930466 -0.60715097 nan
0.19705714 0.21780001 1.21 -0.79743117 -0.11629405 -0.59209728 nan
0.19936191 0.21780001 1.21 -0.76022285 -0.13661809 -0.63513523 nan
0.20100002 0.21708001 1.2060001 -0.73016155 -0.15616311 -0.66518962 nan
0.20262285 0.21636 1.202 -0.73510718 -0.16804665 -0.65679353 nan
0.20406 0.21546 1.197 -0.75761932 -0.17745048 -0.62811172 nan
0.20634 0.21546 1.197 -0.75923282 -0.17085946 -0.6279909 nan
0.20862001 0.21546 1.197 -0.78434068 -0.15257947 -0.601273 nan
0.21019526 0.21474002 1.1930001 -0.81219763 -0.1465904 -0.56466472 nan
0.21246764 0.21474002 1.1930001 -0.81358808 -0.13422227 -0.56573737 nan
0.21402 0.21402 1.189 -0.79714024 -0.12172523 -0.59139705 nan
0.21628475 0.21402 1.189 -0.78866482 -0.10845401 -0.60518223 nan
0.2178143 0.2133 1.1850001 -0.80535543 -0.08602123 -0.58651769 nan
0.2193286 0.21258001 1.1810001 -0.82811177 -0.070165493 -0.55615437 nan
0.22082762 0.21186 1.177 -0.82235998 -0.038457401 -0.56766629 nan
0.22231144 0.21114002 1.1730001 -0.82265234 -0.019013925 -0.56822675 nan
0.22454573 0.21114002 1.1730001 -0.86059487 0.00057234155 -0.50928986 nan
0.22678001 0.21114002 1.1730001 -0.87297887 0.012143257 -0.48760685 nan
0.22823334 0.21042001 1.169 -0.85169441 0.037131149 -0.52272171 nan
0.23046 0.21042001 1.169 -0.83020067 0.051217254 -0.55510688 nan
0.23189048 0.2097 1.1650001 -0.81563872 0.062356323 -0.57519138 nan
0.23250191 0.20826001 1.1570001 -0.81748313 0.068738662 -0.57183588 nan
0.23389429 0.20753999 1.153 -0.82676649 0.067943238 -0.55842716 nan
0.23609048 0.20753999 1.153 -0.82083964 0.081583135 -0.56530207 nan
0.23828667 0.20753999 1.153 -0.83212632 0.067837402 -0.55042154 nan
0.23985717 0.20700002 1.1500001 -0.83951616 0.060893767 -0.53991169 nan
0.24120572 0.20628001 1.146 -0.78409797 0.05296867 -0.61837262 nan
0.24338856 0.20628001 1.146 -0.6998356 0.058217879 -0.71192753 nan
0.24557143 0.20628001 1.146 -0.6512177 0.044732623 -0.75757146 nan
0.24688953 0.20556001 1.1420001 -0.60516775 0.046169635 -0.79475808 nan
0.24819237 0.20484 1.138 -0.54476178 0.034836218 -0.83786696 nan
0.25035998 0.20484 1.138 -0.46844125 0.027005883 -0.88308179 nan
0.25252759 0.20484 1.138 -0.3348774 0.018615602 -0.94207782 nan
0.25469524 0.20484 1.138 -0.16023989 -0.018945536 -0.98689628 nan
0.25686285 0.20484 1.138 -0.027893784 -0.027959805 -0.99921978 nan
0.25903046 0.20484 1.138 0.15038329 -0.044284027 -0.98763543 nan
0.26119807 0.20484 1.138 0.31763405 -0.07332585 -0.94537395 nan
0.26429144 0.20556001 1.1420001 0.43447131 -0.097016886 -0.89544535 nan
0.26646668 0.20556001 1.1420001 0.508959 -0.11607354 -0.85292888 nan
0.26864192 0.20556001 1.1420001 0.54817438 -0.13385916 -0.82558256 nan
0.27176571 0.20628001 1.146 0.57459402 -0.15767549 -0.80310655 nan
0.27394855 0.20628001 1.146 0.61510241 -0.18219587 -0.76710737 nan
0.27781808 0.20753999 1.153 0.63610685 -0.20361187 -0.74425149 nan
0.28098571 0.20826001 1.1570001 0.63927281 -0.22362617 -0.73574561 nan
0.28318954 0.20826001 1.1570001 0.65967339 -0.24065641 -0.71197999 nan
0.28539336 0.20826001 1.1570001 0.65803289 -0.2506963 -0.71003103 nan
0.28859141 0.20897999 1.161 0.62921429 -0.25220242 -0.73517573 nan
0.29180479 0.2097 1.1650001 0.58487487 -0.26904109 -0.76520473 nan
0.29402384 0.2097 1.1650001 0.54011494 -0.28606927 -0.79147977 nan
0.29726002 0.21042001 1.169 0.51823848 -0.2836909 -0.80681372 nan
0.29948667 0.21042001 1.169 0.50171822 -0.28771925 -0.81577969 nan
0.30171335 0.21042001 1.169 0.44650275 -0.33757976 -0.82865864 nan
0.30394 0.21042001 1.169 0.37918559 -0.31861636 -0.86873579 nan
0.30616668 0.21042001 1.169 0.33881268 -0.33906826 -0.87763244 nan
0.30839336 0.21042001 1.169 0.33898449 -0.27747768 -0.8989414 nan
0.31168288 0.21114002 1.1730001 0.41082138 -0.22810857 -0.88271868 nan
0.31391716 0.21114002 1.1730001 0.27038252 -0.18018527 -0.9457413 nan
0.31615144 0.21114002 1.1730001 0.20937474 -0.20937404 -0.95515692 nan
0.31838572 0.21114002 1.1730001 nan nan nan nan
0.32062003 0.21114002 1.1730001 nan nan nan nan
0.32285431 0.21114002 1.1730001 nan nan nan nan
0.18459144 0.22174193 1.2190001 -0.97620898 -0.073583633 -0.20396432 nan
0.18691334 0.22174193 1.2190001 -0.95768625 -0.10058104 -0.26966736 nan
0.18923526 0.22174193 1.2190001 -0.90434253 -0.1285028 -0.40700325 nan
0.19077145 0.22083241 1.2140001 -0.86826712 -0.1143779 -0.48273167 nan
0.19308382 0.22083241 1.2140001 -0.82540482 -0.10975224 -0.55377012 nan
0.19475238 0.22010475 1.21 -0.84064364 -0.12623703 -0.52667111 nan
0.19640572 0.21937716 1.2060001 -0.79396647 -0.12991816 -0.59391791 nan
0.19870287 0.21937716 1.2060001 -0.76705146 -0.14058147 -0.62599432 nan
0.20100002 0.21937716 1.2060001 -0.74106461 -0.17520255 -0.64817232 nan
0.20262285 0.21864952 1.202 -0.74470848 -0.20213766 -0.63604218 nan
0.20406 0.21774 1.197 -0.75959486 -0.20551965 -0.61707157 nan
0.20634 0.21774 1.197 -0.75342345 -0.21449704 -0.62156588 nan
0.20862001 0.21774 1.197 -0.77932352 -0.19500935 -0.595505 nan
0.21019526 0.21701241 1.1930001 -0.808029 -0.18100016 -0.56064969 nan
0.21246764 0.21701241 1.1930001 -0.80632758 -0.1680624 -0.56708986 nan
0.21474002 0.21701241 1.1930001 -0.78959107 -0.1565309 -0.59333301 nan
0.21628475 0.21628475 1.189 -0.78192717 -0.1452136 -0.60622025 nan
0.2178143 0.21555714 1.1850001 -0.79954857 -0.12856135 -0.58668059 nan
0.2193286 0.21482953 1.1810001 -0.81804442 -0.0975876 -0.56681561 nan
0.22082762 0.21410191 1.177 -0.81236786 -0.059010137 -0.58015192 nan
0.22306953 0.21410191 1.177 -0.81604886 -0.045648906 -0.57617748 nan
0.22454573 0.2133743 1.1730001 -0.85562342 -0.017902479 -0.5172891 nan
0.22678001 0.2133743 1.1730001 -0.86868083 -0.0056178868 -0.49534032 nan
0.22823334 0.21264668 1.169 -0.8474589 0.012709695 -0.53070885 nan
0.23046 0.21264668 1.169 -0.82861286 0.025905458 -0.55922234 nan
0.23189048 0.21191905 1.1650001 -0.81388468 0.036577322 -0.57987404 nan
0.23250191 0.21046382 1.1570001 -0.817204 0.049607042 -0.57420969 nan
0.23470572 0.21046382 1.1570001 -0.82658243 0.048939981 -0.56068385 nan
0.23609048 0.20973618 1.153 -0.82439047 0.055724993 -0.5632717 nan
0.23828667 0.20973618 1.153 -0.83790654 0.042016074 -0.54419416 nan
0.23985717 0.2091905 1.1500001 -0.84352928 0.048035502 -0.53493077 nan
0.24204764 0.2091905 1.1500001 -0.78830665 0.045799058 -0.61357564 nan
0.24338856 0.20846285 1.146 -0.70548493 0.050356302 -0.70693374 nan
0.24557143 0.20846285 1.146 -0.65663683 0.044570394 -0.7528888 nan
0.24688953 0.20773524 1.1420001 -0.60972244 0.046057541 -0.79127574 nan
0.24819237 0.20700762 1.138 -0.55677843 0.034652621 -0.82993793 nan
0.25035998 0.20700762 1.138 -0.47697043 0.018009998 -0.87873483 nan
0.25252759 0.20700762 1.138 -0.35258371 0.018577583 -0.93559587 nan
0.25469524 0.20700762 1.138 -0.18848146 -0.0094999643 -0.98203081 nan
0.25686285 0.20700762 1.138 -0.046650819 -0.028074626 -0.99851668 nan
0.25903046 0.20700762 1.138 0.12522444 -0.05373719 -0.99067205 nan
0.26119807 0.20700762 1.138 0.29031488 -0.082983159 -0.95332634 nan
0.26429144 0.20773524 1.1420001 0.40850848 -0.10696743 -0.90646499 nan
0.26646668 0.20773524 1.1420001 0.48416862 -0.13893361 -0.86387396 nan
0.26864192 0.20773524 1.1420001 0.52601522 -0.16980925 -0.83335036 nan
0.27176571 0.20846285 1.146 0.55380148 -0.19940868 -0.80841827 nan
0.27490479 0.2091905 1.1500001 0.59598196 -0.22073054 -0.77206445 nan
0.27781808 0.20973618 1.153 0.62005329 -0.24590893 -0.74502534 nan
0.28098571 0.21046382 1.1570001 0.62546623 -0.26993722 -0.73206955 nan
0.28318954 0.21046382 1.1570001 0.64899772 -0.28366333 -0.70592993 nan
0.28539336 0.21046382 1.1570001 0.65402442 -0.29477569 -0.69667733 nan
0.28859141 0.21119143 1.161 0.62748307 -0.30252555 -0.7174561 nan
0.29080287 0.21119143 1.161 0.58315033 -0.31717771 -0.74788636 nan
0.29402384 0.21191905 1.1650001 0.54630435 -0.32351249 -0.77258736 nan
0.29726002 0.21264668 1.169 0.52643645 -0.30998495 -0.79169059 nan
0.29948667 0.21264668 1.169 0.52583015 -0.287893 -0.80038756 nan
0.30171335 0.21264668 1.169 0.47261971 -0.28995728 -0.8321991 nan
0.30394 0.21264668 1.169 0.42886376 -0.19233294 -0.88265729 nan
0.30616668 0.21264668 1.169 0.35950902 -0.27500495 -0.89169812 nan
0.30839336 0.21264668 1.169 0.36540651 -0.12197307 -0.92282212 nan
0.31168288 0.2133743 1.1730001 0.37708375 -0.18868142 -0.9067564 nan
0.31391716 0.2133743 1.1730001 0.40772879 -0.16315992 -0.89840752 nan
0.31615144 0.2133743 1.1730001 0 0 -1 nan
0.31838572 0.2133743 1.1730001 nan nan nan nan
0.32062003 0.2133743 1.1730001 nan nan nan nan
0.32285431 0.2133743 1.1730001 nan nan nan nan
0.18459144 0.22406381 1.2190001 -0.97412944 -0.11617721 -0.19384199 nan
0.18691334 0.22406381 1.2190001 -0.94327933 -0.15385506 -0.29419836 nan
0.18923526 0.22406381 1.2190001 -0.89878327 -0.16341296 -0.40679821 nan
0.19077145 0.22314477 1.2140001 -0.89220995 -0.16142605 -0.42178559 nan
0.19308382 0.22314477 1.2140001 -0.86859447 -0.15827255 -0.46956736 nan
0.19475238 0.22240953 1.21 -0.83823848 -0.14185843 -0.52652872 nan
0.19640572 0.22167429 1.2060001 -0.79512167 -0.16633233 -0.5831939 nan
0.19870287 0.22167429 1.2060001 -0.77609944 -0.16847196 -0.60768974 nan
0.20100002 0.22167429 1.2060001 -0.75896376 -0.19308077 -0.62184709 nan
0.20262285 0.22093906 1.202 -0.75057447 -0.22228523 -0.62227583 nan
0.20406 0.22002001 1.197 -0.7615909 -0.22630429 -0.60726076 nan
0.20634 0.22002001 1.197 -0.75253034 -0.22974169 -0.61718464 nan
0.20862001 0.22002001 1.197 -0.77211291 -0.21177617 -0.59915984 nan
0.21019526 0.21928477 1.1930001 -0.8019411 -0.18444587 -0.56821668 nan
0.21175523 0.21854952 1.189 -0.79942816 -0.1699606 -0.57621872 nan
0.21402 0.21854952 1.189 -0.78268272 -0.15813224 -0.60199833 nan
0.21555714 0.2178143 1.1850001 -0.77530473 -0.15345225 -0.6126622 nan
0.21707907 0.21707907 1.1810001 -0.78632826 -0.14481719 -0.60059625 nan
0.21858573 0.21634382 1.177 -0.80033618 -0.12076245 -0.58726352 nan
0.22082762 0.21634382 1.177 -0.80156589 -0.087275006 -0.59150249 nan
0.22231144 0.2156086 1.1730001 -0.80865937 -0.073308967 -0.58369154 nan
0.22454573 0.2156086 1.1730001 -0.85075635 -0.049471717 -0.52322668 nan
0.22678001 0.2156086 1.1730001 -0.86660814 -0.035928998 -0.49769408 nan
0.22823334 0.21487333 1.169 -0.84575057 -0.024993788 -0.53299278 nan
0.23046 0.21487333 1.169 -0.82749724 -0.012941328 -0.5613206 nan
0.23189048 0.21413811 1.1650001 -0.81316042 -0.0081898784 -0.58198202 nan
0.23250191 0.21266763 1.1570001 -0.81915724 0.0052189329 -0.57354522 nan
0.23470572 0.21266763 1.1570001 -0.83065224 0.011598868 -0.55667073 nan
0.23609048 0.21193239 1.153 -0.83133411 0.018067023 -0.55547929 nan
0.23828667 0.21193239 1.153 -0.84105229 0.011417795 -0.54083329 nan
0.23985717 0.21138096 1.1500001 -0.84304768 0.030730801 -0.53696024 nan
0.24204764 0.21138096 1.1500001 -0.78890288 0.040642276 -0.61317247 nan
0.24338856 0.21064572 1.146 -0.70516914 0.052418593 -0.70709884 nan
0.24557143 0.21064572 1.146 -0.65532327 0.054792028 -0.75335866 nan
0.24775428 0.21064572 1.146 -0.61190939 0.06472145 -0.78827536 nan
0.24819237 0.20917524 1.138 -0.56563175 0.060171098 -0.82245982 nan
0.25035998 0.20917524 1.138 -0.48126057 0.05361506 -0.8749364 nan
0.25252759 0.20917524 1.138 -0.35860458 0.055294275 -0.93185049 nan
0.25469524 0.20917524 1.138 -0.205558 0.03741812 -0.97792935 nan
0.25686285 0.20917524 1.138 -0.07434389 0.018585026 -0.99705946 nan
0.25903046 0.20917524 1.138 0.090085052 -0.017990921 -0.99577159 nan
0.26119807 0.20917524 1.138 0.26086256 -0.058810815 -0.96358287 nan
0.26336572 0.20917524 1.138 0.38038307 -0.09356679 -0.9200837 nan
0.26553333 0.20917524 1.138 0.45721483 -0.13533662 -0.87899864 nan
0.26864192 0.2099105 1.1420001 0.50218028 -0.18142253 -0.84551811 nan
0.27081716 0.2099105 1.1420001 0.53178686 -0.21811156 -0.81830931 nan
0.27394855 0.21064572 1.146 0.57645488 -0.23315796 -0.78315842 nan
0.27709526 0.21138096 1.1500001 0.60209846 -0.25305176 -0.75725967 nan
0.27928573 0.21138096 1.1500001 0.60816675 -0.27768677 -0.74365532 nan
0.2822105 0.21193239 1.153 0.63575053 -0.29557341 -0.71306217 nan
0.28440669 0.21193239 1.153 0.64823741 -0.3077628 -0.6964699 nan
0.28759715 0.21266763 1.1570001 0.62878287 -0.31708625 -0.70999187 nan
0.28980097 0.21266763 1.1570001 0.5873757 -0.3315652 -0.73827791 nan
0.29301429 0.21340285 1.161 0.55411285 -0.33746243 -0.76097178 nan
0.29522571 0.21340285 1.161 0.53945619 -0.3172147 -0.77997553 nan
0.29846191 0.21413811 1.1650001 0.55490249 -0.28447747 -0.78176451 nan
0.30171335 0.21487333 1.169 0.53855699 -0.2460012 -0.80587828 nan
0.30394 0.21487333 1.169 0.50321472 -0.22047637 -0.83556277 nan
0.30616668 0.21487333 1.169 0.46619472 -0.056898389 -0.88285053 nan
0.30839336 0.21487333 1.169 0.42040235 -0.040319145 -0.90644151 nan
0.31062001 0.21487333 1.169 0.48162791 0.15158492 -0.86316657 nan
0.31391716 0.2156086 1.1730001 0.46422982 0.041866615 -0.88472474 nan
0.31615144 0.2156086 1.1730001 0.39116853 0.39057606 -0.8333292 nan
0.31947142 0.21634382 1.177 nan nan nan nan
0.32171333 0.21634382 1.177 nan nan nan nan
0.32395524 0.21634382 1.177 nan nan nan nan
0.18845907 0.22545716 1.2140001 -0.92798615 -0.17111321 -0.33100143 nan
0.19077145 0.22545716 1.2140001 -0.88675004 -0.1800606 -0.42573765 nan
0.19308382 0.22545716 1.2140001 -0.86025256 -0.18427053 -0.47540501 nan
0.19475238 0.22471429 1.21 -0.83285338 -0.16834119 -0.5272727 nan
