# .PCD v0.7 - Point Cloud Data file format
VERSION 0.7
FIELDS x y z normal_x normal_y normal_z curvature
SIZE 4 4 4 4 4 4 4
TYPE F F F F F F F
COUNT 1 1 1 1 1 1 1
WIDTH 668
HEIGHT 1
VIEWPOINT 0 0 0 1 0 0 0
POINTS 668
DATA ascii
-0.0030228575 -0.051388573 1.0580001 -0.2482665 -0.47439167 -0.84400928 nan
0.0027709526 -0.053151909 1.0580001 nan nan nan nan
0.013099049 -0.059449527 1.0580001 nan nan nan nan
-0.0040279045 -0.045293149 1.0568004 -0.48348585 -0.20485926 -0.82196516 nan
0.0046820291 -0.045346629 1.0560439 0.27403292 -0.17904679 -0.91650146 nan
-0.0036906351 -0.035316885 1.056167 -0.42856723 -0.0058978084 -0.89496261 nan
0.0043633566 -0.035122272 1.0565717 0.14920607 -0.047684897 -0.96898079 nan
-0.0036914286 -0.025486669 1.0563337 -0.45985284 -0.01517791 -0.88287389 nan
0.0050289528 -0.02514156 1.0558403 0.095221877 -0.095924728 -0.96706724 nan
0.011839526 -0.024434764 1.0580001 0.40372616 -0.14147383 -0.90365028 nan
-0.0043628123 -0.014614061 1.0565717 -0.53497845 -0.038673613 -0.8377918 nan
0.0050241528 -0.015072912 1.0551202 0.030062558 -0.059697941 -0.97906607 nan
0.013471013 -0.014729464 1.0574378 0.40800938 -0.10418129 -0.90490454 nan
-0.0050321524 -0.0050287247 1.0560803 -0.58737075 -0.037730191 -0.80010802 nan
0.0050238101 -0.0050238105 1.0550002 0.024683315 -0.08787366 -0.98189664 nan
0.014761076 -0.0051242239 1.0577395 0.41706941 -0.070755593 -0.90211838 nan
-0.0038638597 0.0048109274 1.0548424 -0.59734911 0.039546475 -0.79584175 nan
0.0050146668 0.0050123804 1.0526 0.0026945572 -0.031516541 -0.97744101 nan
0.0139393 0.0049282704 1.0572108 0.43160364 -0.020432323 -0.89917523 nan
-0.0030194288 0.01508724 1.0560002 -0.59847581 0.084706374 -0.79417926 nan
0.0050177532 0.01505097 1.0534401 -0.06540288 0.065981634 -0.96836555 nan
0.014257195 0.015526067 1.0572108 0.40997794 -0.0023110486 -0.90859234 nan
-0.0032711909 0.025271788 1.0561253 -0.58525038 0.089086398 -0.8031773 nan
0.0050238096 0.025119046 1.0550002 -0.12370428 0.10250151 -0.96247023 nan
0.0146368 0.024785887 1.0563639 0.37167549 0.051909242 -0.92352003 nan
-0.0013434923 0.034594923 1.0580001 -0.51266551 0.11968332 -0.8492018 nan
0.0050239242 0.035171125 1.0551202 -0.15641281 0.12611321 -0.95930725 nan
0.012357663 0.034874033 1.057182 0.29446331 0.079084516 -0.94959676 nan
0.0051978184 0.045127895 1.0568753 -0.24081878 0.10913433 -0.95185471 nan
0.013585001 0.046031434 1.0565003 0.20261149 -0.030837288 -0.9703325 nan
0.0071917698 0.055242658 1.0573574 -0.26255801 0.063497655 -0.95810592 nan
0.014739589 0.055228956 1.0560437 0.15840213 0.033577587 -0.96970809 nan
0.021160005 0.055419054 1.0580001 0.50476283 0.032620825 -0.86004061 nan
0.0063815876 0.065383293 1.0580003 -0.25763425 0.092885949 -0.95403653 nan
0.013490478 0.064495191 1.0570003 0.12459884 0.1699281 -0.96944767 nan
0.0073633702 0.075106375 1.0580003 -0.15169813 0.17166984 -0.96899718 nan
0.01108381 0.075067624 1.0580001 0.053273216 0.17058146 -0.98354053 nan
0.008083811 -0.061639056 1.0610001 nan nan nan nan
0.01635864 -0.061795644 1.0637144 nan nan nan nan
0.021299999 -0.062882856 1.0650001 nan nan nan nan
-0.012002287 -0.053501721 1.0680001 -0.62972611 -0.37595907 -0.66911513 nan
-0.0050639599 -0.055675194 1.0628422 nan nan nan nan
0.0061280122 -0.056704264 1.0620588 nan nan nan nan
0.015114079 -0.055368908 1.0637828 nan nan nan nan
0.022621429 -0.054138575 1.0675 0.55577612 -0.22184022 -0.7661103 nan
-0.014065765 -0.04550356 1.0667369 -0.7278986 -0.14850572 -0.66537225 nan
-0.0090942867 -0.04547143 1.0610001 -0.68769282 -0.14784533 -0.70439488 nan
0.0090942867 -0.044460956 1.0610001 0.48253667 -0.068430707 -0.86869729 nan
0.015192228 -0.045568679 1.0632799 0.44051513 -0.081614658 -0.89284623 nan
0.024843637 -0.045432042 1.0665455 0.50721914 -0.20301732 -0.83174723 nan
-0.014222096 -0.035547808 1.0664001 -0.73572284 -0.026527107 -0.67578924 nan
-0.0085168723 -0.035077963 1.0610001 -0.62538421 -0.01099347 -0.77854949 nan
0.0085890489 -0.035871908 1.0610001 0.37967455 -0.063110858 -0.92211211 nan
0.015192228 -0.035443127 1.0632797 0.42260578 -0.064416885 -0.90346587 nan
0.02539124 -0.035540722 1.06624 0.48558992 -0.076402359 -0.86591893 nan
0.031531431 -0.032548577 1.0680001 0.62016535 -0.065009534 -0.78171647 nan
-0.014222095 -0.025389716 1.0663999 -0.72029752 -0.0049161683 -0.69321322 nan
-0.0085168723 -0.024395786 1.0610001 -0.63540572 0.005176744 -0.77114636 nan
0.016724259 -0.025648966 1.0622354 0.45888883 -0.12057167 -0.87950814 nan
0.025401751 -0.025396569 1.06672 0.49692291 -0.056024883 -0.86217296 nan
0.032548573 -0.025428573 1.068 0.60598606 -0.039430063 -0.79430526 nan
-0.013677815 -0.015344373 1.0658237 -0.71770507 0.013170497 -0.69600892 nan
-0.0085954778 -0.017695477 1.0617501 -0.64767486 -0.0018825203 -0.76094198 nan
0.018094392 -0.015846986 1.062 0.50792152 -0.11584064 -0.85317838 nan
0.025387427 -0.015230631 1.0660799 0.55857724 -0.070227198 -0.82360512 nan
0.031531431 -0.01729143 1.0680001 0.59653544 -0.0098358598 -0.80244768 nan
-0.013195112 -0.0050728261 1.0654 -0.73897237 0.014217821 -0.67339969 nan
0.019199049 -0.0040419055 1.0610001 0.53083909 -0.047558986 -0.84591675 nan
0.025180481 -0.0049832538 1.0644168 0.58820188 -0.056019541 -0.80396235 nan
0.031531431 -0.0045771427 1.0680001 0.64111125 -0.045355707 -0.76576346 nan
-0.013205081 0.0050765723 1.0664001 -0.74045008 0.056373511 -0.66960442 nan
-0.0087574618 0.0057260329 1.0610001 -0.72330439 0.060799371 -0.68741673 nan
0.018862225 0.0053892075 1.0610001 0.52105284 -7.7689383e-06 -0.85334265 nan
0.025344308 0.0050664381 1.0642401 0.56530201 -0.033978447 -0.82137662 nan
0.032112654 0.0047951024 1.0680001 0.63315737 -0.081311487 -0.76946664 nan
-0.012483117 0.01507221 1.068 -0.73572224 0.060865719 -0.67430741 nan
-0.008083811 0.015157145 1.061 -0.70575464 0.068834871 -0.70443553 nan
0.017851748 0.013809843 1.0610001 0.48921058 -0.040854055 -0.87084335 nan
0.025334591 0.015198287 1.0638798 0.53573751 -0.044148155 -0.84213018 nan
0.032825977 0.014887273 1.068 0.59389788 -0.067590289 -0.80083245 nan
-0.012197334 0.02540724 1.0672001 -0.73093289 0.043625437 -0.68079305 nan
-0.0082017994 0.025055135 1.0616667 -0.69846767 0.061210573 -0.71232367 nan
0.018525399 0.027956512 1.0610001 0.42687017 0.048701655 -0.90287054 nan
0.025326706 0.02532259 1.0635201 0.53210282 0.013735859 -0.84599578 nan
0.032294288 0.025428573 1.068 0.58284414 0.00018624542 -0.81241566 nan
-0.01270381 0.035060003 1.067 -0.70328158 0.06478788 -0.70743072 nan
-0.0062359399 0.035642859 1.0628947 -0.64237732 0.11147206 -0.75537133 nan
0.017325921 0.03566334 1.0612143 0.39563236 0.048964515 -0.91601133 nan
0.025333332 0.035466667 1.0639997 0.4968392 0.020082941 -0.86614537 nan
0.032989442 0.036498357 1.0672728 0.58865881 0.018995687 -0.80794924 nan
-0.011513652 0.045040004 1.0666668 -0.6561203 0.074054368 -0.75080556 nan
-0.0050626672 0.045533828 1.06244 -0.59448719 0.12118263 -0.79242134 nan
0.0010104763 0.04951334 1.0610001 -0.4550328 0.14680846 -0.87828946 nan
0.017851749 0.044124126 1.061 0.37679821 -0.07978832 -0.92203701 nan
0.025323123 0.045576148 1.0634398 0.52806598 -0.032729205 -0.84628111 nan
0.032548573 0.044500005 1.068 0.61769748 0.034776986 -0.78494984 nan
-0.011188572 0.054925717 1.0680001 -0.65727967 0.092044562 -0.74794376 nan
-0.0049003968 0.055569127 1.0640832 -0.58388454 0.091623887 -0.80506325 nan
0.0022965369 0.055759925 1.061 -0.45114407 0.088531546 -0.88704252 nan
0.019199049 0.056586672 1.0610001 0.41351569 0.047769379 -0.90894413 nan
0.026198048 0.055532187 1.0642632 0.59900945 0.041255448 -0.79842931 nan
0.031531431 0.05594286 1.0680001 0.66578519 0.048011165 -0.74459094 nan
-0.011188572 0.061028574 1.0680001 -0.66276288 0.099948987 -0.74211967 nan
-0.0050742468 0.065497495 1.0645999 -0.61134762 0.080565676 -0.78522742 nan
0.0015878915 0.065969661 1.0610001 -0.48169076 0.051310085 -0.87396264 nan
0.017598001 0.067154191 1.0619 0.35616276 0.18925653 -0.91051477 nan
0.025281906 0.065152809 1.0653043 0.54293138 0.14035279 -0.8254239 nan
0.031531431 0.064080007 1.0680001 0.63662142 0.063417584 -0.76804876 nan
-0.0052738325 0.074879274 1.0659049 -0.62502158 0.13649453 -0.7675311 nan
0.0026642426 0.07598944 1.0612727 -0.40830454 0.15632205 -0.89488655 nan
0.015710628 0.07555563 1.0622631 0.26799336 0.13705997 -0.94458258 nan
0.025671721 0.074531674 1.0669566 0.48704365 0.074803814 -0.86851674 nan
0.031531431 0.078320004 1.0680001 0.54441476 0.0061275577 -0.83879381 nan
-0.003907369 0.08416 1.0673685 -0.60821676 0.18872526 -0.77059257 nan
0.0051421542 0.085197337 1.0622176 -0.31218725 0.20678398 -0.91551441 nan
0.015175771 0.085167028 1.06208 0.15588923 0.1206266 -0.96495801 nan
0.02538362 0.08425843 1.0659201 0.44316733 0.025789918 -0.89427257 nan
0.031531431 0.083914295 1.0680001 0.54542005 0.027854903 -0.83649945 nan
-0.0024966232 0.093669616 1.068 -0.60157245 0.16445987 -0.78122574 nan
0.0048031476 0.094669469 1.0648695 -0.37382445 0.15650456 -0.90517163 nan
0.015474935 0.094780922 1.0638635 0.11409643 0.14220865 -0.97181976 nan
0.025234763 0.094323009 1.0668333 0.44590434 0.1447444 -0.87898886 nan
0.031531431 0.090525724 1.0680001 0.56357253 0.14415523 -0.81339121 nan
-0.0010171429 0.10476573 1.0680001 -0.61744648 0.13003966 -0.77533239 nan
0.0050695622 0.10451583 1.0654399 -0.40155396 0.09848804 -0.89915603 nan
0.015208684 0.10442073 1.0644798 0.12507942 0.094662122 -0.9770124 nan
0.023529908 0.10422327 1.068 0.46193057 0.1312647 -0.87348831 nan
-0.0010171429 0.11290286 1.0680001 -0.65957391 0.1958566 -0.72550678 nan
0.0052425405 0.11458826 1.0663335 -0.46411121 0.17650548 -0.85607666 nan
0.015214475 0.11459275 1.0647999 0.10690648 0.1094525 -0.97527766 nan
0.022264127 0.11538921 1.068 0.44586861 0.057717808 -0.89114213 nan
0.006982096 0.12453589 1.0677333 -0.45536819 0.25863284 -0.84653515 nan
0.015242666 0.1249798 1.06688 0.038761031 0.24360874 -0.95129085 nan
0.022377143 0.12409143 1.068 0.3949475 0.19360906 -0.89506614 nan
0.0091542862 0.13222858 1.0680001 -0.34837401 0.30656409 -0.88577813 nan
0.014646858 0.132432 1.068 -0.0041226731 0.33130422 -0.9285838 nan
-0.02156 -0.070840001 1.0780001 nan nan nan nan
-0.018480001 -0.070840001 1.0780001 nan nan nan nan
-0.023058098 -0.065077618 1.0761667 nan nan nan nan
-0.015742484 -0.064345546 1.0768257 nan nan nan nan
-0.009180001 -0.060180005 1.0710001 nan nan nan nan
0.026235579 -0.063902527 1.0772145 nan nan nan nan
0.03311 -0.063396662 1.0780001 nan nan nan nan
-0.022586668 -0.054413337 1.0780001 -0.71979493 -0.15949948 -0.67412758 nan
-0.016615834 -0.055330243 1.0733751 nan nan nan nan
0.027449843 -0.055747941 1.0740001 0.61010742 -0.3809652 -0.68608415 nan
0.033346351 -0.05386889 1.0773335 0.54172176 -0.253685 -0.78237605 nan
-0.022965334 -0.044079628 1.0764 -0.7438404 -0.084728733 -0.66239876 nan
-0.018972004 -0.045900002 1.0710001 -0.72398847 -0.13652034 -0.6728031 nan
0.029580003 -0.047940001 1.0710001 0.64309353 -0.24713401 -0.72385395 nan
0.034231365 -0.044317894 1.0750716 0.63715506 -0.19225028 -0.74569625 nan
-0.023244446 -0.035204444 1.0766668 -0.75066543 -0.036527365 -0.65927774 nan
-0.019380003 -0.035700005 1.0710001 -0.75337136 -0.039860208 -0.65588814 nan
0.034908392 -0.035669226 1.0739375 0.6182555 -0.10172094 -0.77890027 nan
-0.023570985 -0.025619365 1.0759335 -0.74096203 -0.040135331 -0.66994864 nan
-0.019380003 -0.025500003 1.0710001 -0.74520749 -0.026783729 -0.66597283 nan
0.036883336 -0.025611905 1.0757 0.59645742 -0.04716254 -0.80095911 nan
0.040040001 -0.025153333 1.0780001 0.64030719 -0.037235733 -0.76675874 nan
-0.023839522 -0.015506428 1.0765001 -0.73300457 0.044814914 -0.67800212 nan
-0.018642144 -0.015065716 1.0725 -0.73860639 0.030302115 -0.67320085 nan
0.035307787 -0.014975353 1.0735295 0.60985494 -0.0036300987 -0.79228491 nan
0.041066673 -0.015400002 1.0780001 0.65091467 -0.0073478147 -0.75876057 nan
-0.023466669 -0.0054266672 1.0780001 -0.75622571 0.054326512 -0.65159178 nan
-0.018387144 -0.0051071434 1.0725001 -0.76032943 0.028781975 -0.64843076 nan
0.029580001 -0.0071400008 1.0710001 0.65916908 -0.036292732 -0.75111848 nan
0.035573099 -0.0052440483 1.0747501 0.61877513 -0.033235207 -0.78440273 nan
0.040724449 -0.0047911117 1.0780001 0.59947479 -0.054830052 -0.79763144 nan
-0.023597334 0.005129525 1.0772002 -0.75939256 -0.0032906504 -0.65025592 nan
-0.018381717 0.0051057148 1.0722001 -0.75410569 0.038152736 -0.65535033 nan
0.036106959 0.0052671069 1.0736924 0.60338271 -0.1083971 -0.78963399 nan
0.042367116 0.0056808894 1.0780002 0.56837952 -0.12132041 -0.81348896 nan
-0.023460956 0.015103676 1.0777144 -0.7281037 0.054648284 -0.68213665 nan
-0.017505106 0.015461023 1.0720716 -0.73211175 0.069566168 -0.67720675 nan
0.03779868 0.01579297 1.0726155 0.58486032 -0.069685809 -0.80728066 nan
0.044249073 0.015754288 1.0775293 0.58354062 -0.067461401 -0.80823165 nan
-0.022472594 0.025210371 1.0780001 -0.74118406 0.065335222 -0.66762364 nan
-0.017377462 0.025553465 1.0731335 -0.74521726 0.033753142 -0.66563642 nan
0.037143573 0.025400002 1.0721252 0.58719796 0.0016533148 -0.80926031 nan
0.043978807 0.025644287 1.0770001 0.58253926 0.013176432 -0.81220484 nan
-0.022244446 0.034906667 1.0780001 -0.77092183 0.057755943 -0.63423079 nan
-0.017536193 0.035920478 1.0725001 -0.74722451 0.044059798 -0.66253656 nan
0.036956288 0.034912858 1.0719001 0.60457486 0.026978085 -0.795654 nan
0.042280003 0.034626666 1.0780001 0.59082252 0.046922822 -0.80515593 nan
-0.022330001 0.044146664 1.0780001 -0.77671659 0.079117596 -0.62411571 nan
-0.016486457 0.045462329 1.0741111 -0.73000169 0.079391882 -0.67593724 nan
0.035923894 0.046502084 1.072091 0.62012827 0.06025134 -0.78194362 nan
0.041946668 0.043853335 1.0780001 0.5962286 0.049367044 -0.80076087 nan
-0.022073334 0.051846664 1.0780001 -0.78033894 0.090154409 -0.61876303 nan
-0.016589684 0.054641109 1.0735 -0.74283296 0.093676828 -0.66085827 nan
0.035623129 0.054596741 1.0730002 0.64938492 0.062233567 -0.75758892 nan
0.041533336 0.053480003 1.0780001 0.60739243 0.096900605 -0.78779846 nan
-0.015149573 0.064459577 1.07435 -0.72882646 0.097584225 -0.67558795 nan
0.035741523 0.064333148 1.0722001 0.64426208 0.030659396 -0.76379639 nan
0.040626671 0.06468001 1.0780001 0.64283359 0.0087232646 -0.76517171 nan
-0.014586076 0.074563757 1.0752856 -0.72313768 0.10310093 -0.67965871 nan
0.035368208 0.074668981 1.072619 0.59225881 0.0036843952 -0.80507535 nan
0.041213334 0.074653342 1.0780001 0.64073098 -0.029390033 -0.76668489 nan
-0.01381367 0.084742077 1.0765883 -0.7074396 0.16882765 -0.68345994 nan
-0.0088400012 0.085340008 1.0710001 -0.626118 0.17951624 -0.75864935 nan
0.035743527 0.085118659 1.0722352 0.59064716 0.046673104 -0.80404794 nan
0.041408889 0.084985189 1.0780001 0.62894678 0.062371068 -0.77270484 nan
-0.012205927 0.095023714 1.0780001 -0.68426573 0.18557434 -0.70499557 nan
-0.007155919 0.095768027 1.0730002 -0.63775939 0.16803446 -0.75140625 nan
0.029580001 0.098940007 1.0710001 0.56367713 0.18722248 -0.80449724 nan
0.034958847 0.095384724 1.0744735 0.59470671 0.1802208 -0.78262985 nan
0.040040001 0.094453335 1.0780001 0.62856311 0.18677935 -0.75484341 nan
-0.011293335 0.10369334 1.0780001 -0.69904995 0.18396597 -0.69083393 nan
-0.0061407145 0.10532023 1.07365 -0.66882014 0.16160719 -0.7246691 nan
0.02838086 0.10596602 1.0719001 0.58817595 0.14295959 -0.79458988 nan
0.033509009 0.1050929 1.076154 0.59870207 0.17274617 -0.78063947 nan
-0.0051233335 0.11489548 1.0747501 -0.68723106 0.20982955 -0.69494689 nan
0.0010200001 0.11934001 1.0710001 -0.61812955 0.21333005 -0.75657529 nan
0.027305713 0.11508501 1.0717502 0.58818007 0.034603912 -0.80703038 nan
0.032914918 0.11604932 1.0762223 0.62435824 0.0074838549 -0.78003693 nan
-0.0027056276 0.12391429 1.0769092 -0.68221235 0.2152293 -0.69856614 nan
0.0022457144 0.12641944 1.0722001 -0.59271818 0.23709364 -0.7685554 nan
0.026953613 0.12600404 1.0715296 0.51387388 0.18415712 -0.83250719 nan
0.034250792 0.12461855 1.0766667 0.62339896 0.10433341 -0.77245289 nan
-0.0017966668 0.13423666 1.0780001 -0.65628588 0.17816049 -0.73287046 nan
0.00489158 0.13544227 1.0735263 -0.49412787 0.22919494 -0.83135182 nan
0.015300004 0.13722923 1.0710001 0.051355019 0.3138451 -0.93016857 nan
0.025626762 0.13528286 1.0761 0.4391273 0.31404051 -0.83771229 nan
0.032237332 0.13285068 1.0780001 0.55987883 0.27518618 -0.7804209 nan
-0.0010266667 0.14168 1.0780001 -0.63941365 0.18015635 -0.74742782 nan
0.0049473024 0.14461842 1.0756665 -0.43607473 0.2128024 -0.86193132 nan
0.015618616 0.14473239 1.0736363 0.10106441 0.29007176 -0.93779552 nan
-0.031431112 -0.063207626 1.0880001 nan nan nan nan
-0.027626548 -0.06325274 1.0843751 nan nan nan nan
0.029856192 -0.06177143 1.0810001 nan nan nan nan
0.037268765 -0.062389147 1.0810002 nan nan nan nan
0.04306981 -0.062741436 1.0871001 nan nan nan nan
-0.031085715 -0.055954285 1.0880001 -0.65982652 -0.10302328 -0.74182844 nan
-0.027552746 -0.054705717 1.0837694 -0.73939419 -0.13317233 -0.65670103 nan
0.037320238 -0.055336908 1.0810002 0.61440897 -0.15069723 -0.76788843 nan
0.043692302 -0.054623451 1.0860475 nan nan nan nan
0.050773337 -0.050773337 1.0880001 0.54614252 -0.25028619 -0.79942805 nan
-0.032121904 -0.044556197 1.0880002 -0.70947754 -0.028558461 -0.70249665 nan
-0.027991021 -0.044632796 1.0827144 -0.72074133 -0.052246314 -0.69020993 nan
0.038092382 -0.045299049 1.0810001 0.63155282 -0.20687959 -0.74682629 nan
0.044370975 -0.044367243 1.0833598 0.57150048 -0.20337565 -0.79329151 nan
0.05225667 -0.043978572 1.0865002 0.60100096 -0.19363336 -0.77260196 nan
-0.032121904 -0.034194287 1.0880002 -0.74404746 -0.042799201 -0.66651922 nan
-0.028578307 -0.035233334 1.0845556 -0.73951542 -0.033314269 -0.67218053 nan
0.044296384 -0.035023049 1.0816001 0.61891824 -0.078545235 -0.78041768 nan
0.052953746 -0.034462586 1.0871431 0.62252891 -0.039658822 -0.77977782 nan
-0.034608763 -0.024246857 1.0880002 -0.76908946 -0.04491977 -0.63630581 nan
-0.028881907 -0.025785714 1.0830001 -0.72096211 -0.062186152 -0.6899786 nan
0.045121036 -0.02587134 1.0825238 0.65664154 -0.021631094 -0.75294238 nan
0.051678836 -0.025435025 1.0876669 0.60939413 0.0051666936 -0.79275942 nan
-0.033966988 -0.01603651 1.0861669 -0.78233063 0.068709567 -0.61771059 nan
-0.028941061 -0.015214077 1.0810002 -0.7195558 0.065550596 -0.69000638 nan
0.046387751 -0.015462415 1.0823336 0.64573592 -0.044752233 -0.76093459 nan
0.051795531 -0.015539713 1.0877002 0.61393791 -0.07579089 -0.78489304 nan
-0.031085715 -0.0051809526 1.0880001 -0.76202512 0.09112449 -0.64052415 nan
-0.028266987 -0.0053802123 1.0814446 -0.74045068 0.086402729 -0.66583681 nan
0.04535323 -0.0052559897 1.0810001 0.58628005 -0.091924407 -0.80329591 nan
0.053793292 -0.0051740478 1.0861501 0.59142703 -0.16314037 -0.78851122 nan
-0.031431112 0.0058717467 1.0880001 -0.77262211 -0.019959349 -0.63380665 nan
-0.02873683 0.0056111109 1.081889 -0.7537902 -0.030492969 -0.65609729 nan
0.046946287 0.0043240008 1.0810002 0.54636222 -0.11014688 -0.82979518 nan
0.054542221 0.0053338092 1.0838332 0.58065319 -0.089166239 -0.80655718 nan
-0.032865833 0.014751786 1.0868751 -0.79053849 0.0094730649 -0.61120492 nan
-0.028614806 0.015855674 1.0835456 -0.73605514 0.037404176 -0.67421991 nan
0.047872856 0.01338381 1.0810001 0.58067191 -0.076850578 -0.81018358 nan
0.054396238 0.015223396 1.0846522 0.61391014 -0.011487403 -0.78811222 nan
0.061135244 0.013470477 1.0880001 0.70156217 0.0054749688 -0.71248496 nan
-0.030878479 0.024246858 1.0880002 -0.7424764 0.10261208 -0.66122502 nan
-0.02672147 0.025592122 1.0828184 -0.72637385 0.10082549 -0.67922837 nan
0.047975808 0.026149908 1.0810002 0.61843902 0.022201136 -0.78499788 nan
0.053641487 0.025784908 1.0830501 0.62695849 0.029069662 -0.77825093 nan
-0.030049527 0.034194287 1.0880002 -0.73895705 0.097242035 -0.66665566 nan
-0.026351081 0.034598012 1.0830002 -0.75267118 0.078138806 -0.65317887 nan
0.047358096 0.035003811 1.0810002 0.62763208 0.055956945 -0.77626115 nan
0.053819053 0.034841191 1.0840001 0.61484718 0.040337097 -0.78733307 nan
-0.030049525 0.041447621 1.0880001 -0.75105369 0.090534545 -0.65396285 nan
-0.026327856 0.044388972 1.0839169 -0.77079791 0.089058451 -0.6299659 nan
0.047077321 0.044643898 1.0810003 0.6203621 0.051918738 -0.78160739 nan
0.05351324 0.044598948 1.0837369 0.59525943 0.025219787 -0.80260342 nan
-0.024291173 0.055614285 1.083182 -0.78713769 0.090431549 -0.61002105 nan
0.046353612 0.055331163 1.0815717 0.59988284 0.10789456 -0.7923736 nan
0.054448865 0.054717012 1.0857391 0.56676441 0.10463391 -0.81671011 nan
-0.023738926 0.065015376 1.0836002 -0.78388053 0.08811529 -0.61447072 nan
-0.019560954 0.066919059 1.0810001 -0.76010323 0.10742571 -0.6408428 nan
0.045720525 0.064965405 1.0827779 0.63694221 0.042559382 -0.76836127 nan
0.052974544 0.064852767 1.0878003 0.57310683 0.09664163 -0.81266135 nan
-0.02374737 0.075361468 1.0839336 -0.77679849 0.11080569 -0.61969525 nan
-0.019560954 0.076184765 1.0810001 -0.77175897 0.10997456 -0.62620699 nan
0.046071194 0.074897856 1.0810002 0.66554213 -0.031972535 -0.74559551 nan
0.051480476 0.075795248 1.0865002 0.64008528 -0.015911631 -0.76766813 nan
-0.022606457 0.085257888 1.0843334 -0.77865261 0.14938164 -0.60916877 nan
-0.018788811 0.086222626 1.0810002 -0.77316475 0.14542374 -0.61712778 nan
0.046227116 0.085376456 1.0818002 0.66394377 0.060703471 -0.7440455 nan
0.052257147 0.086056992 1.0865002 0.65647769 0.075601324 -0.74939799 nan
-0.022450795 0.093947947 1.0880002 -0.78317738 0.140863 -0.60536969 nan
-0.01708599 0.095577553 1.0824288 -0.74680108 0.16595455 -0.64326203 nan
0.044934288 0.095473751 1.0831113 0.63468426 0.18049128 -0.7508164 nan
0.052068576 0.094293341 1.0880002 0.66301554 0.14330748 -0.73456073 nan
-0.021760002 0.10154667 1.0880001 -0.76846552 0.17477113 -0.61555767 nan
-0.01646887 0.10492281 1.084 -0.73579228 0.18350105 -0.65105063 nan
0.037680574 0.10562915 1.0810002 0.63907057 0.17795536 -0.74778718 nan
0.044348352 0.10448405 1.0851905 0.6151734 0.18563299 -0.76538539 nan
0.050773337 0.10154667 1.0880001 0.64729238 0.18106735 -0.74033988 nan
-0.013928013 0.11437361 1.085353 -0.70928037 0.20906104 -0.67256761 nan
-0.0092657153 0.11736572 1.0810001 -0.72155499 0.20632368 -0.66086787 nan
0.036871046 0.11370096 1.0814003 0.65080994 0.049141627 -0.75660139 nan
0.043692298 0.11461394 1.0860476 0.61936927 0.044141047 -0.78211552 nan
-0.012632096 0.12506752 1.0871001 -0.69542658 0.16127078 -0.69924563 nan
-0.0075260811 0.12508243 1.081308 -0.70078182 0.18458617 -0.68828541 nan
0.038092382 0.12354286 1.0810001 0.63735008 0.064467043 -0.76675415 nan
0.043903511 0.12501727 1.0856818 0.63462222 0.083772063 -0.7667014 nan
-0.011990206 0.13603704 1.0880002 -0.7070455 0.1265534 -0.69506449 nan
-0.0067337817 0.13515823 1.082353 -0.66691756 0.14739619 -0.72997445 nan
0.035933148 0.13555233 1.0820669 0.57254565 0.2627432 -0.77588618 nan
0.041689701 0.13522911 1.0869093 0.61911142 0.22353598 -0.75235111 nan
0.040411431 0.1419581 1.0880001 0.61804593 0.19181365 -0.76238233 nan
-0.041561909 -0.061303813 1.0910001 nan nan nan nan
-0.035951048 -0.063174099 1.091 nan nan nan nan
0.04883524 -0.06234286 1.0910001 nan nan nan nan
0.055647381 -0.063984886 1.0946251 nan nan nan nan
0.062220007 -0.063788578 1.098 nan nan nan nan
-0.041728288 -0.055285808 1.0953001 nan nan nan nan
-0.035237048 -0.054986577 1.0913999 nan nan nan nan
0.04883524 -0.056108575 1.0910001 nan nan nan nan
0.055385601 -0.055379804 1.0937083 nan nan nan nan
0.061697148 -0.054900002 1.098 0.75060129 0.0079960935 -0.65097833 nan
-0.041757997 -0.044887908 1.0961 -0.81698608 -0.0012411185 -0.57484454 nan
-0.036366675 -0.044679053 1.091 -0.7405929 -0.016327834 -0.67026329 nan
0.057582494 -0.045247991 1.093154 0.69325042 -0.16855907 -0.69785953 nan
0.06166343 -0.04494343 1.0974001 0.72561997 -0.12177973 -0.67682248 nan
-0.041650478 -0.03422381 1.0963334 -0.81664681 -0.050120927 -0.57440788 nan
-0.036375564 -0.034296956 1.0912665 -0.77255416 -0.034914341 -0.6333887 nan
0.058273531 -0.034340385 1.0926001 0.68309325 -0.045636017 -0.72836006 nan
0.063141562 -0.033515066 1.0966364 0.69095474 -0.081536941 -0.71769506 nan
-0.041691788 -0.025017262 1.0943751 -0.80593163 -0.0057067545 -0.59136176 nan
-0.036366671 -0.025976192 1.0910001 -0.77637285 -0.04731017 -0.62814134 nan
0.057220008 -0.024967622 1.0923336 0.65891409 0.011757079 -0.75190037 nan
0.063521303 -0.024781039 1.0966364 0.66054273 0.013959032 -0.74988621 nan
-0.041604448 -0.016105397 1.0951113 -0.81614381 0.11350993 -0.56587625 nan
-0.037163574 -0.014811668 1.0915 -0.80716801 0.10061461 -0.58056062 nan
0.057220004 -0.015604763 1.0923334 0.65596247 -0.080126144 -0.74919188 nan
0.063195482 -0.015493572 1.0967501 0.64199442 -0.076505385 -0.76162881 nan
-0.041131429 -0.0048800004 1.098 -0.81810701 0.0877693 -0.56763422 nan
-0.035763018 -0.0048611113 1.0936111 -0.81115729 0.090151057 -0.57662928 nan
0.059225716 -0.0051952377 1.0910001 0.66578496 -0.17702563 -0.72468418 nan
0.064118996 -0.0048484034 1.0951765 0.66606259 -0.17098548 -0.72565097 nan
-0.041131429 0.0045314291 1.098 -0.81584084 -0.013583578 -0.57755065 nan
-0.035750166 0.0048594717 1.0932223 -0.81577677 -0.021866839 -0.57659042 nan
0.059225716 0.0010390477 1.0910001 0.6620971 -0.15301579 -0.73363042 nan
0.064600915 0.0052085235 1.0939498 0.69798779 -0.062922709 -0.71119964 nan
0.070062861 0.0031371429 1.098 0.66672391 -0.088435657 -0.74003941 nan
-0.041364498 0.016574288 1.0975715 -0.83674949 0.012820612 -0.54705632 nan
-0.036909051 0.016112227 1.0916667 -0.82595295 0.014628368 -0.56306159 nan
0.059225716 0.018702857 1.0910001 0.66415894 0.0051006153 -0.74753928 nan
0.065212384 0.016011372 1.095 0.70378566 0.022583896 -0.70951807 nan
0.070062861 0.011502858 1.098 0.72939575 0.063229889 -0.68116361 nan
-0.040699288 0.025047857 1.0957501 -0.83087796 0.076284647 -0.55079901 nan
-0.035831161 0.02527429 1.0927143 -0.80608582 0.087369569 -0.58395785 nan
0.059225716 0.024937145 1.0910001 0.65522391 0.021592006 -0.75501335 nan
0.06461256 0.025010537 1.0941875 0.70763677 0.010030238 -0.70612055 nan
0.070062861 0.026142858 1.098 0.6592164 -0.024231976 -0.75119531 nan
-0.040782858 0.03137143 1.098 -0.83205247 0.085290983 -0.54808134 nan
-0.035473764 0.034425858 1.0953499 -0.80006999 0.09847261 -0.5908736 nan
0.058810096 0.035119813 1.0910001 0.62021416 0.01380941 -0.78422874 nan
0.064637721 0.034403052 1.0946001 0.68321794 -0.015802173 -0.72890073 nan
0.070062861 0.035205718 1.098 0.64198154 -0.066157177 -0.76321471 nan
-0.040782858 0.040782858 1.098 -0.82907271 0.1063497 -0.54893368 nan
-0.034414951 0.044624858 1.0947999 -0.79902977 0.10685666 -0.59053814 nan
0.058879368 0.04398635 1.0910001 0.60274071 0.013636949 -0.79755318 nan
0.064623438 0.044817906 1.0944 0.65302569 9.4749943e-05 -0.7560485 nan
0.070992388 0.044500954 1.098 0.58369112 -0.012844292 -0.80517405 nan
-0.032167077 0.054943815 1.0944287 -0.78934658 0.10489423 -0.60373396 nan
-0.028054288 0.055069525 1.0910001 -0.76789016 0.098098554 -0.63293093 nan
0.059225716 0.056108572 1.0910001 0.59284711 0.090297922 -0.79988742 nan
0.064605571 0.055224057 1.0940498 0.67092746 0.081250407 -0.73647898 nan
0.070062861 0.052285716 1.098 0.64945638 0.16338147 -0.74227339 nan
-0.032154657 0.065020442 1.0943848 -0.79827499 0.077601172 -0.59662205 nan
-0.028054288 0.065460011 1.0910001 -0.76323414 0.077516556 -0.64134997 nan
0.058000576 0.066108957 1.0914 0.58144921 0.10787576 -0.80579329 nan
0.06449569 0.065481849 1.0949999 0.64144146 0.077240475 -0.76205528 nan
-0.031764861 0.07460314 1.0971001 -0.81107712 0.11964728 -0.57141131 nan
-0.028105715 0.074952379 1.0930001 -0.75286156 0.11849844 -0.64713824 nan
0.05660041 0.074871033 1.0918572 0.61454147 0.02903663 -0.78746742 nan
0.064927563 0.074875459 1.0964118 0.60516465 0.082382351 -0.79083425 nan
0.070062861 0.072154284 1.098 0.5942207 0.0089962315 -0.80425173 nan
-0.030674286 0.084005728 1.098 -0.80981207 0.16567338 -0.56222528 nan
-0.027196404 0.084822439 1.0935557 -0.77149969 0.1646983 -0.61414164 nan
0.057550851 0.083801985 1.0925385 0.66437113 0.077294312 -0.74116379 nan
0.063361764 0.084079124 1.096154 0.65019506 0.13233677 -0.74637908 nan
-0.030325714 0.09097714 1.098 -0.81235182 0.15996252 -0.5607999 nan
-0.026359195 0.09524712 1.0934614 -0.79409772 0.14183323 -0.59094405 nan
0.057144575 0.095330231 1.0935333 0.68024558 0.15229502 -0.71686965 nan
0.062177859 0.092483573 1.09725 0.68382186 0.14424057 -0.71512216 nan
-0.02519227 0.1053441 1.0938822 -0.78308529 0.13850871 -0.60561752 nan
0.04883524 0.10806096 1.0910001 0.60493159 0.12985539 -0.78554916 nan
0.055585425 0.10549608 1.0939128 0.65379047 0.11063665 -0.74736553 nan
-0.023835514 0.11544532 1.0948572 -0.74787587 0.1657072 -0.64243615 nan
-0.018980715 0.11622215 1.092 -0.73720276 0.18763946 -0.64891529 nan
0.04883524 0.11637335 1.0910001 0.60054404 0.03753661 -0.79831636 nan
0.055036988 0.11544254 1.0936666 0.62876558 0.046274345 -0.77595842 nan
0.061697148 0.11189143 1.098 0.63146406 0.017828597 -0.77520013 nan
-0.024015002 0.12458929 1.0962501 -0.74368739 0.17979054 -0.64340973 nan
-0.017387619 0.12570696 1.0921429 -0.73138183 0.16731729 -0.66037154 nan
0.04883524 0.12641747 1.0910001 0.63840067 0.11882805 -0.75800985 nan
0.054944336 0.12512115 1.0939999 0.63894391 0.13999628 -0.75509506 nan
-0.022308571 0.13420001 1.098 -0.75560093 0.17811069 -0.63007408 nan
-0.017272318 0.13461658 1.0923334 -0.74974114 0.15637206 -0.64213139 nan
0.046978623 0.13545102 1.0917273 0.63986963 0.23098758 -0.73285425 nan
0.053593021 0.13432446 1.0961668 0.6445756 0.2213344 -0.73154634 nan
-0.02196 0.14221716 1.098 -0.7651459 0.16829632 -0.62147105 nan
-0.051566668 -0.062090475 1.105 nan nan nan nan
-0.047273334 -0.063028574 1.103 nan nan nan nan
0.06507048 -0.061921902 1.102 nan nan nan nan
-0.051566668 -0.059985716 1.105 nan nan nan nan
-0.047192115 -0.056054428 1.1045716 nan nan nan nan
0.065947972 -0.055829164 1.1035 nan nan nan nan
0.073565915 -0.053116191 1.1066 nan nan nan nan
-0.046552211 -0.044827361 1.1040001 -0.88968611 0.0043508569 -0.45571923 nan
0.066217907 -0.045194671 1.1036001 0.59871089 -0.071905591 -0.78477377 nan
0.074752435 -0.045271125 1.1054797 nan nan nan nan
0.081033334 -0.048409525 1.105 nan nan nan nan
-0.047104288 -0.034863692 1.105125 -0.86983556 -0.067951515 -0.4860639 nan
0.067093544 -0.035823915 1.1026667 0.62539941 -0.14088002 -0.76476181 nan
0.074756198 -0.03474728 1.1055198 nan nan nan nan
-0.051753335 -0.02218 1.1090001 -0.89832532 0.081279933 -0.43174666 nan
-0.047526453 -0.024854213 1.1050771 -0.86827654 -0.0071811075 -0.48865336 nan
0.067836381 -0.025833715 1.1026 0.62778032 0.0019457255 -0.77663249 nan
0.075031705 -0.02478537 1.1053634 nan nan nan nan
0.083396606 -0.023523265 1.1084288 nan nan nan nan
-0.046042688 -0.015408745 1.1055456 -0.85023975 0.13648345 -0.50540382 nan
0.067431897 -0.016005239 1.1020001 0.61735821 -0.054427858 -0.78294683 nan
0.074542582 -0.015438222 1.1063911 nan nan nan nan
0.084495246 -0.017955238 1.1090001 nan nan nan nan
-0.044659145 -0.0059002857 1.1059 -0.83059579 0.080179349 -0.54903752 nan
0.068219051 -0.0073466669 1.102 0.64635819 -0.15587828 -0.74672318 nan
0.074752048 -0.0052650291 1.1053997 nan nan nan nan
0.082382858 -0.0095057152 1.1090001 nan nan nan nan
-0.045100316 0.0050869845 1.1055002 -0.85379887 0.0010638456 -0.51868731 nan
0.074833386 0.0053441669 1.1040416 nan nan nan nan
0.083192997 0.0060428572 1.1082728 nan nan nan nan
-0.045092575 0.014538476 1.1062001 -0.87324303 0.024895789 -0.48452321 nan
0.074854344 0.015952187 1.1043748 0.42186937 0.020403428 -0.87070882 nan
0.083188899 0.014744127 1.1056668 nan nan nan nan
-0.044554181 0.025372803 1.1050001 -0.86314386 0.067130953 -0.49919838 nan
0.075481288 0.025080055 1.1052352 0.52828526 0.096114278 -0.81409824 nan
0.08391884 0.024163421 1.1087648 nan nan nan nan
-0.043991625 0.034726098 1.1049334 -0.85194695 0.086179398 -0.5156557 nan
0.07528127 0.034623947 1.1047726 0.55623114 -0.15034679 -0.79699785 nan
0.084465526 0.034841716 1.1086 nan nan nan nan
-0.042441145 0.045168955 1.103 -0.83657724 0.079432957 -0.54156554 nan
-0.037433013 0.048627935 1.102 -0.80452275 0.10153529 -0.58508849 nan
0.076458573 0.045455117 1.1034999 0.54585361 0.037300043 -0.80794621 nan
0.083778098 0.044957593 1.1068822 nan nan nan nan
-0.042072956 0.055747617 1.1043999 -0.82761192 0.092802063 -0.55315197 nan
-0.037505712 0.056021214 1.102273 -0.80259562 0.095158137 -0.58875865 nan
0.074873291 0.055494338 1.1056499 0.56001902 0.26778054 -0.76166558 nan
0.084476918 0.05491025 1.1087501 nan nan nan nan
-0.041796513 0.064622223 1.1063335 -0.82485306 0.098162472 -0.55644226 nan
-0.037782855 0.065070473 1.1020001 -0.80937225 0.094680034 -0.57937211 nan
0.075118154 0.064660832 1.1067389 0.5629499 -0.084220134 -0.79605657 nan
0.084284008 0.065695055 1.1090002 nan nan nan nan
-0.041710071 0.073927492 1.1067145 -0.8135882 0.14326678 -0.56296718 nan
-0.036912244 0.074575782 1.1028572 -0.81573689 0.14282317 -0.55996007 nan
0.074824929 0.07473287 1.1039165 0.46779513 -0.0435225 -0.85648048 nan
0.084808409 0.074746691 1.106818 nan nan nan nan
-0.041141909 0.083341286 1.1076669 -0.80336159 0.17299156 -0.56975412 nan
-0.035940006 0.085442357 1.1046841 -0.82103717 0.16491695 -0.54630202 nan
0.067672379 0.085979596 1.1028572 0.60244036 0.20222768 -0.77163386 nan
0.074821725 0.085361145 1.1064798 0.31578857 0.31488964 -0.86248189 nan
0.084489085 0.086154342 1.1081579 nan nan nan nan
-0.033879049 0.095052488 1.105353 -0.82568538 0.13953239 -0.5462535 nan
0.065829456 0.09630958 1.1036875 0.6411491 0.14691931 -0.75148314 nan
0.074228972 0.094851255 1.1087648 0.42843994 0.13586625 -0.87618089 nan
0.08386153 0.092733532 1.1090001 nan nan nan nan
-0.032808572 0.10489049 1.1056155 -0.83116543 0.10344423 -0.54538971 nan
0.065161906 0.10509522 1.1035 0.62724334 0.036532629 -0.77542722 nan
0.074989542 0.10456285 1.1089997 0.31330806 -0.066355243 -0.92811102 nan
0.08486174 0.10710867 1.1075455 nan nan nan nan
-0.03267359 0.11487511 1.1066002 -0.82383358 0.099420004 -0.55693001 nan
-0.028337141 0.1143981 1.1020001 -0.76326835 0.13655385 -0.63120031 nan
0.065322965 0.11465639 1.103421 0.61209655 0.033474892 -0.78857255 nan
0.074948706 0.11505769 1.1083598 0.25017923 0.096555762 -0.91954023 nan
0.0853898 0.11471044 1.1069046 nan nan nan nan
-0.031943638 0.12518103 1.1079092 -0.79513329 0.20985277 -0.56717968 nan
-0.028038731 0.12582159 1.1040001 -0.76299214 0.20856404 -0.61120594 nan
0.059822857 0.12909143 1.102 0.63384068 0.19175977 -0.7493158 nan
0.065224528 0.12518568 1.1045499 0.63639241 0.19407018 -0.74412608 nan
0.071789056 0.12431168 1.1085001 0.5475198 0.27203643 -0.78859639 nan
0.087663814 0.12146191 1.1090001 nan nan nan nan
-0.03115762 0.1336081 1.1090001 -0.8033731 0.23726141 -0.54562873 nan
-0.026121646 0.13518208 1.1050001 -0.79512036 0.19061579 -0.57524264 nan
0.05814987 0.13663559 1.1028184 0.6389333 0.23202603 -0.73331124 nan
0.064744197 0.13503499 1.1071334 0.62347424 0.24017845 -0.74338013 nan
0.07921429 0.13836096 1.1090001 -0.65411347 -0.59072953 -0.47241315 nan
0.08419048 0.13786191 1.1049999 nan nan nan nan
-0.052477147 -0.055876005 1.1154002 nan nan nan nan
-0.049819998 -0.051940002 1.113 -0.902143 0.11021041 -0.41712314 nan
-0.052080002 -0.045702856 1.1160001 -0.90845776 0.034806784 -0.41291785 nan
-0.049819998 -0.046640001 1.113 -0.903593 0.02448581 -0.42537808 nan
-0.052410956 -0.034351908 1.1155001 -0.90285146 -0.081361406 -0.42162925 nan
-0.053198732 -0.024652066 1.1146667 -0.91348678 0.006304943 -0.39863941 nan
-0.052477147 -0.015508001 1.1154001 -0.89621037 0.1168735 -0.42422843 nan
-0.049819998 -0.01484 1.113 -0.88156354 0.14813024 -0.44746405 nan
0.083475009 -0.014045 1.113 nan nan nan nan
-0.052080002 -0.0053142863 1.1160001 -0.87888759 0.030433906 -0.47510859 nan
-0.048922546 -0.0048317458 1.114 -0.87297136 0.019738942 -0.4862372 nan
0.083547272 -0.0039509092 1.113 nan nan nan nan
-0.052080002 0.0053142859 1.1160001 -0.90276843 0.052990999 -0.42638665 nan
-0.049214289 0.0062085721 1.113 -0.90145278 0.035774633 -0.43115845 nan
0.083740011 0.00106 1.1130002 nan nan nan nan
-0.052080002 0.01169143 1.1160001 -0.90377146 0.063863829 -0.42322397 nan
-0.049202859 0.015573333 1.1150001 -0.90694606 0.026085084 -0.42012784 nan
-0.04895239 0.024180952 1.1146667 -0.90054607 0.028867133 -0.43233424 nan
-0.048988167 0.03594245 1.1147144 -0.89572924 0.070324391 -0.43837014 nan
-0.047780883 0.045818683 1.1148462 -0.88516134 0.046980731 -0.46015626 nan
-0.0470654 0.055084448 1.1146666 -0.87769413 0.075293265 -0.47219971 nan
-0.04584286 0.064729147 1.1142 -0.85287708 0.09500397 -0.51096743 nan
0.085436009 0.060844004 1.113 nan nan nan nan
-0.044427425 0.07546287 1.1160001 -0.81368273 0.14915203 -0.56163859 nan
-0.042831432 0.084595248 1.1150001 -0.80338711 0.17996888 -0.56751269 nan
-0.041429143 0.094545722 1.1154001 -0.81900853 0.15780494 -0.5513795 nan
-0.03816 0.097520009 1.113 -0.82849205 0.13189453 -0.5440802 nan
0.079500005 0.096460007 1.1130002 0.36214358 0.1483039 -0.90459776 nan
0.084799998 0.096883997 1.113 nan nan nan nan
0.091159999 0.098580003 1.113 nan nan nan nan
-0.041451432 0.10522287 1.1160001 -0.83631432 0.10510915 -0.53757906 nan
-0.038160004 0.10494 1.113 -0.83155489 0.10455563 -0.54491442 nan
0.084446661 0.10211334 1.113 nan nan nan nan
0.091159999 0.1007 1.113 nan nan nan nan
-0.041451432 0.1116 1.1160001 -0.84732324 0.05488877 -0.52823341 nan
-0.038170576 0.11557114 1.1133001 -0.83097392 0.084169351 -0.5494296 nan
0.08162 0.11872001 1.113 0.10518018 0.46649674 -0.83121878 nan
-0.037161715 0.12528227 1.1148001 -0.81661934 0.19465196 -0.54291266 nan
0.076939784 0.12572967 1.1136923 nan nan nan nan
0.083852872 0.12312716 1.1145002 nan nan nan nan
-0.033505309 0.13538206 1.1142858 -0.81067055 0.24539372 -0.53116834 nan
-0.028620001 0.13886 1.113 -0.81470311 0.20589513 -0.54209417 nan
0.068900004 0.13780001 1.113 0.53954041 0.21121871 -0.81496155 nan
0.075180531 0.13491377 1.1146365 nan nan nan nan
0.081840008 0.13285714 1.1160001 nan nan nan nan
-0.056019522 -0.054092098 1.1225001 nan nan nan nan
-0.055716194 -0.045000002 1.1250001 -0.8960591 0.046847664 -0.43715149 nan
-0.055752173 -0.035784554 1.1233333 -0.9039079 -0.084796943 -0.41733184 nan
-0.056533333 -0.024533333 1.12 -0.93684876 0.032131143 -0.33539483 nan
-0.055517145 -0.014946667 1.1210001 -0.90220618 0.062650494 -0.424463 nan
-0.05554238 -0.0053404761 1.1215 -0.88156289 0.030188361 -0.46522364 nan
-0.055562567 0.0053439047 1.1219 -0.90153468 0.097591721 -0.42095479 nan
-0.053929046 0.015484525 1.12125 -0.90838289 0.030884922 -0.41654417 nan
-0.053709351 0.024572209 1.1217272 -0.90621746 0.012134142 -0.42154774 nan
-0.053230222 0.035325285 1.1239091 -0.90153044 0.071009487 -0.42647284 nan
-0.052962501 0.045469169 1.1233749 -0.90863627 0.034955695 -0.41561228 nan
-0.052537065 0.054493096 1.1219168 -0.90867299 0.060560029 -0.41261244 nan
-0.051315527 0.065215148 1.1225001 -0.9049136 0.066770248 -0.41873336 nan
-0.048 0.068266667 1.12 -0.8925041 0.06551639 -0.4462415 nan
-0.052548584 0.075067632 1.126 -0.8923558 0.072425991 -0.44291449 nan
-0.047288891 0.075377777 1.12 -0.86819285 0.11314417 -0.48204082 nan
-0.050446671 0.082646668 1.1270001 -0.88456118 0.14908496 -0.44157133 nan
-0.046488337 0.084959447 1.1220834 -0.84347689 0.17228585 -0.50700033 nan
-0.045996193 0.095194288 1.1230668 -0.84476972 0.15948996 -0.50941241 nan
-0.045372698 0.10467556 1.1253333 -0.85700893 0.11559311 -0.50174892 nan
-0.043442965 0.11508148 1.1246667 -0.86238217 0.075353228 -0.49996614 nan
-0.043322619 0.12460881 1.1230834 -0.85627526 0.16935807 -0.48596615 nan
-0.039466664 0.12906668 1.12 -0.81678623 0.22716846 -0.53033459 nan
0.084266663 0.12800002 1.12 nan nan nan nan
-0.041711427 0.13155143 1.123 -0.82964617 0.24479605 -0.50175899 nan
-0.037631743 0.13568382 1.1217778 -0.80591267 0.24702211 -0.53770202 nan
0.083488733 0.13521825 1.1238334 nan nan nan nan
-0.063168168 -0.052662589 1.1351428 nan nan nan nan
-0.059321433 -0.051770002 1.1325001 nan nan nan nan
-0.063366659 -0.044950165 1.1373334 nan nan nan nan
-0.059400003 -0.045360006 1.1340001 -0.83944213 0.084751435 -0.53088117 nan
-0.062210668 -0.035332192 1.138 -0.87497407 0.069993235 -0.45714983 nan
-0.059368577 -0.035623427 1.1334 -0.89215022 -0.063910715 -0.4382998 nan
-0.062029846 -0.025606349 1.136 nan nan nan nan
-0.059373811 -0.025360953 1.1335001 -0.91206133 0.011362024 -0.37446406 nan
-0.062891707 -0.014059049 1.1357143 nan nan nan nan
-0.058979627 -0.01447562 1.1342 -0.88061935 -0.045999337 -0.4396556 nan
-0.063182853 -0.0067055249 1.136 nan nan nan nan
-0.059305716 -0.0053880005 1.1322001 -0.88949269 0.06358096 -0.42188072 nan
-0.059609525 0.0010838095 1.138 -0.90224898 0.1906835 -0.38676426 nan
-0.057088576 0.014720954 1.131 -0.90780175 0.053038687 -0.41263029 nan
-0.061777141 0.02276 1.138 -0.88653445 -0.15881856 -0.43454963 nan
-0.058489103 0.024859469 1.134889 -0.90858513 -0.019411027 -0.41143811 nan
-0.05809072 0.034852859 1.13475 -0.88888538 0.074127428 -0.45133793 nan
-0.057587627 0.043996055 1.1347145 -0.8981536 0.090508826 -0.42492172 nan
-0.05688937 0.055808734 1.1341667 -0.91684484 0.071313888 -0.39100775 nan
-0.056188099 0.064828575 1.1345 -0.91625929 0.030542575 -0.39443177 nan
-0.05685572 0.073769055 1.1335001 -0.9047491 -0.011810589 -0.41542074 nan
-0.054316193 0.08548636 1.1330001 -0.8738389 0.15020195 -0.46201649 nan
-0.052894466 0.094298802 1.1333637 -0.86852539 0.16820909 -0.4654479 nan
-0.05190124 0.10488278 1.1353 -0.8729254 0.12618074 -0.4705486 nan
-0.048471432 0.10663715 1.131 -0.88465422 0.11225095 -0.45227537 nan
-0.051430479 0.11474749 1.1351429 -0.8782593 0.096369885 -0.46796712 nan
-0.047542538 0.11556223 1.1316668 -0.88337612 0.090848424 -0.45922846 nan
-0.051300954 0.12446439 1.1364001 -0.87900919 0.1460977 -0.45325515 nan
-0.04779619 0.12577906 1.1320001 -0.87572491 0.17137259 -0.45061886 nan
-0.045207348 0.13531144 1.1340001 -0.85072523 0.21210185 -0.48011771 nan
-0.039854284 0.13464285 1.131 -0.80682611 0.26741591 -0.52680194 nan
-0.067552388 -0.042491429 1.1440001 nan nan nan nan
-0.065131046 -0.034632001 1.1436001 -0.83152246 0.19519088 -0.50822675 nan
-0.064696006 -0.02330705 1.1436001 nan nan nan nan
-0.05981905 -0.022840003 1.1420001 nan nan nan nan
-0.065474674 -0.016749335 1.1420001 nan nan nan nan
-0.066512927 -0.0032721092 1.1448572 nan nan nan nan
-0.063973784 0.0049490118 1.1444616 nan nan nan nan
-0.05981905 0.0065257149 1.1420001 -0.91127628 0.11262698 -0.39474002 nan
-0.063396737 0.014175512 1.1448572 -0.80499059 0.049202371 -0.57232076 nan
-0.05981905 0.015226668 1.1420001 -0.91957349 0.020433266 -0.3888025 nan
-0.063870862 0.026376763 1.1444 nan nan nan nan
-0.063870862 0.035095241 1.1444 nan nan nan nan
-0.05981905 0.038066667 1.1420001 -0.88130927 0.032751255 -0.47140354 nan
-0.062604569 0.043846473 1.1452001 nan nan nan nan
-0.05981905 0.04894286 1.1420001 -0.8934238 0.10988698 -0.43556723 nan
-0.060465146 0.053916574 1.146 -0.89352959 0.087892979 -0.43459675 nan
-0.060028575 0.062211424 1.1460001 -0.90222609 0.068683676 -0.42518705 nan
-0.060465146 0.073562287 1.146 nan nan nan nan
-0.060028572 0.082948573 1.146 -0.89425242 0.14924815 -0.42163602 nan
-0.056657143 0.096965715 1.1440001 -0.86254025 0.21929607 -0.45512301 nan
-0.05546857 0.10549905 1.1420001 -0.87732095 0.094521128 -0.47007108 nan
-0.054808259 0.11614986 1.1433334 -0.87706685 0.11459963 -0.46593052 nan
-0.054145403 0.12500572 1.1446667 -0.87574434 0.16628933 -0.45189786 nan
-0.051965084 0.13445461 1.1446667 -0.8617608 0.194879 -0.46787721 nan
-0.04894286 0.13704002 1.1420001 -0.85351682 0.18877973 -0.48560029 nan
-0.071190491 -0.04271429 1.1500001 nan nan nan nan
-0.07251393 -0.035156071 1.153625 nan nan nan nan
-0.068299852 -0.034696352 1.1505001 nan nan nan nan
-0.07162381 -0.029751431 1.1570001 nan nan nan nan
-0.067994773 -0.027416667 1.1515 nan nan nan nan
-0.069000006 -0.0010952381 1.1500001 nan nan nan nan
-0.071301915 0.0054836194 1.1518 nan nan nan nan
-0.068374157 0.0064149667 1.1500002 nan nan nan nan
-0.072474293 0.015373332 1.153 nan nan nan nan
-0.067376301 0.016202966 1.1513333 nan nan nan nan
-0.07137619 0.020863809 1.153 nan nan nan nan
-0.067843072 0.023993546 1.1509999 nan nan nan nan
-0.068299852 0.034696352 1.1505001 nan nan nan nan
-0.07162381 0.046280004 1.1570001 nan nan nan nan
-0.067073084 0.046143204 1.1510909 nan nan nan nan
-0.065582797 0.054778535 1.152077 nan nan nan nan
-0.07162381 0.066114292 1.1570001 nan nan nan nan
-0.064733587 0.065189138 1.1519473 nan nan nan nan
-0.072285719 0.079952382 1.1500001 nan nan nan nan
-0.065349214 0.07527937 1.15 nan nan nan nan
-0.07289505 0.084348768 1.1562001 nan nan nan nan
-0.064863123 0.084281236 1.1542777 nan nan nan nan
-0.062453885 0.095243961 1.1532856 nan nan nan nan
-0.058047622 0.099666677 1.1500001 -0.84957713 0.20664823 -0.48529911 nan
-0.063202575 0.10465445 1.1548461 nan nan nan nan
-0.058047622 0.10514286 1.1500001 -0.85604507 0.099927112 -0.50680697 nan
-0.06130445 0.1137981 1.1563334 nan nan nan nan
-0.058199048 0.1142019 1.153 -0.87323451 0.14665385 -0.46435523 nan
-0.060604762 0.12120952 1.1570001 -0.72005594 0.23383252 -0.65226507 nan
-0.057383429 0.12420592 1.1542001 -0.87486333 0.17029691 -0.45318338 nan
-0.055349261 0.13594328 1.1524286 -0.86173934 0.15724681 -0.48125303 nan
-0.074167937 -0.043174922 1.1623334 nan nan nan nan
-0.074255563 0.056520954 1.1636667 nan nan nan nan
-0.069660001 0.057497144 1.161 nan nan nan nan
-0.073249333 0.062625334 1.1618 nan nan nan nan
-0.069660001 0.061919998 1.161 nan nan nan nan
-0.071995243 0.088611431 1.1630001 nan nan nan nan
-0.068554282 0.088457145 1.161 nan nan nan nan
-0.07211905 0.09209048 1.1650001 nan nan nan nan
-0.068499185 0.094756335 1.1627144 nan nan nan nan
-0.067724995 0.10587215 1.1610001 nan nan nan nan
-0.066616483 0.11562104 1.1613079 nan nan nan nan
-0.065732218 0.12544271 1.1629133 nan nan nan nan
-0.058602858 0.12826285 1.161 -0.87074858 0.17779706 -0.45834398 nan
-0.064680055 0.13516702 1.1650001 nan nan nan nan
-0.058602858 0.13489714 1.161 -0.84452504 0.16935031 -0.50633031 nan
