# .PCD v0.7 - Point Cloud Data file format
VERSION 0.7
FIELDS x y z normal_x normal_y normal_z curvature
SIZE 4 4 4 4 4 4 4
TYPE F F F F F F F
COUNT 1 1 1 1 1 1 1
WIDTH 713
HEIGHT 1
VIEWPOINT 0 0 0 1 0 0 0
POINTS 713
DATA ascii
0.29288575 0.070062861 1.2060001 nan nan nan nan
0.19117524 0.072119996 1.202 nan nan nan nan
0.19346476 0.072119996 1.202 nan nan nan nan
0.19575429 0.072119996 1.202 nan nan nan nan
0.19722001 0.071820006 1.197 -0.89864004 0 -0.43868673 nan
0.19883335 0.07158 1.1930001 -0.85520822 -0.18705916 -0.48335052 nan
0.20110573 0.07158 1.1930001 -0.76781976 -0.2430055 -0.59279102 nan
0.2026962 0.071339995 1.189 -0.60487556 -0.30252957 -0.73661482 nan
0.20496096 0.071339995 1.189 -0.55924571 -0.32272795 -0.76360387 nan
0.20722571 0.071339995 1.189 -0.41185978 -0.29172823 -0.86328799 nan
0.20878571 0.071100004 1.1850001 -0.4310084 -0.29037836 -0.85434896 nan
0.21104287 0.071100004 1.1850001 -0.40496793 -0.20219612 -0.89169371 nan
0.2133 0.071100004 1.1850001 -0.45153737 -0.22015475 -0.86466521 nan
0.21555714 0.071100004 1.1850001 -0.47223115 -0.21903159 -0.85382837 nan
0.2178143 0.071100004 1.1850001 -0.48150223 -0.20256403 -0.85271531 nan
0.22007143 0.071100004 1.1850001 -0.46128613 -0.19633338 -0.86525619 nan
0.22157812 0.070860006 1.1810001 -0.49097532 -0.19459787 -0.84916133 nan
0.22382765 0.070860006 1.1810001 -0.53280026 -0.19146155 -0.82429749 nan
0.22607717 0.070860006 1.1810001 -0.51255548 -0.20170325 -0.83462727 nan
0.22755334 0.07062 1.177 -0.51126105 -0.22634174 -0.82908475 nan
0.22979523 0.07062 1.177 -0.52304059 -0.24921247 -0.8150593 nan
0.23124859 0.07038001 1.1730001 -0.50932896 -0.25907969 -0.82064712 nan
0.23348287 0.07038001 1.1730001 -0.51621622 -0.26654768 -0.81392449 nan
0.23571716 0.07038001 1.1730001 -0.51111108 -0.25989908 -0.8192789 nan
0.23795144 0.07038001 1.1730001 -0.45342934 -0.27392179 -0.84815603 nan
0.24018574 0.07038001 1.1730001 -0.40009853 -0.27851266 -0.87312764 nan
0.24159333 0.070140004 1.169 -0.33526242 -0.28255653 -0.89875519 nan
0.24382001 0.070140004 1.169 -0.29249534 -0.2927489 -0.91035408 nan
0.24604666 0.070140004 1.169 -0.27537215 -0.29360637 -0.91540456 nan
0.24827334 0.070140004 1.169 -0.20545678 -0.28654158 -0.9357785 nan
0.25049999 0.070140004 1.169 -0.088926941 -0.27661547 -0.95685726 nan
0.25272667 0.070140004 1.169 0.14322822 -0.25380379 -0.95659256 nan
0.25495335 0.070140004 1.169 0.45251727 -0.21713288 -0.86491704 nan
0.25718001 0.070140004 1.169 0.62819254 -0.18079185 -0.75676179 nan
0.25940669 0.070140004 1.169 0.69142991 -0.15598591 -0.70540279 nan
0.26163334 0.070140004 1.169 0.75554675 -0.12981552 -0.64210361 nan
0.2665686 0.070860006 1.1810001 0.78364444 -0.083489493 -0.61557359 nan
0.27063903 0.071339995 1.189 0.83032459 -0.041791644 -0.55571079 nan
0.27474001 0.071820006 1.197 0.84887028 -0.035009965 -0.52744061 nan
0.27702001 0.071820006 1.197 0.80637354 -0.042601071 -0.58987021 nan
0.28046665 0.072119996 1.202 0.72928858 0.028302548 -0.68362063 nan
0.28369716 0.072360002 1.2060001 0.61200714 0 -0.79085225 nan
0.28599432 0.072360002 1.2060001 0.36752841 0 -0.93001229 nan
0.28829145 0.072360002 1.2060001 nan nan nan nan
0.29058859 0.072360002 1.2060001 nan nan nan nan
0.29288575 0.072360002 1.2060001 nan nan nan nan
0.19117524 0.07440953 1.202 nan nan nan nan
0.19346476 0.07440953 1.202 nan nan nan nan
0.19575429 0.07440953 1.202 nan nan nan nan
0.19722001 0.074100003 1.197 -0.89864004 0 -0.43868673 nan
0.19883335 0.073852383 1.1930001 -0.8810823 -0.11991793 -0.45750809 nan
0.20043144 0.073604763 1.189 -0.81401259 -0.15540846 -0.5596711 nan
0.2026962 0.073604763 1.189 -0.63829994 -0.21285743 -0.73977357 nan
0.20496096 0.073604763 1.189 -0.58487022 -0.26005226 -0.76830959 nan
0.20722571 0.073604763 1.189 -0.40118945 -0.24426436 -0.88282615 nan
0.20878571 0.073357143 1.1850001 -0.4019956 -0.22773525 -0.88686877 nan
0.21104287 0.073357143 1.1850001 -0.38653231 -0.19303152 -0.90184897 nan
0.2133 0.073357143 1.1850001 -0.43648657 -0.20510022 -0.87602133 nan
0.21555714 0.073357143 1.1850001 -0.46728319 -0.19522437 -0.86228412 nan
0.2178143 0.073357143 1.1850001 -0.46863824 -0.18736324 -0.8632921 nan
0.22007143 0.073357143 1.1850001 -0.45529246 -0.18037686 -0.87187898 nan
0.22157812 0.07310953 1.1810001 -0.49238902 -0.17826769 -0.85192353 nan
0.22382765 0.07310953 1.1810001 -0.53426957 -0.17539687 -0.82691717 nan
0.22531144 0.07286191 1.177 -0.52771199 -0.18447775 -0.82914901 nan
0.22755334 0.07286191 1.177 -0.53922337 -0.21586543 -0.81402719 nan
0.22979523 0.07286191 1.177 -0.54409307 -0.23933038 -0.80416644 nan
0.23124859 0.07261429 1.1730001 -0.52335018 -0.2578215 -0.81217772 nan
0.23348287 0.07261429 1.1730001 -0.51663411 -0.26691058 -0.8135404 nan
0.23571716 0.07261429 1.1730001 -0.50364637 -0.26892033 -0.82098854 nan
0.23795144 0.07261429 1.1730001 -0.46120265 -0.27368137 -0.84403235 nan
0.23936667 0.07236667 1.169 -0.41535679 -0.28599352 -0.86353141 nan
0.24159333 0.07236667 1.169 -0.35005689 -0.3067404 -0.88508219 nan
0.24382001 0.07236667 1.169 -0.30719987 -0.32522416 -0.89434755 nan
0.24604666 0.07236667 1.169 -0.28114787 -0.33453381 -0.89946818 nan
0.24827334 0.07236667 1.169 -0.19412148 -0.33624807 -0.92154986 nan
0.25049999 0.07236667 1.169 -0.070125885 -0.32573116 -0.94285822 nan
0.25272667 0.07236667 1.169 0.15784627 -0.29215038 -0.94325644 nan
0.25408095 0.07211905 1.1650001 0.44676566 -0.23204626 -0.86403412 nan
0.25718001 0.07236667 1.169 0.62174779 -0.19391885 -0.75883144 nan
0.25940669 0.07236667 1.169 0.68738925 -0.17690457 -0.7044152 nan
0.26163334 0.07236667 1.169 0.75134414 -0.15589711 -0.64123166 nan
0.2665686 0.07310953 1.1810001 0.78233451 -0.10699915 -0.61359912 nan
0.27063903 0.073604763 1.189 0.83088112 -0.081428066 -0.55045986 nan
0.27474001 0.074100003 1.197 0.84749651 -0.033474158 -0.52974439 nan
0.27702001 0.074100003 1.197 0.80485898 -0.099732801 -0.58502597 nan
0.28046665 0.07440953 1.202 0.70164669 -0.096165128 -0.70600581 nan
0.28369716 0.07465715 1.2060001 0.64149284 -0.067538276 -0.7641502 nan
0.28599432 0.07465715 1.2060001 0.261022 -0.17395064 -0.94953078 nan
0.28829145 0.07465715 1.2060001 nan nan nan nan
0.29058859 0.07465715 1.2060001 nan nan nan nan
0.29288575 0.07465715 1.2060001 nan nan nan nan
0.19117524 0.076699048 1.202 nan nan nan nan
0.19346476 0.076699048 1.202 nan nan nan nan
0.19575429 0.076699048 1.202 nan nan nan nan
0.19722001 0.076380007 1.197 -0.90915507 -0.068629101 -0.41076404 nan
0.19883335 0.076124765 1.1930001 -0.86879587 -0.11307537 -0.48208678 nan
0.20043144 0.075869523 1.189 -0.76391143 -0.054642715 -0.64300352 nan
0.2026962 0.075869523 1.189 -0.7407648 -0.13585772 -0.65788311 nan
0.20496096 0.075869523 1.189 -0.54670185 -0.19904427 -0.81332558 nan
0.20652857 0.075614288 1.1850001 -0.50347149 -0.21965025 -0.83562565 nan
0.20878571 0.075614288 1.1850001 -0.39511433 -0.20292112 -0.89593953 nan
0.21104287 0.075614288 1.1850001 -0.39599758 -0.20316385 -0.89549446 nan
0.2133 0.075614288 1.1850001 -0.42876846 -0.21415849 -0.87766379 nan
0.21555714 0.075614288 1.1850001 -0.4585878 -0.22068954 -0.86080974 nan
0.2178143 0.075614288 1.1850001 -0.46666941 -0.22056755 -0.8564868 nan
0.2193286 0.075359054 1.1810001 -0.45212266 -0.23029034 -0.86171424 nan
0.22157812 0.075359054 1.1810001 -0.48893443 -0.22759178 -0.84210753 nan
0.22306953 0.075103812 1.177 -0.53725499 -0.22321187 -0.8133471 nan
0.22531144 0.075103812 1.177 -0.54289681 -0.23872057 -0.80515558 nan
0.22755334 0.075103812 1.177 -0.55482203 -0.25302655 -0.79255921 nan
0.22979523 0.075103812 1.177 -0.55368686 -0.26888284 -0.78811985 nan
0.23124859 0.074848577 1.1730001 -0.52662402 -0.28817284 -0.79976469 nan
0.23348287 0.074848577 1.1730001 -0.52092642 -0.28951403 -0.80300516 nan
0.23571716 0.074848577 1.1730001 -0.50811428 -0.29175827 -0.81036842 nan
0.23714 0.074593335 1.169 -0.45894665 -0.29777926 -0.83707553 nan
0.23936667 0.074593335 1.169 -0.42089093 -0.3097226 -0.85259765 nan
0.24159333 0.074593335 1.169 -0.36430401 -0.33009261 -0.87081653 nan
0.24298574 0.074338101 1.1650001 -0.31369558 -0.34899911 -0.88305986 nan
0.24520479 0.074338101 1.1650001 -0.28011766 -0.3507489 -0.89359349 nan
0.24742381 0.074338101 1.1650001 -0.19292034 -0.36035645 -0.91264725 nan
0.24964288 0.074338101 1.1650001 -0.060726698 -0.35728189 -0.93202031 nan
0.25186193 0.074338101 1.1650001 0.17215669 -0.32118925 -0.93123549 nan
0.25408095 0.074338101 1.1650001 0.45456186 -0.25671035 -0.85292047 nan
0.2563 0.074338101 1.1650001 0.6221174 -0.19417866 -0.75846201 nan
0.25940669 0.074593335 1.169 0.68345499 -0.17377004 -0.70900863 nan
0.26163334 0.074593335 1.169 0.72435355 -0.1592399 -0.67078656 nan
0.26566571 0.075103812 1.177 0.78409427 -0.15062082 -0.60208768 nan
0.2697286 0.075614288 1.1850001 0.80823374 -0.13568646 -0.57301611 nan
0.27382192 0.076124765 1.1930001 0.82597196 -0.1668347 -0.53845751 nan
0.27702001 0.076380007 1.197 0.83270681 -0.13433921 -0.53717065 nan
0.28046665 0.076699048 1.202 0.71087623 -0.17548288 -0.68107319 nan
0.28369716 0.076954298 1.2060001 0.6716103 -0.063907363 -0.73814321 nan
0.28599432 0.076954298 1.2060001 0.18124427 -0.1810105 -0.9666363 nan
0.28829145 0.076954298 1.2060001 0 -0.21562897 -0.97647536 nan
0.29058859 0.076954298 1.2060001 nan nan nan nan
0.29288575 0.076954298 1.2060001 nan nan nan nan
0.29518288 0.076954298 1.2060001 nan nan nan nan
0.18888572 0.078988574 1.202 nan nan nan nan
0.19117524 0.078988574 1.202 nan nan nan nan
0.19346476 0.078988574 1.202 nan nan nan nan
0.19575429 0.078988574 1.202 -0.50498408 -0.25242671 -0.82539195 nan
0.19722001 0.078660004 1.197 -0.88617152 -0.14479372 -0.44015315 nan
0.19883335 0.078397147 1.1930001 -0.86557066 -0.12223746 -0.48563915 nan
0.20043144 0.078134283 1.189 -0.76069993 -0.054998823 -0.64676946 nan
0.2026962 0.078134283 1.189 -0.75081086 -0.096567772 -0.65342003 nan
0.20496096 0.078134283 1.189 -0.57631004 -0.13197218 -0.80650485 nan
0.20652857 0.077871434 1.1850001 -0.50571579 -0.19477268 -0.84042561 nan
0.20878571 0.077871434 1.1850001 -0.39599535 -0.19269268 -0.89780688 nan
0.21104287 0.077871434 1.1850001 -0.4442727 -0.1964826 -0.8740803 nan
0.2133 0.077871434 1.1850001 -0.45217752 -0.20455755 -0.86815417 nan
0.21555714 0.077871434 1.1850001 -0.4728404 -0.22785179 -0.85117888 nan
0.2178143 0.077871434 1.1850001 -0.47361296 -0.22831143 -0.85062605 nan
0.2193286 0.077608578 1.1810001 -0.45913038 -0.23798013 -0.85589999 nan
0.22157812 0.077608578 1.1810001 -0.48852432 -0.23577841 -0.84009081 nan
0.22306953 0.077345721 1.177 -0.5441491 -0.22255707 -0.80893147 nan
0.22531144 0.077345721 1.177 -0.55054301 -0.23013833 -0.80245793 nan
0.22755334 0.077345721 1.177 -0.56411231 -0.22891097 -0.79333293 nan
0.22979523 0.077345721 1.177 -0.5694856 -0.24414399 -0.78490758 nan
0.23124859 0.077082857 1.1730001 -0.53756964 -0.256484 -0.80326509 nan
0.23348287 0.077082857 1.1730001 -0.51764131 -0.26718253 -0.81281054 nan
0.23571716 0.077082857 1.1730001 -0.50554991 -0.26136148 -0.82225877 nan
0.23714 0.076820001 1.169 -0.46958691 -0.27354333 -0.8394416 nan
0.23936667 0.076820001 1.169 -0.43758044 -0.30085015 -0.8473562 nan
0.24159333 0.076820001 1.169 -0.38164344 -0.32151532 -0.86658883 nan
0.24298574 0.076557145 1.1650001 -0.32242221 -0.34900334 -0.8799094 nan
0.24520479 0.076557145 1.1650001 -0.28821456 -0.35865337 -0.88786268 nan
0.24742381 0.076557145 1.1650001 -0.20084082 -0.37622115 -0.90450019 nan
0.24964288 0.076557145 1.1650001 -0.051751453 -0.37262022 -0.92653978 nan
0.25186193 0.076557145 1.1650001 0.18674457 -0.33440462 -0.92374241 nan
0.25408095 0.076557145 1.1650001 0.4679251 -0.26644436 -0.84264672 nan
0.2563 0.076557145 1.1650001 0.62927872 -0.20804146 -0.74881715 nan
0.25940669 0.076820001 1.169 0.68713516 -0.18218096 -0.7033174 nan
0.26163334 0.076820001 1.169 0.74584579 -0.19190033 -0.63787794 nan
0.26566571 0.077345721 1.177 0.77831823 -0.18844865 -0.59892225 nan
0.2697286 0.077871434 1.1850001 0.82297456 -0.18634541 -0.53664541 nan
0.27290383 0.078134283 1.189 0.83880746 -0.18382239 -0.51245618 nan
0.27609429 0.078397147 1.1930001 0.79635251 -0.28265572 -0.53472275 nan
0.28046665 0.078988574 1.202 0.76661557 -0.22770658 -0.60037512 nan
0.28275621 0.078988574 1.202 0.60454345 -0.21685492 -0.76648629 nan
0.28599432 0.079251431 1.2060001 0.36562851 -0.18254992 -0.91268361 nan
0.28733522 0.078988574 1.202 -0.22168384 -0.2214081 -0.94964981 nan
0.28962478 0.078988574 1.202 nan nan nan nan
0.29191428 0.078988574 1.202 nan nan nan nan
0.29420382 0.078988574 1.202 nan nan nan nan
0.18888572 0.081278101 1.202 nan nan nan nan
0.19117524 0.081278101 1.202 nan nan nan nan
0.19346476 0.081278101 1.202 nan nan nan nan
0.19494002 0.080940001 1.197 -0.57927996 -0.5792802 -0.57347119 nan
0.19722001 0.080940001 1.197 -0.83640909 -0.16343015 -0.52317339 nan
0.19883335 0.080669522 1.1930001 -0.83665413 -0.093683496 -0.53966033 nan
0.20043144 0.080399044 1.189 -0.77110481 -0.054376002 -0.63438207 nan
0.2026962 0.080399044 1.189 -0.74850494 -0.096953295 -0.65600336 nan
0.20496096 0.080399044 1.189 -0.57759011 -0.09914621 -0.81028372 nan
0.20652857 0.080128573 1.1850001 -0.53042722 -0.12956785 -0.83777034 nan
0.20878571 0.080128573 1.1850001 -0.40824088 -0.1397122 -0.90211964 nan
0.21104287 0.080128573 1.1850001 -0.44513834 -0.18832166 -0.87543523 nan
0.2133 0.080128573 1.1850001 -0.46043196 -0.19598727 -0.86578947 nan
0.21555714 0.080128573 1.1850001 -0.48107737 -0.2192976 -0.84880686 nan
0.2178143 0.080128573 1.1850001 -0.47400033 -0.22844015 -0.85037565 nan
0.2193286 0.079858102 1.1810001 -0.46014962 -0.22995944 -0.85754359 nan
0.22157812 0.079858102 1.1810001 -0.48172858 -0.23662318 -0.84376955 nan
0.22306953 0.079587616 1.177 -0.53793663 -0.22348166 -0.81282234 nan
0.22531144 0.079587616 1.177 -0.55166227 -0.222422 -0.80386394 nan
0.22678001 0.079317145 1.1730001 -0.57150757 -0.22048074 -0.79042226 nan
0.22901431 0.079317145 1.1730001 -0.5760718 -0.24358948 -0.78025985 nan
0.23124859 0.079317145 1.1730001 -0.54454476 -0.25606427 -0.7986877 nan
0.23348287 0.079317145 1.1730001 -0.52484751 -0.26678443 -0.80830759 nan
0.23491335 0.079046667 1.169 -0.51210374 -0.26885992 -0.81575984 nan
0.23714 0.079046667 1.169 -0.4908891 -0.27966651 -0.82511485 nan
0.23936667 0.079046667 1.169 -0.45851108 -0.31475741 -0.83108085 nan
0.24159333 0.079046667 1.169 -0.40478709 -0.32796389 -0.85357314 nan
0.24298574 0.078776196 1.1650001 -0.34567231 -0.36351645 -0.86508173 nan
0.24520479 0.078776196 1.1650001 -0.3029145 -0.38139975 -0.87337106 nan
0.24742381 0.078776196 1.1650001 -0.20801501 -0.39937356 -0.89287764 nan
0.24964288 0.078776196 1.1650001 -0.042987164 -0.38008648 -0.92395151 nan
0.25186193 0.078776196 1.1650001 0.20193382 -0.33252075 -0.92122346 nan
0.25408095 0.078776196 1.1650001 0.4730275 -0.26534939 -0.84013969 nan
0.2563 0.078776196 1.1650001 0.62800026 -0.22408837 -0.74525166 nan
0.25851905 0.078776196 1.1650001 0.68451691 -0.21118581 -0.69773722 nan
0.26163334 0.079046667 1.169 0.74091941 -0.20432524 -0.63975751 nan
0.26476288 0.079317145 1.1730001 0.77398115 -0.19663034 -0.60190505 nan
0.2697286 0.080128573 1.1850001 0.81792873 -0.201894 -0.53873128 nan
0.27382192 0.080669522 1.1930001 0.83486784 -0.20131743 -0.51231533 nan
0.27702001 0.080940001 1.197 0.80425763 -0.28422147 -0.52190787 nan
0.28046665 0.081278101 1.202 0.7666226 -0.33766854 -0.54614079 nan
0.28369716 0.081548579 1.2060001 0.67596483 -0.29885882 -0.67361337 nan
0.28599432 0.081548579 1.2060001 0.36333326 -0.22706781 -0.90356469 nan
0.28829145 0.081548579 1.2060001 nan nan nan nan
0.29058859 0.081548579 1.2060001 nan nan nan nan
0.29191428 0.081278101 1.202 nan nan nan nan
0.29420382 0.081278101 1.202 nan nan nan nan
0.18951431 0.08384572 1.2060001 nan nan nan nan
0.19117524 0.083567619 1.202 nan nan nan nan
0.19266 0.083220005 1.197 nan nan nan nan
0.19494002 0.083220005 1.197 -0.71893084 -0.19401366 -0.66745573 nan
0.19722001 0.083220005 1.197 -0.809645 -0.14587952 -0.56850165 nan
0.19883335 0.082941905 1.1930001 -0.74507135 -0.15148477 -0.64955449 nan
0.20043144 0.082663804 1.189 -0.75234091 -0.14277831 -0.64311546 nan
0.2026962 0.082663804 1.189 -0.65940619 -0.12418108 -0.74145973 nan
0.20496096 0.082663804 1.189 -0.61260647 -0.12322614 -0.78072315 nan
0.20652857 0.082385719 1.1850001 -0.49061444 -0.11498617 -0.86375672 nan
0.20878571 0.082385719 1.1850001 -0.49645296 -0.15169129 -0.85470712 nan
0.21104287 0.082385719 1.1850001 -0.46119654 -0.17089055 -0.87068605 nan
0.2133 0.082385719 1.1850001 -0.48296738 -0.18645719 -0.85555607 nan
0.21555714 0.082385719 1.1850001 -0.50305235 -0.2096388 -0.83844495 nan
0.2178143 0.082385719 1.1850001 -0.48147586 -0.22806895 -0.84626567 nan
0.2193286 0.082107626 1.1810001 -0.46712211 -0.23780777 -0.85161281 nan
0.22157812 0.082107626 1.1810001 -0.48687363 -0.2602973 -0.83378619 nan
0.22306953 0.081829526 1.177 -0.53414297 -0.26309967 -0.80341136 nan
0.22531144 0.081829526 1.177 -0.54681665 -0.26957673 -0.79266638 nan
0.22678001 0.081551433 1.1730001 -0.57783812 -0.27302322 -0.76913029 nan
0.22901431 0.081551433 1.1730001 -0.58752483 -0.29401571 -0.75390273 nan
0.23124859 0.081551433 1.1730001 -0.5420289 -0.32404855 -0.77536911 nan
0.23348287 0.081551433 1.1730001 -0.51574153 -0.33599961 -0.78810847 nan
0.23491335 0.08127334 1.169 -0.5019111 -0.34592694 -0.79272938 nan
0.23714 0.08127334 1.169 -0.49457818 -0.35486203 -0.79338855 nan
0.23854764 0.080995239 1.1650001 -0.46327123 -0.38119751 -0.80004263 nan
0.24076669 0.080995239 1.1650001 -0.41221964 -0.38771036 -0.82447296 nan
0.24298574 0.080995239 1.1650001 -0.36190638 -0.42148319 -0.83149004 nan
0.24520479 0.080995239 1.1650001 -0.31321013 -0.43241969 -0.84552509 nan
0.2465743 0.080717139 1.161 -0.19586866 -0.44364288 -0.87453789 nan
0.24878572 0.080717139 1.161 -0.0082945572 -0.40797853 -0.91295385 nan
0.25099713 0.080717139 1.161 0.22421503 -0.32954109 -0.91713154 nan
0.25320855 0.080717139 1.161 0.47344834 -0.26548529 -0.83985966 nan
0.25542 0.080717139 1.161 0.62055826 -0.22161108 -0.75219411 nan
0.25851905 0.080995239 1.1650001 0.68125099 -0.20802557 -0.70187068 nan
0.26163334 0.08127334 1.169 0.74028873 -0.19493288 -0.64340794 nan
0.26476288 0.081551433 1.1730001 0.77025604 -0.19887681 -0.60593206 nan
0.26790762 0.081829526 1.177 0.81619489 -0.1918658 -0.54498935 nan
0.27198574 0.082385719 1.1850001 0.82846576 -0.20020555 -0.52303177 nan
0.27516857 0.082663804 1.189 0.79912508 -0.28276134 -0.530514 nan
0.2793 0.083220005 1.197 0.77983999 -0.32531112 -0.53481048 nan
0.28158 0.083220005 1.197 0.71668768 -0.40536973 -0.5674805 nan
0.28599432 0.08384572 1.2060001 nan nan nan nan
0.28829145 0.08384572 1.2060001 nan nan nan nan
0.29058859 0.08384572 1.2060001 nan nan nan nan
0.18951431 0.08614286 1.2060001 nan nan nan nan
0.19117524 0.085857145 1.202 nan nan nan nan
0.19346476 0.085857145 1.202 nan nan nan nan
0.19494002 0.085500002 1.197 -0.65147907 -0.26484191 -0.71093863 nan
0.19722001 0.085500002 1.197 -0.77231544 -0.2670539 -0.57637757 nan
0.19883335 0.085214287 1.1930001 -0.69825429 -0.23485887 -0.6762265 nan
0.20043144 0.084928572 1.189 -0.71902966 -0.22328562 -0.65813363 nan
0.2026962 0.084928572 1.189 -0.61353457 -0.14435868 -0.77636069 nan
0.20427144 0.084642865 1.1850001 -0.5742954 -0.12627026 -0.80885142 nan
0.20652857 0.084642865 1.1850001 -0.49093765 -0.11511834 -0.86355543 nan
0.20878571 0.084642865 1.1850001 -0.50410628 -0.14311612 -0.85170102 nan
0.21104287 0.084642865 1.1850001 -0.47647983 -0.16182438 -0.86416423 nan
0.2133 0.084642865 1.1850001 -0.49742201 -0.18556777 -0.84742904 nan
0.21555714 0.084642865 1.1850001 -0.5170489 -0.2085838 -0.83015251 nan
0.21707907 0.08435715 1.1810001 -0.49594697 -0.22704187 -0.83814591 nan
0.2193286 0.08435715 1.1810001 -0.48821935 -0.24425054 -0.83784455 nan
0.22082762 0.084071428 1.177 -0.50622618 -0.27405456 -0.81769747 nan
0.22306953 0.084071428 1.177 -0.54452807 -0.28469846 -0.78894609 nan
0.22454573 0.08378572 1.1730001 -0.55577135 -0.29834163 -0.77595776 nan
0.22678001 0.08378572 1.1730001 -0.58351827 -0.31571501 -0.74821818 nan
0.22901431 0.08378572 1.1730001 -0.5980882 -0.33434477 -0.72835708 nan
0.23124859 0.08378572 1.1730001 -0.55376232 -0.36441061 -0.74870032 nan
0.23268667 0.083500005 1.169 -0.52046812 -0.38478747 -0.76226735 nan
0.23491335 0.083500005 1.169 -0.50544816 -0.4015694 -0.76371735 nan
0.23632859 0.08321429 1.1650001 -0.49664083 -0.41699815 -0.76122296 nan
0.23854764 0.08321429 1.1650001 -0.46006936 -0.43663949 -0.77309906 nan
0.24076669 0.08321429 1.1650001 -0.41627809 -0.44986299 -0.79014927 nan
0.24215142 0.082928576 1.161 -0.36814699 -0.47537461 -0.79905367 nan
0.24436285 0.082928576 1.161 -0.30729499 -0.47434229 -0.82496619 nan
0.2465743 0.082928576 1.161 -0.17658846 -0.47197998 -0.86374271 nan
0.24878572 0.082928576 1.161 0.050130896 -0.42476389 -0.90391511 nan
0.25099713 0.082928576 1.161 0.26642048 -0.33025864 -0.90551054 nan
0.25320855 0.082928576 1.161 0.48318821 -0.26333934 -0.83497399 nan
0.25542 0.082928576 1.161 0.62508672 -0.20984401 -0.75181919 nan
0.25763142 0.082928576 1.161 0.68379712 -0.18836428 -0.70494002 nan
0.26163334 0.083500005 1.169 0.74336863 -0.14252211 -0.65352166 nan
0.26476288 0.08378572 1.1730001 0.77106494 -0.15809663 -0.61681789 nan
0.26881811 0.08435715 1.1810001 0.81452024 -0.14971517 -0.56048387 nan
0.27198574 0.084642865 1.1850001 0.82359624 -0.18200587 -0.53718072 nan
0.27516857 0.084928572 1.189 0.79325128 -0.30768365 -0.52543622 nan
0.27836668 0.085214287 1.1930001 0.74980628 -0.41063777 -0.51881325 nan
0.28275621 0.085857145 1.202 0.77832061 -0.36321098 -0.51214725 nan
0.28599432 0.08614286 1.2060001 nan nan nan nan
0.28829145 0.08614286 1.2060001 nan nan nan nan
0.29058859 0.08614286 1.2060001 nan nan nan nan
0.18721716 0.088440008 1.2060001 nan nan nan nan
0.18888572 0.088146664 1.202 nan nan nan nan
0.19117524 0.088146664 1.202 nan nan nan nan
0.19266 0.087779999 1.197 -0.77065504 -0.20312779 -0.60401154 nan
0.19494002 0.087779999 1.197 -0.67681015 -0.49150711 -0.54804081 nan
0.19722001 0.087779999 1.197 -0.7473976 -0.35946229 -0.558734 nan
0.19883335 0.087486669 1.1930001 -0.65539736 -0.26500914 -0.70726544 nan
0.20043144 0.087193333 1.189 -0.67654121 -0.24726571 -0.69365096 nan
0.2026962 0.087193333 1.189 -0.56308705 -0.14900473 -0.81285334 nan
0.20427144 0.086900003 1.1850001 -0.54292732 -0.12855759 -0.82988119 nan
0.20652857 0.086900003 1.1850001 -0.49022242 -0.1462418 -0.85924113 nan
0.20878571 0.086900003 1.1850001 -0.51011097 -0.16759919 -0.84362155 nan
0.21104287 0.086900003 1.1850001 -0.49714214 -0.17720813 -0.84938037 nan
0.2133 0.086900003 1.1850001 -0.5238958 -0.19973278 -0.8280338 nan
0.21482953 0.086606674 1.1810001 -0.53666264 -0.21476859 -0.81600714 nan
0.21707907 0.086606674 1.1810001 -0.50944775 -0.23392951 -0.82809418 nan
0.2193286 0.086606674 1.1810001 -0.50780964 -0.25816596 -0.82187575 nan
0.22082762 0.086313337 1.177 -0.52579248 -0.27950478 -0.80337995 nan
0.22231144 0.086020008 1.1730001 -0.55653554 -0.29064602 -0.77832711 nan
0.22454573 0.086020008 1.1730001 -0.57351249 -0.30300012 -0.76110071 nan
0.22678001 0.086020008 1.1730001 -0.60450786 -0.32578185 -0.72693628 nan
0.22901431 0.086020008 1.1730001 -0.61402804 -0.33805883 -0.71322215 nan
0.23124859 0.086020008 1.1730001 -0.56653148 -0.36237594 -0.74008495 nan
0.23268667 0.085726663 1.169 -0.53389251 -0.3828603 -0.75390768 nan
0.23491335 0.085726663 1.169 -0.51909602 -0.39960185 -0.75555122 nan
0.23632859 0.085433342 1.1650001 -0.5118131 -0.40816298 -0.75594336 nan
0.23854764 0.085433342 1.1650001 -0.47726572 -0.42124498 -0.77121341 nan
0.24076669 0.085433342 1.1650001 -0.43397054 -0.43484885 -0.7890349 nan
0.24215142 0.085140005 1.161 -0.37343958 -0.44908604 -0.81170475 nan
0.24436285 0.085140005 1.161 -0.29647842 -0.44156393 -0.84683049 nan
0.24572478 0.084846668 1.1570001 -0.14622276 -0.42285356 -0.89432305 nan
0.24878572 0.085140005 1.161 0.1085645 -0.37564239 -0.92038393 nan
0.25099713 0.085140005 1.161 0.30969927 -0.28753379 -0.90631711 nan
0.25320855 0.085140005 1.161 0.50071877 -0.22168173 -0.83674246 nan
0.25542 0.085140005 1.161 0.63092285 -0.18151304 -0.75431383 nan
0.25763142 0.085140005 1.161 0.6860429 -0.16848888 -0.70778292 nan
0.26163334 0.085726663 1.169 0.74091256 -0.12224227 -0.66038275 nan
0.26476288 0.086020008 1.1730001 0.76931036 -0.097196713 -0.63143831 nan
0.26881811 0.086606674 1.1810001 0.81210297 -0.11046772 -0.57296216 nan
0.27198574 0.086900003 1.1850001 0.81673861 -0.17087956 -0.55112457 nan
0.27424288 0.086900003 1.1850001 0.80831194 -0.22933669 -0.54225135 nan
0.27743334 0.087193333 1.189 0.76747906 -0.34914258 -0.53765726 nan
0.28063905 0.087486669 1.1930001 0.84820163 -0.16239947 -0.50416309 nan
0.28504571 0.088146664 1.202 nan nan nan nan
0.28829145 0.088440008 1.2060001 nan nan nan nan
0.29058859 0.088440008 1.2060001 nan nan nan nan
0.1865962 0.09043619 1.202 nan nan nan nan
0.18888572 0.09043619 1.202 nan nan nan nan
0.19117524 0.09043619 1.202 nan nan nan nan
0.19266 0.090060003 1.197 -0.7781592 -0.45403183 -0.43396235 nan
0.19428858 0.089759052 1.1930001 -0.61347574 -0.59738874 -0.5165019 nan
0.19656096 0.089759052 1.1930001 -0.70130658 -0.43866074 -0.56191266 nan
0.19816667 0.089458093 1.189 -0.65155011 -0.29253432 -0.69993293 nan
0.20043144 0.089458093 1.189 -0.64820158 -0.24875346 -0.71969187 nan
0.2026962 0.089458093 1.189 -0.52121067 -0.20179224 -0.82922816 nan
0.20427144 0.089157149 1.1850001 -0.50721937 -0.18223475 -0.8423295 nan
0.20652857 0.089157149 1.1850001 -0.48789927 -0.19742908 -0.85027999 nan
0.20878571 0.089157149 1.1850001 -0.51464921 -0.20786822 -0.8318215 nan
0.21104287 0.089157149 1.1850001 -0.50225401 -0.2095423 -0.83894753 nan
0.2133 0.089157149 1.1850001 -0.52887636 -0.22331153 -0.81879282 nan
0.21482953 0.088856198 1.1810001 -0.54280597 -0.22218253 -0.80993617 nan
0.21707907 0.088856198 1.1810001 -0.52920395 -0.23989981 -0.81387419 nan
0.21858573 0.088555239 1.177 -0.52652389 -0.27155083 -0.80562568 nan
0.22082762 0.088555239 1.177 -0.53826731 -0.28556728 -0.79291838 nan
0.22231144 0.088254295 1.1730001 -0.56822222 -0.29631567 -0.76767218 nan
0.22454573 0.088254295 1.1730001 -0.59056699 -0.30728218 -0.74619591 nan
0.22678001 0.088254295 1.1730001 -0.61613935 -0.3235572 -0.71811074 nan
0.22901431 0.088254295 1.1730001 -0.6240086 -0.31593281 -0.71470255 nan
0.23124859 0.088254295 1.1730001 -0.58304304 -0.33894467 -0.73836124 nan
0.23268667 0.087953337 1.169 -0.55112344 -0.35958353 -0.75296921 nan
0.23491335 0.087953337 1.169 -0.5302788 -0.37766999 -0.75905848 nan
0.23632859 0.087652385 1.1650001 -0.51798022 -0.38044941 -0.76612973 nan
0.23854764 0.087652385 1.1650001 -0.48463655 -0.38639113 -0.7847479 nan
0.23993999 0.087351426 1.161 -0.4422152 -0.3927798 -0.80633104 nan
0.24215142 0.087351426 1.161 -0.37408239 -0.40040961 -0.83650136 nan
0.24352098 0.087050483 1.1570001 -0.27794537 -0.39183459 -0.8770473 nan
0.24572478 0.087050483 1.1570001 -0.12310964 -0.36185113 -0.92407131 nan
0.24878572 0.087351426 1.161 0.15044038 -0.32612196 -0.93328035 nan
0.25099713 0.087351426 1.161 0.35057658 -0.24487434 -0.90395385 nan
0.25320855 0.087351426 1.161 0.51221162 -0.18738432 -0.8381685 nan
0.25542 0.087351426 1.161 0.63016152 -0.15997195 -0.75980622 nan
0.25763142 0.087351426 1.161 0.68361557 -0.14970823 -0.71432287 nan
0.26163334 0.087953337 1.169 0.73822111 -0.13400061 -0.66111529 nan
0.26476288 0.088254295 1.1730001 0.76489609 -0.105001 -0.63553816 nan
0.26881811 0.088856198 1.1810001 0.80402428 -0.083380505 -0.58872122 nan
0.27198574 0.089157149 1.1850001 0.80688083 -0.081713714 -0.58503515 nan
0.27424288 0.089157149 1.1850001 0.82193547 -0.0963521 -0.5613718 nan
0.27743334 0.089458093 1.189 0.80227536 -0.19920078 -0.56273735 nan
0.28063905 0.089759052 1.1930001 0.87929952 0.018728085 -0.47590086 nan
0.28599432 0.090737149 1.2060001 0.88694066 -0.014612541 -0.46165216 nan
0.29020384 0.091339052 1.2140001 nan nan nan nan
0.2925162 0.091339052 1.2140001 nan nan nan nan
0.29482859 0.091339052 1.2140001 nan nan nan nan
0.29714096 0.091339052 1.2140001 nan nan nan nan
0.18430667 0.092725717 1.202 nan nan nan nan
0.1865962 0.092725717 1.202 nan nan nan nan
0.1881 0.09234 1.197 nan nan nan nan
0.19038001 0.09234 1.197 -0.49305031 -0.70371002 -0.51155996 nan
0.19201621 0.092031434 1.1930001 -0.69226426 -0.49419513 -0.52587205 nan
0.19428858 0.092031434 1.1930001 -0.64920396 -0.52501571 -0.55035692 nan
0.19590192 0.091722853 1.189 -0.55879045 -0.46591407 -0.6860593 nan
0.19816667 0.091722853 1.189 -0.64055216 -0.34529713 -0.68590289 nan
0.20043144 0.091722853 1.189 -0.52961338 -0.27909431 -0.80100936 nan
0.2026962 0.091722853 1.189 -0.51379079 -0.25537431 -0.81902564 nan
0.20427144 0.091414295 1.1850001 -0.47719836 -0.21798757 -0.85133022 nan
0.20652857 0.091414295 1.1850001 -0.51408195 -0.20744488 -0.83227783 nan
0.20878571 0.091414295 1.1850001 -0.52050847 -0.22336119 -0.82412422 nan
0.21104287 0.091414295 1.1850001 -0.50819707 -0.22515967 -0.8312875 nan
0.2133 0.091414295 1.1850001 -0.53427666 -0.23853238 -0.81095666 nan
0.21482953 0.091105722 1.1810001 -0.54807854 -0.2372878 -0.80206257 nan
0.21707907 0.091105722 1.1810001 -0.54741061 -0.25329942 -0.79760957 nan
0.21858573 0.090797149 1.177 -0.54538393 -0.2767283 -0.79118758 nan
0.22007716 0.090488575 1.1730001 -0.5514344 -0.28378713 -0.78446478 nan
0.22231144 0.090488575 1.1730001 -0.58178103 -0.28684762 -0.76108426 nan
0.22454573 0.090488575 1.1730001 -0.60482734 -0.29054433 -0.7414633 nan
0.22678001 0.090488575 1.1730001 -0.62161714 -0.29507414 -0.72561932 nan
0.22823334 0.090180002 1.169 -0.63053292 -0.2800262 -0.7238878 nan
0.23046 0.090180002 1.169 -0.60259104 -0.29320678 -0.74223566 nan
0.23268667 0.090180002 1.169 -0.57274121 -0.30641219 -0.76031512 nan
0.23491335 0.090180002 1.169 -0.54618478 -0.32591707 -0.77166075 nan
0.23551714 0.089562856 1.161 -0.52738529 -0.32948589 -0.78313714 nan
0.23772858 0.089562856 1.161 -0.49259579 -0.34236193 -0.80008608 nan
0.23993999 0.089562856 1.161 -0.44860107 -0.35579282 -0.81985885 nan
0.24215142 0.089562856 1.161 -0.3706623 -0.37122843 -0.8513512 nan
0.24436285 0.089562856 1.161 -0.25478408 -0.3697972 -0.89349598 nan
0.24572478 0.08925429 1.1570001 -0.097030602 -0.34533644 -0.93344939 nan
0.24878572 0.089562856 1.161 0.18248928 -0.30708662 -0.93402112 nan
0.25013238 0.08925429 1.1570001 0.38087299 -0.23986065 -0.89297402 nan
0.25320855 0.089562856 1.161 0.52063346 -0.19220437 -0.83186436 nan
0.25542 0.089562856 1.161 0.62974471 -0.17118949 -0.75770426 nan
0.25851905 0.089871436 1.1650001 0.68323767 -0.15988639 -0.71247643 nan
0.26163334 0.090180002 1.169 0.73565274 -0.10754362 -0.66876709 nan
0.26476288 0.090488575 1.1730001 0.75944573 -0.080320381 -0.64559335 nan
0.26790762 0.090797149 1.177 0.80693614 -0.051563632 -0.58838356 nan
0.27106765 0.091105722 1.1810001 0.79735428 -0.03066748 -0.60273188 nan
0.27424288 0.091414295 1.1850001 0.81945038 -0.041077908 -0.57167619 nan
0.27743334 0.091722853 1.189 0.81013089 -0.09296529 -0.57883102 nan
0.28063905 0.092031434 1.1930001 0.88818574 0.11055174 -0.44598702 nan
0.28694287 0.093342856 1.21 0.8935675 0.16770728 -0.41642687 nan
0.29139906 0.094037145 1.2190001 0.79047436 0.41849548 -0.44722679 nan
0.29372096 0.094037145 1.2190001 nan nan nan nan
0.29604289 0.094037145 1.2190001 nan nan nan nan
0.29836479 0.094037145 1.2190001 nan nan nan nan
0.30068669 0.094037145 1.2190001 nan nan nan nan
0.18201713 0.095015235 1.202 nan nan nan nan
0.18354 0.094620004 1.197 nan nan nan nan
0.1865962 0.095015235 1.202 nan nan nan nan
0.1881 0.094620004 1.197 -0.63716894 -0.42452139 -0.64327079 nan
0.19038001 0.094620004 1.197 -0.66870749 -0.5199213 -0.5315187 nan
0.19201621 0.094303817 1.1930001 -0.63505447 -0.51128143 -0.57904845 nan
0.19428858 0.094303817 1.1930001 -0.64043713 -0.52387333 -0.56160218 nan
0.19590192 0.093987621 1.189 -0.5164479 -0.44941404 -0.72890919 nan
0.19816667 0.093987621 1.189 -0.56047279 -0.43313563 -0.70587802 nan
0.20043144 0.093987621 1.189 -0.47403762 -0.27059531 -0.83789408 nan
0.20201428 0.093671434 1.1850001 -0.49448612 -0.24554472 -0.8337813 nan
0.20427144 0.093671434 1.1850001 -0.47691494 -0.22818229 -0.84881389 nan
0.20652857 0.093671434 1.1850001 -0.51925522 -0.23092712 -0.82282847 nan
0.20878571 0.093671434 1.1850001 -0.52539074 -0.24651937 -0.81436646 nan
0.21104287 0.093671434 1.1850001 -0.51316684 -0.24848947 -0.82153076 nan
0.21258001 0.093355246 1.1810001 -0.53861088 -0.26129001 -0.8010155 nan
0.21482953 0.093355246 1.1810001 -0.55136472 -0.26762334 -0.79017383 nan
0.21634382 0.093039051 1.177 -0.5566569 -0.28234708 -0.78128946 nan
0.21858573 0.093039051 1.177 -0.54901618 -0.29866394 -0.78062868 nan
0.22007716 0.092722863 1.1730001 -0.54973102 -0.29899958 -0.77999681 nan
0.22231144 0.092722863 1.1730001 -0.58220649 -0.28687161 -0.76074982 nan
0.22454573 0.092722863 1.1730001 -0.6064437 -0.28322279 -0.74297434 nan
0.22600667 0.092406668 1.169 -0.62106735 -0.26681644 -0.73694253 nan
0.22823334 0.092406668 1.169 -0.62977606 -0.2514945 -0.73493713 nan
0.23046 0.092406668 1.169 -0.60924852 -0.24814834 -0.75315249 nan
0.23189048 0.09209048 1.1650001 -0.58745831 -0.24445672 -0.77144903 nan
0.23410954 0.09209048 1.1650001 -0.56341678 -0.24825026 -0.78799325 nan
0.23551714 0.091774285 1.161 -0.54469347 -0.25120601 -0.8001278 nan
0.23690954 0.091458097 1.1570001 -0.51715356 -0.26276708 -0.81455857 nan
0.23911335 0.091458097 1.1570001 -0.47375017 -0.27573276 -0.83638042 nan
0.24131715 0.091458097 1.1570001 -0.38794476 -0.29122877 -0.87446249 nan
0.24352098 0.091458097 1.1570001 -0.25220993 -0.28877789 -0.92357862 nan
0.24572478 0.091458097 1.1570001 -0.080689982 -0.27897233 -0.9569031 nan
0.24878572 0.091774285 1.161 0.20811136 -0.24179371 -0.94774759 nan
0.25013238 0.091458097 1.1570001 0.40008497 -0.20825961 -0.89250207 nan
0.25320855 0.091774285 1.161 0.5218128 -0.17930646 -0.83400273 nan
0.25542 0.091774285 1.161 0.62520605 -0.16153438 -0.76356012 nan
0.25851905 0.09209048 1.1650001 0.67992377 -0.15109149 -0.71754789 nan
0.2625286 0.092722863 1.1730001 0.7108683 -0.1502274 -0.68709385 nan
0.26476288 0.092722863 1.1730001 0.77339959 -0.10619882 -0.62495989 nan
0.26881811 0.093355246 1.1810001 0.78780657 -0.060886934 -0.61290586 nan
0.27198574 0.093671434 1.1850001 0.83246571 -0.03825099 -0.55275464 nan
0.27424288 0.093671434 1.1850001 0.82785714 -0.025533749 -0.56035751 nan
0.27743334 0.093987621 1.189 0.86327672 0.075991735 -0.49897757 nan
0.28063905 0.094303817 1.1930001 0.86952937 0.11972532 -0.47914976 nan
0.28789148 0.095963813 1.2140001 0.88322133 0.17421196 -0.43539664 nan
0.29139906 0.096359059 1.2190001 0.85925454 0.22062895 -0.46152407 nan
0.29372096 0.096359059 1.2190001 0.46167541 0.46091279 -0.75790185 nan
0.29604289 0.096359059 1.2190001 nan nan nan nan
0.29934382 0.09667524 1.223 nan nan nan nan
0.30167335 0.09667524 1.223 nan nan nan nan
0.18125999 0.096900001 1.197 nan nan nan nan
0.18354 0.096900001 1.197 nan nan nan nan
0.18582 0.096900001 1.197 nan nan nan nan
0.1881 0.096900001 1.197 -0.39337 -0.61135805 -0.68665957 nan
0.18974383 0.096576199 1.1930001 -0.67080742 -0.43533337 -0.60041845 nan
0.19201621 0.096576199 1.1930001 -0.63737702 -0.47278276 -0.60846281 nan
0.19363715 0.096252382 1.189 -0.57279956 -0.36908576 -0.73189914 nan
0.19590192 0.096252382 1.189 -0.54785562 -0.42375988 -0.72130561 nan
0.19816667 0.096252382 1.189 -0.48939198 -0.28432432 -0.82441199 nan
0.20043144 0.096252382 1.189 -0.50444001 -0.27105832 -0.81979734 nan
0.2026962 0.096252382 1.189 -0.45740336 -0.24937753 -0.8535766 nan
0.20427144 0.09592858 1.1850001 -0.48445991 -0.24738449 -0.83910638 nan
0.20652857 0.09592858 1.1850001 -0.53061771 -0.25316754 -0.80891967 nan
0.20878571 0.09592858 1.1850001 -0.53077906 -0.26148191 -0.80616426 nan
0.21033049 0.09560477 1.1810001 -0.51863074 -0.2635794 -0.81335604 nan
0.21258001 0.09560477 1.1810001 -0.5508185 -0.26740924 -0.79062712 nan
0.21482953 0.09560477 1.1810001 -0.56230193 -0.2811819 -0.77765888 nan
0.21634382 0.09528096 1.177 -0.56829143 -0.28808269 -0.77074844 nan
0.21858573 0.09528096 1.177 -0.55558622 -0.29786482 -0.77627349 nan
0.22007716 0.094957151 1.1730001 -0.54376864 -0.30015635 -0.78372306 nan
0.22231144 0.094957151 1.1730001 -0.57769132 -0.28054339 -0.76652992 nan
0.22378001 0.094633341 1.169 -0.59851223 -0.26289967 -0.7567476 nan
0.22600667 0.094633341 1.169 -0.60932469 -0.23189573 -0.7582531 nan
0.22823334 0.094633341 1.169 -0.62353534 -0.2152738 -0.75157231 nan
0.22967143 0.094309531 1.1650001 -0.60283107 -0.20322393 -0.77155346 nan
0.23189048 0.094309531 1.1650001 -0.58012223 -0.19848767 -0.78997523 nan
0.23330572 0.093985714 1.161 -0.56315273 -0.18459028 -0.8054722 nan
0.23470572 0.093661912 1.1570001 -0.55081308 -0.18620925 -0.81359142 nan
0.23690954 0.093661912 1.1570001 -0.52391696 -0.18890852 -0.83055681 nan
0.23911335 0.093661912 1.1570001 -0.48103014 -0.19250152 -0.85530883 nan
0.24131715 0.093661912 1.1570001 -0.38674885 -0.19807804 -0.90066111 nan
0.24352098 0.093661912 1.1570001 -0.24747466 -0.20198737 -0.94760615 nan
0.24572478 0.093661912 1.1570001 -0.072761938 -0.20069423 -0.97694808 nan
0.24792857 0.093661912 1.1570001 0.21021612 -0.16862057 -0.96300375 nan
0.25013238 0.093661912 1.1570001 0.39689779 -0.15794392 -0.90417135 nan
0.25320855 0.093985714 1.161 0.52395678 -0.14004172 -0.84015334 nan
0.25542 0.093985714 1.161 0.62728399 -0.12732314 -0.76831216 nan
0.25851905 0.094309531 1.1650001 0.67965603 -0.12068803 -0.72353441 nan
0.2625286 0.094957151 1.1730001 0.70741343 -0.11820912 -0.69684494 nan
0.26566571 0.09528096 1.177 0.76874375 -0.10799392 -0.63037318 nan
0.26881811 0.09560477 1.1810001 0.78703165 -0.0978297 -0.60910636 nan
0.27198574 0.09592858 1.1850001 0.83867645 -0.075726017 -0.53933978 nan
0.27424288 0.09592858 1.1850001 0.83524722 -0.013994725 -0.54969645 nan
0.27743334 0.096252382 1.189 0.87265217 0.053133238 -0.48544309 nan
0.28063905 0.096576199 1.1930001 0.87201178 0.091091089 -0.48093438 nan
0.28789148 0.098276198 1.2140001 0.87743586 0.14044762 -0.45867288 nan
0.29139906 0.098680958 1.2190001 0.81727058 0.13528985 -0.56014776 nan
0.29468477 0.09900476 1.223 0.46744308 0.42138961 -0.77712792 nan
0.2970143 0.09900476 1.223 0.28352267 0.5670467 -0.77335173 nan
0.29934382 0.09900476 1.223 nan nan nan nan
0.30167335 0.09900476 1.223 nan nan nan nan
0.30400285 0.09900476 1.223 nan nan nan nan
0.18125999 0.099179998 1.197 nan nan nan nan
0.18354 0.099179998 1.197 nan nan nan nan
0.18582 0.099179998 1.197 nan nan nan nan
0.18747145 0.098848581 1.1930001 -0.36675692 -0.6782499 -0.6367625 nan
0.18974383 0.098848581 1.1930001 -0.48287115 -0.57910949 -0.65686202 nan
0.19137238 0.098517142 1.189 -0.53806865 -0.34281114 -0.77004069 nan
0.19363715 0.098517142 1.189 -0.5413661 -0.28639495 -0.7905066 nan
0.19590192 0.098517142 1.189 -0.49362278 -0.31957221 -0.80883259 nan
0.19750001 0.098185718 1.1850001 -0.4340013 -0.2257285 -0.87217516 nan
0.19975714 0.098185718 1.1850001 -0.47281921 -0.24770293 -0.84562713 nan
0.20201428 0.098185718 1.1850001 -0.45790502 -0.24970838 -0.85321081 nan
0.20427144 0.098185718 1.1850001 -0.48317188 -0.25814611 -0.83660358 nan
0.20652857 0.098185718 1.1850001 -0.53677106 -0.26022655 -0.80259514 nan
0.20808096 0.097854294 1.1810001 -0.53128827 -0.26160613 -0.80578846 nan
0.21033049 0.097854294 1.1810001 -0.51903754 -0.26372302 -0.81304991 nan
0.21258001 0.097854294 1.1810001 -0.55743909 -0.26670721 -0.78621179 nan
0.21482953 0.097854294 1.1810001 -0.56974798 -0.27286643 -0.77519751 nan
0.2156086 0.097191438 1.1730001 -0.57061595 -0.27316818 -0.77445245 nan
0.21784288 0.097191438 1.1730001 -0.55894107 -0.27537954 -0.78214514 nan
0.22007716 0.097191438 1.1730001 -0.5416379 -0.2707319 -0.79582196 nan
0.22231144 0.097191438 1.1730001 -0.56339049 -0.25293842 -0.78651977 nan
0.22378001 0.096859999 1.169 -0.58014649 -0.22021286 -0.78417879 nan
0.22600667 0.096859999 1.169 -0.59582096 -0.1953121 -0.77900612 nan
0.22823334 0.096859999 1.169 -0.61646199 -0.16973491 -0.76887232 nan
0.22967143 0.096528575 1.1650001 -0.6006372 -0.15592623 -0.78416961 nan
0.23189048 0.096528575 1.1650001 -0.57732487 -0.15025981 -0.80256963 nan
0.23330572 0.096197143 1.161 -0.55926317 -0.14379494 -0.81642371 nan
0.23470572 0.095865719 1.1570001 -0.55342388 -0.1445505 -0.82026041 nan
0.23690954 0.095865719 1.1570001 -0.52680588 -0.13813658 -0.83868581 nan
0.23911335 0.095865719 1.1570001 -0.48377806 -0.14083456 -0.86378491 nan
0.24131715 0.095865719 1.1570001 -0.3970952 -0.15369518 -0.90481669 nan
0.24352098 0.095865719 1.1570001 -0.25751689 -0.17506422 -0.95028287 nan
0.24572478 0.095865719 1.1570001 -0.063866079 -0.17376986 -0.98271316 nan
0.24792857 0.095865719 1.1570001 0.21807531 -0.15987827 -0.96274716 nan
0.25013238 0.095865719 1.1570001 0.39751953 -0.14317718 -0.90635455 nan
0.25320855 0.096197143 1.161 0.52044839 -0.12747464 -0.84432441 nan
0.25542 0.096197143 1.161 0.62194753 -0.12263787 -0.77339596 nan
0.25763142 0.096197143 1.161 0.67740178 -0.12638469 -0.72467494 nan
0.2625286 0.097191438 1.1730001 0.70716107 -0.12800956 -0.69536811 nan
0.26476288 0.097191438 1.1730001 0.74740726 -0.11549211 -0.65425068 nan
0.26790762 0.097522855 1.177 0.8124631 -0.083695322 -0.5769738 nan
0.27106765 0.097854294 1.1810001 0.8311348 -0.086779684 -0.54925787 nan
0.27424288 0.098185718 1.1850001 0.85111552 -0.12521762 -0.50982636 nan
0.27743334 0.098517142 1.189 0.87228668 -0.063682035 -0.48483044 nan
0.28369716 0.099925719 1.2060001 0.88038349 -0.11436841 -0.46026593 nan
0.28789148 0.10058858 1.2140001 0.87583059 -0.060460169 -0.47881663 nan
0.29235527 0.10133429 1.223 0.85945117 0.14144827 -0.49125963 nan
0.29468477 0.10133429 1.223 0.57453644 0.37331626 -0.72838372 nan
0.2970143 0.10133429 1.223 0.16571145 0.49680021 -0.85189742 nan
0.29934382 0.10133429 1.223 nan nan nan nan
0.30167335 0.10133429 1.223 nan nan nan nan
0.30400285 0.10133429 1.223 nan nan nan nan
0.17778382 0.1007819 1.189 nan nan nan nan
0.18004857 0.1007819 1.189 nan nan nan nan
0.18231334 0.1007819 1.189 nan nan nan nan
0.18519907 0.10112096 1.1930001 0.12277135 -0.8556149 -0.50284231 nan
0.18747145 0.10112096 1.1930001 -0.25192472 -0.58751571 -0.76899886 nan
0.18974383 0.10112096 1.1930001 -0.37059826 -0.56692624 -0.73569804 nan
0.19137238 0.1007819 1.189 -0.46798858 -0.23354696 -0.85231596 nan
0.19363715 0.1007819 1.189 -0.52424037 -0.24775676 -0.81473225 nan
0.19590192 0.1007819 1.189 -0.47921747 -0.20524512 -0.85336101 nan
0.19750001 0.10044286 1.1850001 -0.47058135 -0.23846124 -0.84952307 nan
0.19975714 0.10044286 1.1850001 -0.4837946 -0.24709925 -0.83957416 nan
0.20201428 0.10044286 1.1850001 -0.46633789 -0.25914699 -0.84579659 nan
0.20427144 0.10044286 1.1850001 -0.48209277 -0.27419645 -0.83210748 nan
0.20652857 0.10044286 1.1850001 -0.53556055 -0.27576649 -0.79820281 nan
0.20808096 0.10010382 1.1810001 -0.53005004 -0.27716121 -0.80139166 nan
0.21033049 0.10010382 1.1810001 -0.52525038 -0.2707285 -0.80673295 nan
0.21258001 0.10010382 1.1810001 -0.56309336 -0.27353409 -0.77981085 nan
0.21410191 0.099764764 1.177 -0.57105023 -0.2654092 -0.77682662 nan
0.2156086 0.099425726 1.1730001 -0.57188737 -0.26571465 -0.77610606 nan
0.21784288 0.099425726 1.1730001 -0.55396265 -0.26878044 -0.78796095 nan
0.22007716 0.099425726 1.1730001 -0.5306766 -0.25696185 -0.80768371 nan
0.22231144 0.099425726 1.1730001 -0.54625446 -0.23988597 -0.80253398 nan
0.22378001 0.099086665 1.169 -0.5631187 -0.2066924 -0.80010974 nan
0.22600667 0.099086665 1.169 -0.57840812 -0.18950091 -0.79343146 nan
0.22823334 0.099086665 1.169 -0.60007709 -0.15557061 -0.78466886 nan
0.22967143 0.098747626 1.1650001 -0.58920664 -0.14888617 -0.79414636 nan
0.23189048 0.098747626 1.1650001 -0.57225764 -0.12586902 -0.8103568 nan
0.23330572 0.098408572 1.161 -0.56016451 -0.12699272 -0.81858939 nan
0.23551714 0.098408572 1.161 -0.54782158 -0.11958899 -0.82800359 nan
0.23690954 0.098069526 1.1570001 -0.52090079 -0.10405803 -0.84725106 nan
0.23911335 0.098069526 1.1570001 -0.49242026 -0.10553032 -0.86393613 nan
0.24131715 0.098069526 1.1570001 -0.4145003 -0.12640019 -0.90122831 nan
0.24352098 0.098069526 1.1570001 -0.26735339 -0.14778695 -0.95219809 nan
0.24572478 0.098069526 1.1570001 -0.073363513 -0.14693353 -0.986422 nan
0.24792857 0.098069526 1.1570001 0.21060015 -0.15216218 -0.96565741 nan
0.25013238 0.098069526 1.1570001 0.39787355 -0.13570327 -0.90734845 nan
0.25320855 0.098408572 1.161 0.51642728 -0.12805431 -0.8467024 nan
0.25542 0.098408572 1.161 0.61322379 -0.12429421 -0.78006893 nan
0.25851905 0.098747626 1.1650001 0.66783154 -0.13923448 -0.73117357 nan
0.26163334 0.099086665 1.169 0.70266145 -0.14391743 -0.69681752 nan
0.26476288 0.099425726 1.1730001 0.75147146 -0.12300885 -0.64819705 nan
0.26790762 0.099764764 1.177 0.81556565 -0.082886443 -0.57269758 nan
0.27106765 0.10010382 1.1810001 0.82694221 -0.083599873 -0.55603749 nan
0.27424288 0.10044286 1.1850001 0.84817797 -0.08918687 -0.52214921 nan
0.27743334 0.1007819 1.189 0.86789775 -0.086116709 -0.48922122 nan
0.28275621 0.10188381 1.202 0.86175299 -0.17553288 -0.47599372 nan
0.28694287 0.10256191 1.21 0.88064414 -0.14671634 -0.45048887 nan
0.29235527 0.10366382 1.223 0.87526727 -0.10751361 -0.47153795 nan
0.29468477 0.10366382 1.223 0.66353202 -0.057748966 -0.74591577 nan
0.29798576 0.10400286 1.2270001 0.30799735 0.46193045 -0.83171982 nan
0.30032286 0.10400286 1.2270001 nan nan nan nan
0.30266002 0.10400286 1.2270001 nan nan nan nan
0.30400285 0.10366382 1.223 nan nan nan nan
0.17778382 0.10304666 1.189 nan nan nan nan
0.18004857 0.10304666 1.189 nan nan nan nan
0.18231334 0.10304666 1.189 nan nan nan nan
0.18457811 0.10304666 1.189 0.3153379 -0.62960839 -0.7100389 nan
0.18684286 0.10304666 1.189 0 -0.1950981 -0.98078376 nan
0.18910763 0.10304666 1.189 -0.32437164 -0.26975951 -0.90664923 nan
0.19137238 0.10304666 1.189 -0.44526261 -0.10255096 -0.88950801 nan
0.19363715 0.10304666 1.189 -0.50559986 -0.2065139 -0.83768773 nan
0.19590192 0.10304666 1.189 -0.44665933 -0.25773332 -0.85677826 nan
0.19750001 0.1027 1.1850001 -0.45907763 -0.2492895 -0.85270303 nan
0.19975714 0.1027 1.1850001 -0.49093351 -0.26598814 -0.82959908 nan
0.20201428 0.1027 1.1850001 -0.48161739 -0.27409351 -0.83241659 nan
0.20427144 0.1027 1.1850001 -0.48775995 -0.28934398 -0.82363236 nan
0.20652857 0.1027 1.1850001 -0.54048008 -0.2903294 -0.7896772 nan
0.20808096 0.10235334 1.1810001 -0.52114344 -0.30111396 -0.79858619 nan
0.21033049 0.10235334 1.1810001 -0.51730156 -0.28712296 -0.80620068 nan
0.21186 0.10200667 1.177 -0.55739635 -0.27451795 -0.78354913 nan
0.21410191 0.10200667 1.177 -0.56623292 -0.25874612 -0.78257954 nan
0.2156086 0.10166001 1.1730001 -0.57312316 -0.25816518 -0.77774072 nan
0.21784288 0.10166001 1.1730001 -0.54886627 -0.2620326 -0.79377878 nan
0.22007716 0.10166001 1.1730001 -0.51923531 -0.24269162 -0.81944829 nan
0.22231144 0.10166001 1.1730001 -0.52892059 -0.21806483 -0.82017726 nan
0.22378001 0.10131334 1.169 -0.54625922 -0.17613052 -0.81888884 nan
0.22600667 0.10131334 1.169 -0.56168193 -0.15880178 -0.81197011 nan
0.22823334 0.10131334 1.169 -0.58984667 -0.11580856 -0.79916787 nan
0.23046 0.10131334 1.169 -0.57841492 -0.10854303 -0.80848908 nan
0.23189048 0.10096667 1.1650001 -0.56033719 -0.084544539 -0.82393837 nan
0.23330572 0.10062 1.161 -0.55458373 -0.085069284 -0.82776815 nan
0.23551714 0.10062 1.161 -0.53492522 -0.077504724 -0.84133703 nan
0.23772858 0.10062 1.161 -0.51417267 -0.060968749 -0.85551697 nan
0.23993999 0.10062 1.161 -0.5003283 -0.070273355 -0.86297929 nan
0.24131715 0.10027333 1.1570001 -0.43140286 -0.090090238 -0.89764988 nan
0.24352098 0.10027333 1.1570001 -0.27703547 -0.11106311 -0.95441937 nan
0.24572478 0.10027333 1.1570001 -0.082847871 -0.11059961 -0.99040598 nan
0.24792857 0.10027333 1.1570001 0.20313933 -0.13589257 -0.96967399 nan
0.25013238 0.10027333 1.1570001 0.39241332 -0.12877451 -0.91072989 nan
0.2523362 0.10027333 1.1570001 0.50796753 -0.12925288 -0.85162359 nan
0.25542 0.10062 1.161 0.60115814 -0.12064994 -0.78996992 nan
0.25763142 0.10062 1.161 0.65905213 -0.125614 -0.74153316 nan
0.26163334 0.10131334 1.169 0.70408672 -0.11946693 -0.69999254 nan
