# .PCD v0.7 - Point Cloud Data file format
VERSION 0.7
FIELDS x y z normal_x normal_y normal_z curvature
SIZE 4 4 4 4 4 4 4
TYPE F F F F F F F
COUNT 1 1 1 1 1 1 1
WIDTH 672
HEIGHT 1
VIEWPOINT 0 0 0 1 0 0 0
POINTS 672
DATA ascii
0.0091542862 -0.027462859 1.0680001 -0.33672976 -0.15641633 -0.92851871 nan
0.011769798 -0.026300412 1.0680001 -0.20713831 -0.12088318 -0.97016913 nan
0.0084761921 -0.013561907 1.0680001 -0.35595262 -0.11282601 -0.92579448 nan
0.013077551 -0.014966534 1.068 -0.056993078 -0.091354579 -0.98320854 nan
0.0083914287 -0.0045771431 1.068 -0.31041083 -0.074318007 -0.9453609 nan
0.013407793 -0.0052706501 1.068 0.044549469 -0.036731757 -0.98733109 nan
0.021360001 -0.0091542862 1.0680001 0.42013881 -0.0089112595 -0.90741611 nan
0.0077302861 0.0046788575 1.068 -0.30068988 0.039245702 -0.94862527 nan
0.012714287 0.0052552386 1.068 0.041733932 0.031216277 -0.99367446 nan
0.013407793 0.015811948 1.068 0.0026376208 0.057651293 -0.99099988 nan
0.0084761912 0.028140953 1.0680001 -0.24525383 0.05325976 -0.9660573 nan
0.012002287 0.026649145 1.0680001 -0.031716704 0.098233104 -0.99113476 nan
0.0086457152 0.033565715 1.0680001 -0.16687411 0.052425794 -0.98234469 nan
0.011188573 0.035600003 1.0680001 0.026425943 0.10410471 -0.99363387 nan
0.0091542862 0.041702859 1.0680001 -0.076938808 0.10870799 -0.99109185 nan
0.0081961909 -0.062510483 1.076 nan nan nan nan
0.015678488 -0.062763199 1.0720589 nan nan nan nan
0.02152 -0.061487619 1.076 nan nan nan nan
0.0074946526 -0.053894658 1.077077 -0.6533761 -0.13494401 -0.72779804 nan
0.015307431 -0.055111714 1.0716 -0.17715041 -0.072104201 -0.88058084 nan
0.025614694 -0.054294508 1.075619 0.4890517 -0.36663422 -0.77481437 nan
0.032511111 -0.050991114 1.0780001 0.58356941 -0.20849332 -0.78300142 nan
-0.0010266667 -0.042093333 1.0780001 -0.66777086 -0.11669058 -0.73516351 nan
0.0048549073 -0.04444547 1.0766085 -0.5833742 -0.14772238 -0.79092175 nan
0.015304231 -0.045914516 1.0713599 -0.17306378 -0.051773328 -0.95943695 nan
0.025296321 -0.045463938 1.0738636 0.37773171 -0.078244984 -0.91551888 nan
0.032853335 -0.044146672 1.0780001 0.57727712 -0.10852692 -0.8084054 nan
-0.0010266667 -0.035933334 1.0780001 -0.67816752 -0.10339515 -0.72759759 nan
0.0053919922 -0.035270263 1.0748634 -0.53227615 -0.10196353 -0.83007354 nan
0.01531783 -0.035741147 1.0721998 -0.11235532 -0.038333762 -0.98227996 nan
0.025575845 -0.035805635 1.0741599 0.32886031 -0.014499326 -0.93938619 nan
0.033870161 -0.034896828 1.0776668 0.54345417 -0.073187426 -0.83495259 nan
-0.0010266667 -0.023613334 1.0780001 -0.67906857 -0.082301304 -0.7292468 nan
0.0049376991 -0.025493573 1.0742499 -0.53606784 -0.1069402 -0.82569349 nan
0.016677463 -0.025183491 1.0720001 0.06405282 -0.073236607 -0.98823208 nan
0.025575239 -0.025575237 1.0741599 0.33804065 0.036115184 -0.93843007 nan
0.033832259 -0.025627559 1.0764002 0.46819624 0.02663295 -0.88123798 nan
-0.001368889 -0.014715558 1.0780001 -0.69465584 -0.10194981 -0.71177471 nan
0.0040303268 -0.015874438 1.0736316 -0.57143527 -0.11342023 -0.80512577 nan
0.018096626 -0.015684158 1.0718184 0.28041783 -0.048496183 -0.95578498 nan
0.025645563 -0.015386437 1.0769598 0.40220505 0.02600975 -0.91455162 nan
0.033564106 -0.015873848 1.0780001 0.45746243 0.073194608 -0.88593304 nan
-0.0029322451 -0.0048356466 1.0768573 -0.72063231 -0.097246736 -0.68624014 nan
0.0035411769 -0.0053455466 1.0718824 -0.57110488 -0.10546593 -0.80733961 nan
0.016757146 -0.0049542859 1.0710001 0.2668325 -0.027896509 -0.94379961 nan
0.025790319 -0.0049519055 1.0758334 0.4443714 -0.0051802192 -0.89524931 nan
0.033564106 -0.0052912827 1.0780001 0.51842928 0.027641235 -0.85378528 nan
-0.0030764446 0.0051226672 1.0758667 -0.71206105 0.00080937828 -0.70075154 nan
0.0033323816 0.0053742868 1.0714002 -0.54916644 0.033549666 -0.82412738 nan
0.017662201 0.004945715 1.0714617 0.33073398 0.013935918 -0.93966281 nan
0.025629332 0.0051243431 1.0762397 0.44676268 0.0086660571 -0.89374602 nan
0.032853331 0.0051333336 1.0780001 0.52797043 0.017228415 -0.84898722 nan
-0.002764103 0.015873846 1.0780001 -0.68463665 0.074999437 -0.72466356 nan
0.0051039248 0.015322439 1.0724798 -0.45846057 0.092013538 -0.87137401 nan
0.016757146 0.014862861 1.0710001 0.20788266 0.045417931 -0.96185064 nan
0.025612112 0.01536206 1.0754397 0.45935503 0.016397402 -0.88582259 nan
0.031826671 0.0154 1.0780001 0.53085661 0.03627995 -0.84592009 nan
-0.0023333337 0.025293335 1.0780001 -0.6910333 0.029923895 -0.7215392 nan
0.0046402602 0.025167277 1.0726362 -0.48896348 0.012982594 -0.8577401 nan
0.016126288 0.025210002 1.0715998 0.17360096 0.12331362 -0.96328753 nan
0.025629217 0.025628917 1.0762799 0.45677274 0.14258258 -0.87611395 nan
0.031826667 0.025153335 1.0780001 0.52395111 0.09893021 -0.8456499 nan
-0.0019066669 0.035053335 1.0780001 -0.70698541 0.028959759 -0.70603341 nan
0.0044223145 0.036131706 1.0722857 -0.45004976 0.049383391 -0.8651281 nan
0.016159102 0.035380688 1.0750557 0.27407074 0.12789172 -0.94838172 nan
0.024941962 0.034725491 1.0780001 0.42714578 0.15058638 -0.890764 nan
-0.0017966668 0.043376669 1.0780001 -0.70415133 0.076604538 -0.70554918 nan
0.005201906 0.045602176 1.0731429 -0.38183886 0.11279589 -0.88808233 nan
0.015353693 0.045014963 1.0742916 0.23447518 0.10098024 -0.95662534 nan
0.024160892 0.044420451 1.0780002 0.42694959 0.066249028 -0.90128136 nan
-0.0010266667 0.05441333 1.0780001 -0.66552943 0.057071116 -0.74374747 nan
0.0048471643 0.054604515 1.0747391 -0.3838754 0.12144197 -0.88912338 nan
0.015638923 0.054652512 1.075652 0.21623053 0.14841518 -0.95622629 nan
0.02286667 0.054040007 1.0780001 0.3776761 0.085710622 -0.92099166 nan
-0.0010266667 0.064680003 1.0780001 -0.62531888 0.036261946 -0.77894104 nan
0.0051240386 0.06459482 1.0765598 -0.30126944 0.080576867 -0.92628354 nan
0.015219843 0.064629376 1.0771664 0.18556063 0.11344978 -0.97155988 nan
0.02156 0.060573336 1.0780001 0.314619 0.12002117 -0.94159961 nan
-0.0010266667 0.071866669 1.0780001 -0.62357605 0.10873215 -0.77415937 nan
0.0051211426 0.074835435 1.0763999 -0.30956221 0.10859292 -0.92209691 nan
0.01436286 0.07487715 1.0769999 0.14749295 0.080588982 -0.98380816 nan
0.0063203005 0.084981352 1.0777893 -0.27551967 0.17229514 -0.93214434 nan
0.013030772 0.084739484 1.0780001 0.072502486 0.14918701 -0.98444551 nan
0.0077733342 0.093133338 1.0780001 -0.21746112 0.16821103 -0.95661837 nan
0.011293335 0.093426675 1.0780001 -0.015804946 0.14553969 -0.98905349 nan
-0.016472382 -0.071037143 1.0810001 nan nan nan nan
0.027949525 -0.071431443 1.0870001 nan nan nan nan
0.032033335 -0.071300007 1.085 nan nan nan nan
-0.0014500953 -0.064415053 1.0874001 nan nan nan nan
0.0029082252 -0.063771084 1.0847274 nan nan nan nan
0.026519818 -0.064997457 1.0848571 nan nan nan nan
0.035114095 -0.065065145 1.0843998 nan nan nan nan
0.043001913 -0.064589217 1.0880003 nan nan nan nan
-0.0023514286 -0.054600261 1.0853637 -0.6423611 -0.24727906 -0.72211218 nan
0.0025750794 -0.055115722 1.0816669 -0.63777077 -0.31622472 -0.69748282 nan
0.028826669 -0.058682859 1.0810001 0.30270606 -0.60793787 -0.7262553 nan
0.035468742 -0.055231545 1.0821766 0.51704079 -0.25537664 -0.80706626 nan
0.042721614 -0.05463209 1.0874376 0.5281803 -0.092117995 -0.84020925 nan
-0.0039516524 -0.044259112 1.083706 -0.67963243 -0.135089 -0.7186656 nan
0.03707695 -0.044286668 1.0814003 0.60076779 -0.10375913 -0.79249662 nan
0.041679054 -0.04412511 1.0866365 0.54833883 -0.085069172 -0.83152288 nan
-0.011398096 -0.030049525 1.0880001 -0.80026937 -0.098753139 -0.59145314 nan
-0.0048026335 -0.034420673 1.083706 -0.70681971 -0.10385942 -0.69892412 nan
0.038092382 -0.035003811 1.0810001 0.58706105 -0.10952149 -0.80201697 nan
0.043405596 -0.034569908 1.0868002 0.56957 -0.099337071 -0.81561184 nan
0.050773337 -0.030049525 1.0880001 0.55903393 -0.058110736 -0.82710594 nan
-0.011398096 -0.024868572 1.0880001 -0.7961064 -0.087963164 -0.59865308 nan
-0.005470905 -0.025681097 1.08295 -0.70687211 -0.08763542 -0.70089692 nan
0.038092382 -0.025738096 1.0810002 0.53741217 -0.014008393 -0.84167826 nan
0.04428421 -0.025670318 1.0854166 0.57742751 -0.046551466 -0.81446695 nan
0.050773337 -0.023832383 1.0880001 0.58245742 -0.036026012 -0.8120625 nan
-0.011398096 -0.015542857 1.0880002 -0.80267745 -0.041985918 -0.59471816 nan
-0.0063598002 -0.01569614 1.0835789 -0.71896398 -0.076114997 -0.68955535 nan
0.037504084 -0.014560411 1.0810002 0.48600477 0.088368692 -0.86936867 nan
0.044470318 -0.015508345 1.08576 0.54727101 0.051163502 -0.83460742 nan
-0.011398096 -0.0051809526 1.0880002 -0.81535989 -0.054484177 -0.57615131 nan
-0.0079734204 -0.0055337665 1.083182 -0.75481009 -0.077902533 -0.65000755 nan
0.037504084 -0.0048534703 1.0810002 0.4951714 0.040430352 -0.86705565 nan
0.04340953 -0.005498847 1.0865264 0.51753777 0.044901654 -0.85378778 nan
-0.01139181 0.0051780958 1.0874001 -0.81882352 -0.028223818 -0.57305676 nan
-0.0082533332 0.0051571438 1.0830001 -0.76723647 -0.015171473 -0.63979101 nan
0.037062857 0.0051476196 1.0810002 0.49545595 0.006964271 -0.86810297 nan
0.04434564 0.0053481748 1.0869999 0.50467765 -0.016804148 -0.86280107 nan
-0.011372953 0.015510857 1.0856001 -0.79914922 0.029972672 -0.59998363 nan
-0.0077357143 0.014951906 1.0826669 -0.74138898 0.054841757 -0.66774213 nan
0.036042731 0.015447684 1.081267 0.50461423 0.039258227 -0.86144722 nan
0.044308975 0.015343891 1.0860833 0.50346744 0.056740992 -0.86145562 nan
0.050773337 0.014506668 1.0880001 0.50620079 0.055636689 -0.8603729 nan
-0.011398096 0.024868572 1.0880001 -0.78194636 0.022015778 -0.62290961 nan
-0.0072274003 0.02580264 1.0836924 -0.72773868 0.037379757 -0.68448156 nan
0.035834942 0.025907798 1.0826876 0.5128094 0.088597521 -0.85381365 nan
0.04310286 0.024981309 1.0872502 0.51515508 0.11577355 -0.84895504 nan
-0.011398096 0.034194287 1.0880002 -0.76468164 0.018563589 -0.64398879 nan
-0.0070810206 0.034641158 1.0835003 -0.72552818 0.033261813 -0.68729395 nan
0.029856194 0.036033336 1.0810001 0.43195534 0.11960014 -0.89353603 nan
0.035021432 0.035019048 1.0815002 0.49028575 0.085769132 -0.86682057 nan
0.0418621 0.034194287 1.0880002 0.53918588 0.074102953 -0.83868408 nan
-0.011398096 0.041447621 1.0880001 -0.74539065 0.051415071 -0.66442084 nan
-0.0067398879 0.044721171 1.0831177 -0.71405023 0.058616161 -0.69750094 nan
0.02800305 0.04385772 1.0810002 0.39378649 0.06895075 -0.916327 nan
0.035072006 0.044352572 1.0829999 0.47127971 0.054143745 -0.87960738 nan
0.041447621 0.044556193 1.0880002 0.53816831 0.037519183 -0.84160966 nan
-0.005650084 0.055055354 1.0835296 -0.7013762 0.017696392 -0.71180952 nan
0.027944218 0.054858916 1.0810003 0.37840489 0.055428453 -0.92364097 nan
0.035084575 0.054685142 1.0834 0.45577914 0.031890225 -0.88865608 nan
0.04169983 0.054500002 1.087182 0.55495441 0.031013753 -0.8304069 nan
-0.0061921431 0.064965002 1.0827501 -0.67856735 0.016894978 -0.73250806 nan
0.019560954 0.064860001 1.0810001 0.29935125 0.098317772 -0.94906396 nan
0.025909685 0.065031588 1.081 0.33439052 0.08058212 -0.93796527 nan
0.035088241 0.065007858 1.08345 0.45627466 0.08988931 -0.88414222 nan
0.040987622 0.064367756 1.0875716 0.57109582 0.10712073 -0.81308532 nan
-0.0051672114 0.075347267 1.0837619 -0.65391088 0.11215755 -0.74708688 nan
0.019560954 0.075155243 1.0810002 0.31210789 0.06741976 -0.94748545 nan
0.025742518 0.075166985 1.0811598 0.36524716 0.10300195 -0.92367142 nan
0.035000104 0.075707577 1.0857896 0.47983581 0.13190466 -0.86569768 nan
-0.0039066663 0.085273333 1.0845556 -0.65193921 0.14935072 -0.74240106 nan
0.0013726986 0.08613684 1.0810002 -0.55794412 0.16657595 -0.81196463 nan
0.018016668 0.085965246 1.0810003 0.25925994 0.15578599 -0.9502002 nan
0.025780456 0.08557725 1.0825999 0.38356864 0.1453089 -0.91125298 nan
0.033986304 0.085238919 1.0863848 0.48060706 0.13664794 -0.8647545 nan
-0.0032642493 0.094710112 1.0854617 -0.65989923 0.16910675 -0.73047423 nan
0.0042997762 0.096472435 1.0810002 -0.43060565 0.1502894 -0.87786257 nan
0.016010303 0.096059047 1.0813637 0.18968272 0.14957139 -0.96446693 nan
0.025084205 0.094803631 1.0840588 0.38169786 0.16808666 -0.90843964 nan
0.032759566 0.094771571 1.0880003 0.46101677 0.18309537 -0.86785567 nan
-0.0020709524 0.10451096 1.0865002 -0.68382794 0.13134012 -0.71654695 nan
0.0049522454 0.10483924 1.0817618 -0.43075541 0.11271001 -0.8775894 nan
0.015453716 0.10507031 1.0816001 0.21580136 0.13401623 -0.95911139 nan
0.024836002 0.10451295 1.0865 0.42344055 0.18969339 -0.884839 nan
0.031085715 0.10051048 1.0880001 0.44883615 0.22305399 -0.86532736 nan
-0.0019562964 0.11445282 1.0870001 -0.70366925 0.11662202 -0.6997484 nan
0.0051497524 0.11441215 1.0822799 -0.42997572 0.14909254 -0.86713111 nan
0.0154736 0.11446995 1.0827999 0.27580118 0.18725064 -0.93026763 nan
0.022911323 0.11386583 1.0880002 0.45809063 0.21852051 -0.86142999 nan
0.0055202488 0.12473268 1.0846956 -0.35921189 0.31041116 -0.85966253 nan
0.014585621 0.12483008 1.0858999 0.20940278 0.32709724 -0.91049713 nan
0.0077714291 0.13211429 1.0880001 -0.19298735 0.32964933 -0.91508752 nan
0.012779683 0.132287 1.0880001 0.089946136 0.35510743 -0.92885017 nan
-0.014561203 -0.066314287 1.0961052 nan nan nan nan
-0.0064530158 -0.064429656 1.0923334 nan nan nan nan
0.047016911 -0.063901432 1.0910001 nan nan nan nan
0.055322036 -0.065075114 1.0940453 nan nan nan nan
0.063053973 -0.065142229 1.0973333 nan nan nan nan
-0.014056246 -0.05492549 1.0954118 -0.75120062 -0.12425368 -0.63669437 nan
-0.0074266666 -0.055248439 1.0915716 -0.6278798 -0.17747122 -0.75084776 nan
0.04791164 -0.055531323 1.0910001 0.38736144 -0.019367613 -0.91897804 nan
0.055219736 -0.055213489 1.0938399 0.53712213 -0.021289932 -0.83596927 nan
0.061697152 -0.055422854 1.098 0.71024013 0.032836292 -0.69627047 nan
-0.014439046 -0.045058101 1.0948948 -0.81248063 -0.07499408 -0.5777638 nan
-0.0087576872 -0.045272794 1.0910001 -0.74950737 -0.10297997 -0.65164244 nan
0.046905585 -0.044975922 1.091 0.54136568 -0.058349989 -0.8384788 nan
0.055169445 -0.044756573 1.0928799 0.56544524 -0.041744955 -0.82189101 nan
0.06162972 -0.044917714 1.0968001 0.66142696 -0.049026906 -0.74772942 nan
-0.014206786 -0.034266789 1.0944999 -0.81189001 -0.10290392 -0.57453662 nan
-0.0093514286 -0.035327625 1.0910001 -0.76715213 -0.10628023 -0.63237315 nan
0.048142545 -0.036020324 1.0910001 0.56512916 -0.08179599 -0.82086897 nan
0.055331275 -0.034514446 1.0926664 0.58309519 -0.043960683 -0.80991167 nan
0.061663438 -0.034490861 1.0974001 0.64379537 -0.0092027215 -0.76487255 nan
-0.016665833 -0.024992144 1.0933751 -0.81388545 -0.099744461 -0.57228994 nan
0.05538667 -0.025033485 1.092842 0.6198737 -0.020569777 -0.78372115 nan
0.061697148 -0.025097143 1.098 0.66172922 0.006799161 -0.74969798 nan
-0.016681332 -0.015632952 1.0943999 -0.81793565 -0.027666235 -0.57436538 nan
0.055167887 -0.015612685 1.0928397 0.62100106 -0.0015331375 -0.78254914 nan
0.061697152 -0.015685715 1.098 0.67217797 -0.012140852 -0.74011254 nan
-0.016678333 -0.0052110003 1.0941499 -0.81974405 -0.040682912 -0.57116193 nan
0.048142545 -0.0041561904 1.0910001 0.50338274 0.022977613 -0.8634268 nan
0.055095579 -0.0051975241 1.0914798 0.57373327 -0.02943939 -0.81469333 nan
0.06217429 -0.0043220408 1.0958573 0.68016499 -0.04350641 -0.73109275 nan
-0.01666124 0.0052064764 1.0930998 -0.81586838 -0.04248013 -0.57628173 nan
0.04883524 0.0010390477 1.0910001 0.48764089 0.010212827 -0.87298459 nan
0.055111736 0.0052014855 1.0917997 0.56081742 0.0025815798 -0.82343525 nan
0.062376074 0.0044353576 1.0961251 0.68240917 0.009512675 -0.73026311 nan
-0.016663954 0.015619476 1.09325 -0.81240696 0.02357371 -0.5823428 nan
0.04883524 0.019741906 1.0910001 0.50711483 0.080546595 -0.85810649 nan
0.05597017 0.015814237 1.0930475 0.60994011 0.079987243 -0.78661901 nan
0.061988577 0.014978096 1.0970001 0.66943467 0.074257791 -0.73898882 nan
-0.016683333 0.025017858 1.0945001 -0.81346828 0.015717093 -0.5812608 nan
0.048419625 0.025560573 1.0910001 0.50851786 0.1416382 -0.84888452 nan
0.055194866 0.024992762 1.0933999 0.59171623 0.12964165 -0.7934671 nan
-0.02196 0.034508575 1.098 -0.81136692 -0.0099769104 -0.58441722 nan
-0.016673049 0.034379143 1.0939001 -0.80888492 -0.00075773412 -0.58778363 nan
0.046905581 0.03458545 1.091 0.54849929 0.086463206 -0.83134609 nan
0.055121757 0.034255557 1.0954165 0.58504725 0.11747723 -0.80161774 nan
-0.021960001 0.044268575 1.098 -0.80599737 0.0060106134 -0.59155029 nan
-0.01600712 0.045106996 1.0947824 -0.78984779 0.036969151 -0.6111806 nan
0.046757143 0.044679049 1.091 0.58271486 0.047055282 -0.81096762 nan
0.054128878 0.044675037 1.0962631 0.60872465 0.082610078 -0.78858918 nan
-0.02196 0.055422857 1.098 -0.80927408 0.0094027454 -0.58731103 nan
-0.015635429 0.055220954 1.0939997 -0.78358787 0.012224155 -0.62032574 nan
-0.0093514286 0.052991431 1.0910001 -0.71143115 0.026282497 -0.70214385 nan
0.046931159 0.055396874 1.0915713 0.61703962 0.073782653 -0.78289908 nan
0.053275056 0.055363055 1.0968001 0.62497842 0.097845279 -0.77431196 nan
-0.015459048 0.06545572 1.0938332 -0.79361647 0.015437976 -0.60697782 nan
0.046123702 0.065887205 1.0923332 0.64577562 0.13108177 -0.75184178 nan
0.051518571 0.065092862 1.0965002 0.62696666 0.14148949 -0.76588672 nan
-0.015839364 0.074794464 1.0943809 -0.79084337 0.082329161 -0.60546833 nan
-0.0093514286 0.077928573 1.0910001 -0.70867711 0.12737305 -0.6939401 nan
0.038444765 0.071694292 1.0910001 0.52274758 0.15083194 -0.83903795 nan
0.044781905 0.074975997 1.0934 0.635602 0.12933818 -0.75991458 nan
0.051169999 0.074141428 1.0965 0.62943989 0.12129507 -0.76717639 nan
-0.014549122 0.083913833 1.0948946 -0.76832515 0.1382923 -0.62379336 nan
-0.0093514286 0.084162861 1.0910001 -0.70957989 0.16206299 -0.68563557 nan
0.038444765 0.085201912 1.0910001 0.53247172 0.12032915 -0.83779883 nan
0.044808753 0.084394291 1.0939999 0.61992055 0.084901884 -0.77924031 nan
-0.013254288 0.094539575 1.0963848 -0.754188 0.17576462 -0.63244426 nan
-0.0083192382 0.094624959 1.0918 -0.7203387 0.18069108 -0.66952956 nan
0.037521165 0.095015138 1.0910001 0.50091344 0.1777107 -0.84678125 nan
0.044849981 0.0949049 1.0950397 0.59149003 0.14959577 -0.79082787 nan
0.051240001 0.09097714 1.098 0.63808757 0.086943075 -0.76503932 nan
-0.011914858 0.10388857 1.0974001 -0.75233942 0.16137981 -0.63810533 nan
-0.0072935866 0.10519569 1.0936 -0.73559731 0.14667016 -0.66065067 nan
0.034596071 0.10540628 1.0920433 0.4827953 0.24563397 -0.83989972 nan
0.04346339 0.10441089 1.0963125 0.56794357 0.24253209 -0.78499174 nan
-0.011502858 0.11712001 1.098 -0.75480843 0.069839023 -0.65212905 nan
-0.0068838731 0.11570002 1.0944667 -0.74031848 0.10214167 -0.66410893 nan
0.026552293 0.11631872 1.0913635 0.48948067 0.21953005 -0.84359103 nan
0.034025468 0.1153864 1.0940434 0.51480508 0.22502746 -0.82662237 nan
0.042323574 0.11233786 1.09725 0.57238877 0.25862426 -0.7775147 nan
-0.011502858 0.12374286 1.098 -0.75072575 0.10766372 -0.65138531 nan
-0.0052204337 0.12510045 1.0946362 -0.68332362 0.17672491 -0.70512909 nan
0.0010390477 0.12884191 1.0910001 -0.56249714 0.27835125 -0.77850169 nan
0.019326288 0.12697163 1.0910001 0.39733693 0.28715584 -0.8706646 nan
0.024729101 0.12536457 1.0918888 0.43867519 0.22535995 -0.86883909 nan
0.033984765 0.12490858 1.0960001 0.52567017 0.15804322 -0.83493185 nan
-0.0039142258 0.13430494 1.0953126 -0.63966471 0.21354313 -0.73700684 nan
0.0045458339 0.13572557 1.0909998 -0.37962416 0.25698173 -0.86862099 nan
0.016082747 0.13556364 1.0914705 0.20427427 0.28151578 -0.93075776 nan
0.025246985 0.13491018 1.0943333 0.35454363 0.19671108 -0.91280854 nan
0.033657551 0.13447036 1.0961429 0.49235681 0.12688915 -0.85972744 nan
-0.023236193 -0.070764773 1.1090001 nan nan nan nan
0.059822857 -0.070318095 1.102 nan nan nan nan
0.061921902 -0.070318095 1.102 nan nan nan nan
-0.021335049 -0.066117533 1.1090001 nan nan nan nan
-0.018559683 -0.064782545 1.103 nan nan nan nan
0.067485854 -0.063573472 1.1047144 nan nan nan nan
0.071558677 -0.061846294 1.1082001 nan nan nan nan
-0.02218 -0.053865716 1.1090001 -0.85402071 -0.09848316 -0.51058221 nan
-0.019180954 -0.05648905 1.1035 -0.86246926 -0.096278481 -0.49538687 nan
0.066158161 -0.055478029 1.1050717 0.74401224 0.034772642 -0.65769082 nan
0.072642446 -0.054335136 1.1090001 0.63259751 -0.059064675 -0.7593891 nan
-0.02218 -0.045416195 1.1090001 -0.82777673 -0.06950935 -0.55643934 nan
-0.01959111 -0.044429839 1.1020001 -0.82102036 -0.070537105 -0.5663389 nan
0.066253521 -0.045219623 1.1041999 0.68103731 -0.051625758 -0.72964233 nan
0.072726279 -0.045114424 1.1090002 0.709822 -0.056839466 -0.70130938 nan
-0.022760682 -0.033916332 1.1078573 -0.81402427 -0.097873904 -0.57251096 nan
-0.019160595 -0.035433926 1.1023751 -0.81183016 -0.096188858 -0.57582653 nan
0.066229902 -0.034691617 1.1038001 0.67726386 0.0028335645 -0.73462373 nan
0.072860144 -0.034846924 1.1087335 0.71259952 0.0012093667 -0.70061558 nan
-0.023228193 -0.024282096 1.1086001 -0.81648868 -0.084979169 -0.57074851 nan
0.066241905 -0.025234286 1.104 0.6924178 0.016308039 -0.72080374 nan
0.071703613 -0.024527092 1.1090001 0.71916157 0.030123387 -0.69412208 nan
-0.023828382 -0.014337905 1.1070002 -0.8193801 -0.028808801 -0.57241637 nan
0.066258416 -0.015774732 1.1042668 0.71037614 0.0026717067 -0.70293206 nan
0.072173029 -0.014434603 1.1090001 0.73121858 0.02152751 -0.68143255 nan
-0.023487881 -0.0048882253 1.1071819 -0.81122506 -0.055023205 -0.5819627 nan
0.066626891 -0.00574718 1.105 0.7264719 -0.04358514 -0.68515617 nan
0.070764773 -0.0052809529 1.1090001 0.75308245 -0.031581115 -0.65696806 nan
-0.030629527 0.0073933336 1.1090001 -0.81207639 -0.067887686 -0.57958883 nan
-0.024749974 0.0056429692 1.1071175 -0.81231672 -0.048958637 -0.58044475 nan
0.066757768 0.0057828575 1.1038334 0.72490811 0.011928715 -0.6874966 nan
0.071938314 0.006454498 1.1090001 0.75745833 0.0040734117 -0.65247756 nan
-0.024654672 0.014816318 1.1060668 -0.80615902 0.017376577 -0.59087855 nan
0.06648571 0.016095102 1.1055714 0.70607311 0.061617035 -0.70466286 nan
0.072379366 0.013960529 1.1085557 0.74141127 0.037581634 -0.66974413 nan
-0.024249308 0.024243154 1.1068463 -0.80098045 0.02684835 -0.59765828 nan
0.065188266 0.025234105 1.1039375 0.68434131 0.084799565 -0.72288859 nan
0.071703605 0.024292383 1.1090001 0.7347272 0.062137134 -0.67519075 nan
-0.025015932 0.034787185 1.1069093 -0.79785156 -0.013654327 -0.60260528 nan
0.059822857 0.038832378 1.102 0.6419363 0.12661776 -0.75623125 nan
0.065246291 0.034726765 1.1048998 0.66790617 0.11730647 -0.73264426 nan
0.071368314 0.033948984 1.1090002 0.72575021 0.086740449 -0.68094039 nan
-0.025049601 0.045795534 1.1063848 -0.8044349 0.026322329 -0.59298736 nan
0.059500158 0.045851588 1.1025002 0.66841638 0.099569201 -0.73661494 nan
0.064746328 0.044917647 1.1058823 0.68180537 0.13673899 -0.71763504 nan
0.071820959 0.042247623 1.1090001 0.70312607 0.1516203 -0.69462132 nan
-0.024418812 0.055504054 1.1065835 -0.81532806 0.024016803 -0.57822919 nan
0.058805913 0.055656761 1.1026001 0.66750562 0.097058341 -0.73796433 nan
0.064416066 0.055702675 1.1063335 0.71128631 0.087349221 -0.69694012 nan
-0.024398319 0.06491407 1.106231 -0.81913847 0.027656997 -0.57271987 nan
0.056969527 0.065374851 1.1036001 0.6303761 0.14600161 -0.76179862 nan
0.065452047 0.064579554 1.1073529 0.70059037 0.098334894 -0.7053417 nan
-0.023691349 0.074571833 1.1054168 -0.80768061 0.055632602 -0.58684105 nan
0.055722807 0.074533239 1.1038946 0.64298904 0.1329935 -0.75359929 nan
0.062805876 0.074418262 1.1083336 0.67606449 0.16395095 -0.71814221 nan
-0.023190191 0.085375153 1.1066999 -0.79550904 0.10666533 -0.59585208 nan
-0.01924127 0.08676064 1.1020001 -0.77967495 0.13539982 -0.6104207 nan
0.054652374 0.085127153 1.1034999 0.66993797 0.068525717 -0.73856217 nan
0.061259057 0.085551441 1.1090001 0.71458018 0.097034387 -0.69256479 nan
-0.022857463 0.094241276 1.1076669 -0.78673267 0.14750642 -0.59918392 nan
-0.018397383 0.096184522 1.10375 -0.76269668 0.16869812 -0.62422192 nan
0.054973383 0.095491275 1.1043684 0.67497104 0.13425465 -0.72312135 nan
0.061047819 0.094845913 1.1090001 0.72376603 0.11333191 -0.6804229 nan
-0.021387858 0.10535501 1.1090001 -0.75785583 0.1258238 -0.63916361 nan
-0.01629905 0.10514285 1.1040001 -0.76092905 0.15275352 -0.62973142 nan
0.047950637 0.10675063 1.1025001 0.60708016 0.28217128 -0.74230021 nan
0.054838814 0.10492501 1.1072501 0.65390015 0.24735722 -0.71353853 nan
0.060202863 0.1003381 1.1090001 0.70901567 0.16604969 -0.68536431 nan
-0.021006456 0.11512477 1.1090001 -0.73580998 0.075662583 -0.67269546 nan
-0.015091217 0.11438128 1.1052221 -0.76098466 0.08466588 -0.64280528 nan
0.038832378 0.11859619 1.102 0.5454393 0.22166799 -0.80830646 nan
0.046119548 0.11543213 1.1044736 0.61578 0.2432331 -0.74837619 nan
0.053290956 0.11291143 1.108 0.6334191 0.27123874 -0.72450662 nan
-0.020067619 0.12568668 1.1090001 -0.73726571 0.14116041 -0.65978301 nan
-0.015291093 0.12532437 1.1047058 -0.75820553 0.12335162 -0.63923442 nan
0.038832378 0.12629271 1.102 0.5538649 0.12897776 -0.82145238 nan
0.045274928 0.12528005 1.1053997 0.63935918 0.14879376 -0.75214982 nan
0.051753335 0.12146191 1.1090001 0.65338492 0.18622707 -0.73376262 nan
-0.020067619 0.13202383 1.1090001 -0.74406415 0.20047212 -0.63732213 nan
-0.014568908 0.13517374 1.106294 -0.74603772 0.20451729 -0.63305265 nan
-0.0084058335 0.13657774 1.1031251 -0.69393247 0.19986546 -0.69160283 nan
0.038832378 0.13643809 1.102 0.5602178 0.10762667 -0.82118213 nan
0.04455081 0.13511208 1.10575 0.65270704 0.10953911 -0.74824536 nan
-0.023352856 -0.063685715 1.1145 nan nan nan nan
0.077520959 -0.061590474 1.1150001 nan nan nan nan
0.082902864 -0.064834289 1.1160001 nan nan nan nan
-0.023717143 -0.055572383 1.1150001 -0.85537672 -0.087725744 -0.50856102 nan
0.07598491 -0.055962041 1.1147144 nan nan nan nan
-0.025482286 -0.045654863 1.1148001 -0.83512747 -0.086614393 -0.54274023 nan
0.078015238 -0.045911111 1.1153334 0.709153 -0.075688519 -0.70028955 nan
-0.026714286 -0.035380956 1.1145 -0.80982327 -0.10395627 -0.57707179 nan
0.07839302 -0.034542222 1.114 0.71133679 0.0016072964 -0.70151025 nan
-0.030822858 -0.02232 1.1160001 -0.75097126 -0.06156322 -0.6573019 nan
-0.027598573 -0.024412859 1.1145 -0.81181526 -0.082435064 -0.57728046 nan
0.076864891 -0.024711022 1.1142858 0.7053746 0.035017774 -0.70762479 nan
0.081840008 -0.028697144 1.1160001 0.74893719 0.025750672 -0.66214049 nan
-0.030822858 -0.013817145 1.1160001 -0.79766601 -0.021660857 -0.60193062 nan
-0.027926192 -0.015554762 1.1135 -0.82986736 -0.030880064 -0.55697399 nan
0.077284753 -0.014747618 1.1150001 0.69990802 0.043692097 -0.71241701 nan
-0.031430207 -0.0044032652 1.1160002 -0.81669182 -0.05683941 -0.57317889 nan
-0.02767778 -0.0057711117 1.113 -0.83629549 -0.047976855 -0.54590458 nan
0.076093815 -0.0055439691 1.1148335 0.7345233 0.0023644485 -0.67757452 nan
-0.031994604 0.0050752386 1.1156669 -0.79907161 -0.085556112 -0.59419745 nan
-0.028620001 0.00318 1.1130002 -0.83679265 -0.078624442 -0.54180217 nan
0.07653033 0.0046564844 1.1148462 0.75051796 -0.021600846 -0.66011137 nan
-0.031865001 0.014871428 1.1152501 -0.7891019 -0.017145066 -0.61289883 nan
-0.028620001 0.016959999 1.113 -0.80636096 0.015596047 -0.59100813 nan
0.077049203 0.015218732 1.1150001 0.72720718 0.0098218443 -0.6857717 nan
-0.031177144 0.024091428 1.1160002 -0.8005743 0.035069346 -0.59749901 nan
-0.028266668 0.025086669 1.113 -0.80199516 0.018937154 -0.59668827 nan
0.076318957 0.024989614 1.1143637 0.72445023 0.085094512 -0.68277466 nan
-0.030822858 0.03507429 1.1160001 -0.82605916 -0.0059181433 -0.56352383 nan
-0.028620003 0.034979999 1.113 -0.81109965 -0.012295551 -0.58475173 nan
0.07535325 0.035409871 1.1143638 0.73479325 0.09466777 -0.67020005 nan
-0.031163335 0.045682382 1.1155001 -0.824166 0.042036515 -0.56435758 nan
-0.028620001 0.044520002 1.113 -0.81765747 0.041321564 -0.57374138 nan
0.068900004 0.047699999 1.1130002 0.70610762 0.13537823 -0.69493002 nan
0.073047504 0.046484642 1.1156251 0.7131052 0.14234121 -0.68619567 nan
-0.030822858 0.055268575 1.1160001 -0.82563829 0.043718047 -0.56236756 nan
-0.028620001 0.055119999 1.113 -0.82971489 0.041976728 -0.55647773 nan
0.068900004 0.054060005 1.1130002 0.71709311 0.11552781 -0.68720019 nan
0.071598284 0.054602858 1.1154002 0.7221036 0.11442228 -0.68143457 nan
-0.030822858 0.064834289 1.1160001 -0.82868618 0.0075879539 -0.55939287 nan
-0.028620003 0.064660005 1.113 -0.82916784 0.0059923497 -0.55871093 nan
0.068900004 0.068900004 1.113 0.7032634 0.11977737 -0.70076668 nan
0.071682051 0.065013483 1.1138572 0.73552626 0.067941725 -0.6731618 nan
-0.027873216 0.075651787 1.1148751 -0.80967057 0.043769468 -0.58494985 nan
0.067216106 0.076473251 1.1138182 0.68673867 0.16655545 -0.70736766 nan
0.071695 0.072757863 1.1152501 0.71146286 0.15774086 -0.68445837 nan
-0.030822858 0.087154284 1.1160001 -0.82452536 0.11736559 -0.55327696 nan
-0.027579287 0.084855713 1.11375 -0.79888928 0.10356463 -0.5919348 nan
0.06581001 0.084914282 1.1145 0.70924342 0.12319805 -0.69349593 nan
-0.030822858 0.090342864 1.1160001 -0.82249177 0.13349617 -0.55288887 nan
-0.026741717 0.094442867 1.1142 -0.79625392 0.1458648 -0.58698797 nan
0.064926013 0.094414584 1.1139001 0.72239608 0.10821918 -0.68265355 nan
-0.025218215 0.10485179 1.1148751 -0.78521562 0.094332308 -0.610156 nan
0.0583 0.10918 1.113 0.66018802 0.26087052 -0.70434254 nan
0.062435001 0.10488121 1.1142501 0.68099177 0.1959019 -0.70451319 nan
-0.024391904 0.11488526 1.1135001 -0.74250364 0.048830368 -0.66777921 nan
0.055999435 0.11645086 1.1136001 0.64240044 0.24393463 -0.72627509 nan
0.061645716 0.11266286 1.1160001 0.64090002 0.24671648 -0.72681844 nan
-0.023196736 0.12385798 1.1142858 -0.72955996 0.14040405 -0.66818964 nan
0.05547161 0.12473768 1.1146874 0.64869124 0.17751652 -0.73956394 nan
-0.021502502 0.13564178 1.1148751 -0.75468981 0.20916824 -0.62148333 nan
0.049819998 0.13780001 1.113 0.68430316 0.094929099 -0.72298503 nan
0.053802423 0.13429825 1.1143847 0.66152942 0.11310133 -0.74121231 nan
-0.033233162 -0.063829005 1.1255455 nan nan nan nan
-0.027614815 -0.064592592 1.12 nan nan nan nan
0.086102284 -0.062754095 1.1244 nan nan nan nan
-0.032900006 -0.054170482 1.1254616 -0.71003479 -0.047314174 -0.68686914 nan
-0.027851854 -0.054874074 1.12 -0.80360144 -0.061336771 -0.58764458 nan
0.083553694 -0.054742958 1.1224211 nan nan nan nan
-0.032964241 -0.044629354 1.1230001 -0.74563712 -0.11952278 -0.65415424 nan
-0.0288 -0.044799998 1.12 -0.8098582 -0.10925445 -0.5763222 nan
0.084095873 -0.04492902 1.1214666 0.76192778 -0.066092409 -0.64366037 nan
-0.041860003 -0.032200001 1.1270001 nan nan nan nan
-0.034440953 -0.034648482 1.1229 -0.71519148 -0.20079683 -0.66154712 nan
-0.0288 -0.037333332 1.12 -0.7987116 -0.13927031 -0.58537477 nan
0.085266203 -0.035478003 1.1223811 0.7732802 -0.02088639 -0.63224727 nan
-0.041860007 -0.025402224 1.1270001 -0.80155933 -0.034668248 -0.59270352 nan
-0.035882037 -0.024888963 1.1229546 -0.7260564 -0.028698182 -0.68164796 nan
0.085207626 -0.024089526 1.1229523 0.76312441 0.031515256 -0.64480102 nan
-0.035569146 -0.015466668 1.1225334 -0.76678389 0.021302406 -0.63950497 nan
0.084935173 -0.015204815 1.1225001 0.76124609 0.0294868 -0.64696318 nan
-0.035566665 -0.0058311364 1.1211538 -0.79168624 -0.040377408 -0.60892856 nan
0.085053496 -0.0051517747 1.1226364 0.7763505 0.067206927 -0.62502605 nan
-0.03726279 0.0056489124 1.1223572 -0.8051073 -0.11339078 -0.58159417 nan
0.083797202 0.0052291537 1.1231667 0.7754674 -0.025096711 -0.6294843 nan
-0.042289335 0.015670668 1.1270001 -0.76722574 -0.13793759 -0.62292236 nan
-0.037368573 0.014946667 1.1210001 -0.77005625 -0.040089685 -0.63311285 nan
0.084927663 0.015201746 1.122389 0.77466518 0.00099217985 -0.62656003 nan
-0.041860007 0.022540001 1.1270001 -0.6991567 0.064028494 -0.70946312 nan
-0.036478698 0.024674186 1.1212633 -0.73981583 0.072249353 -0.66715318 nan
0.077866666 0.022400001 1.12 0.72530711 0.1036582 -0.68057668 nan
0.083852343 0.024171 1.1229501 0.76480663 0.14281623 -0.62514222 nan
-0.041860003 0.039713338 1.1270001 -0.78471094 -0.026514826 -0.61929452 nan
-0.03631809 0.035247143 1.1214999 -0.77394348 0.013999566 -0.63168734 nan
0.077866666 0.036266666 1.12 0.7563349 0.10965087 -0.64469779 nan
0.082240619 0.035309188 1.1235001 0.78519076 0.084613815 -0.61239481 nan
-0.041860003 0.042933337 1.1270001 -0.76382858 -0.055104569 -0.64264768 nan
-0.036559936 0.04482381 1.1223334 -0.77432406 0.053478625 -0.62843901 nan
0.07715556 0.045511112 1.12 0.73897922 0.14697605 -0.65730596 nan
0.082392856 0.04494191 1.1235001 0.7525425 0.11656027 -0.64708126 nan
-0.035576131 0.054293513 1.1233124 -0.77489066 0.064333543 -0.6269539 nan
0.076140881 0.05495099 1.1211538 0.74345165 0.12874873 -0.65537137 nan
0.081835032 0.053248364 1.1256667 0.73588288 0.14348443 -0.6612888 nan
-0.036228977 0.065518096 1.1238947 -0.77733481 -0.010954555 -0.62771583 nan
0.076283962 0.065090261 1.1232308 0.75530791 0.051847007 -0.6531145 nan
0.080500007 0.06547334 1.1270001 0.74834293 0.052264936 -0.66124952 nan
-0.035266668 0.074799813 1.1220001 -0.79575175 0.045929454 -0.6020537 nan
0.075682059 0.075324126 1.1218333 0.72154546 0.14963758 -0.6756646 nan
0.081167944 0.074373975 1.1263335 0.73713893 0.11816907 -0.66471225 nan
-0.035683937 0.084241621 1.123348 -0.81566322 0.11268639 -0.56539875 nan
0.069333337 0.085333332 1.12 0.72458625 0.14805463 -0.67245376 nan
0.07411363 0.084277794 1.1236875 0.71657145 0.17345181 -0.67513138 nan
-0.033971846 0.094946265 1.1233125 -0.81618416 0.14430204 -0.55880868 nan
-0.0288 0.098133333 1.12 -0.80097258 0.15422294 -0.57837713 nan
0.06872382 0.095847622 1.12 0.74194735 0.099701867 -0.66275781 nan
0.073777959 0.095663279 1.125 0.74346548 0.093186304 -0.66178024 nan
-0.032290857 0.104988 1.1226001 -0.80949843 0.033715893 -0.5831818 nan
-0.028190479 0.10590477 1.12 -0.79600149 0.057158846 -0.60049134 nan
0.067655414 0.10589577 1.1210909 0.70226306 0.1586152 -0.69265932 nan
0.073724248 0.10527439 1.1248183 0.73127699 0.10009404 -0.67445523 nan
-0.034507036 0.11552069 1.1242778 -0.69728941 -0.19838926 -0.66514176 nan
-0.027885715 0.11504762 1.12 -0.7471329 0.030252367 -0.66298902 nan
0.066146389 0.11551513 1.1212353 0.64805657 0.22759527 -0.72617728 nan
0.073186591 0.11489499 1.1255455 0.68453473 0.17628734 -0.70630211 nan
-0.043980639 0.12300255 1.1263335 nan nan nan nan
-0.034735601 0.1246977 1.1245714 -0.50137895 0.23075007 -0.77039754 nan
-0.027225239 0.12544715 1.1210001 -0.72136509 0.20811318 -0.65551186 nan
0.058666665 0.12693334 1.12 0.66984695 0.18008159 -0.72033024 nan
0.064892918 0.12488961 1.1233045 0.65177846 0.21520877 -0.72681868 nan
0.071913332 0.12128668 1.1270001 0.65068358 0.2123889 -0.72904176 nan
-0.0318054 0.13257937 1.1256669 -0.66567057 0.432841 -0.60666031 nan
-0.026768733 0.13490319 1.1241667 -0.78127074 0.22584894 -0.58078945 nan
0.057981752 0.13588366 1.1205001 0.69717491 0.11507073 -0.70730537 nan
0.063988447 0.13460268 1.1234667 0.70264924 0.14951359 -0.69474316 nan
-0.037340954 -0.064987622 1.131 nan nan nan nan
0.09381032 -0.062537625 1.1321667 nan nan nan nan
-0.043702856 -0.054491907 1.1329999 nan nan nan nan
-0.038238574 -0.055472862 1.1310003 nan nan nan nan
0.089402854 -0.054934289 1.131 0.75551492 0.088276923 -0.62986863 nan
0.094531655 -0.055113725 1.134706 nan nan nan nan
0.10838096 -0.050939046 1.138 nan nan nan nan
-0.044496555 -0.044991508 1.1352307 nan nan nan nan
-0.038418096 -0.045599051 1.1310002 -0.63997191 -0.0066874786 -0.75803757 nan
0.089402854 -0.046317145 1.131 0.76395363 -0.070559137 -0.64113951 nan
0.094944954 -0.045634098 1.1354002 0.6716311 -0.0048266868 -0.70784414 nan
0.10502068 -0.046558104 1.1368573 nan nan nan nan
-0.044491664 -0.035843574 1.1347499 nan nan nan nan
-0.038992573 -0.038130861 1.131 -0.69712824 -0.26726678 -0.64632106 nan
0.094007753 -0.035654858 1.1345335 0.81052983 -0.020701187 -0.5724895 nan
0.1029619 -0.031430475 1.138 nan nan nan nan
-0.050760005 -0.023760002 1.1340001 nan nan nan nan
-0.045897651 -0.024694286 1.1331177 nan nan nan nan
0.094764069 -0.025099842 1.1349447 0.74419194 0.029084848 -0.65401572 nan
0.10476825 -0.025650159 1.138 nan nan nan nan
-0.050939046 -0.015173333 1.138 nan nan nan nan
-0.045320541 -0.015104583 1.1329376 nan nan nan nan
-0.039854284 -0.012925714 1.131 -0.74788833 0.10608102 -0.65224242 nan
0.094047308 -0.015132065 1.135 0.81157988 0.032652758 -0.58167768 nan
-0.052022856 -0.0032514285 1.138 nan nan nan nan
-0.045224816 -0.005176892 1.1347896 nan nan nan nan
-0.039854284 -0.005385715 1.131 -0.80356199 -0.019142946 -0.59382486 nan
0.09394826 -0.0064920643 1.1360002 0.80644095 0.10193242 -0.57469481 nan
-0.051480949 0.0027095238 1.138 nan nan nan nan
-0.045221806 0.0051726815 1.1346844 nan nan nan nan
-0.039854284 0.0010771429 1.131 -0.80799621 -0.050510604 -0.58701855 nan
0.089402854 0.0053857146 1.131 0.79756969 -0.017532485 -0.59790581 nan
0.094596662 0.0060904757 1.1367502 0.61665714 -0.16061959 -0.70563716 nan
0.10296191 0.0075866664 1.1380001 nan nan nan nan
-0.05300381 0.016222859 1.1357778 nan nan nan nan
-0.046601564 0.01481091 1.1330912 -0.65932316 -0.32125717 -0.64784014 nan
0.09402442 0.014442079 1.1347275 nan nan nan nan
0.10187809 0.011921904 1.138 nan nan nan nan
-0.053661592 0.024851009 1.1344446 nan nan nan nan
-0.045854967 0.025179327 1.1320591 -0.55644196 0.16918603 -0.78990752 nan
0.089462139 0.025870714 1.1317501 0.79724765 0.21465811 -0.56377006 nan
0.093053818 0.024888664 1.1361001 nan nan nan nan
-0.052487351 0.033907756 1.138 nan nan nan nan
-0.045169301 0.035127845 1.1338825 -0.68378973 0.062773719 -0.69227487 nan
0.088139743 0.035588574 1.1323637 0.77829111 0.073353663 -0.6178301 nan
0.095019333 0.035128437 1.1374289 nan nan nan nan
0.10166132 0.036199238 1.138 nan nan nan nan
-0.05293905 0.04473361 1.1377146 nan nan nan nan
-0.0459962 0.045268957 1.1336 -0.65372837 -0.095381871 -0.73146814 nan
0.088444285 0.045300003 1.1325001 0.75349683 0.080488473 -0.65035832 nan
0.094064943 0.042845547 1.1376365 0.61704278 0.16152437 -0.73462707 nan
-0.051933337 0.055177152 1.136 nan nan nan nan
-0.045326293 0.055036861 1.1331003 -0.46867606 0.093065254 -0.86413622 nan
-0.039854284 0.056011431 1.131 -0.72408652 0.064032651 -0.68536645 nan
0.08688958 0.055857562 1.1333125 0.73739702 0.14080659 -0.65998423 nan
0.092485085 0.054913022 1.138 0.74114621 0.12044962 -0.65764844 nan
-0.051661588 0.064306028 1.138 nan nan nan nan
-0.045375001 0.064814284 1.13425 -0.6104607 0.049293365 -0.77643299 nan
-0.039854284 0.061397146 1.131 -0.7395823 -0.036925752 -0.67205244 nan
0.085483856 0.064919144 1.1331054 0.74303776 0.047124892 -0.666857 nan
0.092557333 0.064378284 1.138 0.67779821 0.040906299 -0.7312271 nan
0.10716974 0.063868999 1.1366667 nan nan nan nan
-0.050939046 0.07153143 1.138 nan nan nan nan
-0.044811092 0.07416942 1.1344706 -0.73673308 0.14658847 -0.64417183 nan
0.086707987 0.074594453 1.133278 0.75406861 0.10688356 -0.64618045 nan
0.092123821 0.072615236 1.138 0.73599005 0.11741468 -0.66489136 nan
-0.043119688 0.08491651 1.135 -0.81572747 0.19187222 -0.54462737 nan
0.078631431 0.086171426 1.131 0.70800734 0.18585968 -0.68111825 nan
0.084793903 0.085085846 1.1347729 0.73254621 0.19192696 -0.65226489 nan
-0.042702097 0.094724953 1.138 -0.80275643 0.12214684 -0.58252972 nan
-0.038830005 0.095992863 1.1325001 -0.81681573 0.13940917 -0.55887508 nan
0.078200571 0.094142295 1.131 0.73492575 0.11814874 -0.66669691 nan
0.084131122 0.094941534 1.1354001 0.74133891 0.12806006 -0.65782881 nan
-0.041339591 0.10543918 1.138 -0.76191896 -0.010871185 -0.64058846 nan
-0.037535716 0.10462143 1.1325001 -0.79991096 0.020310003 -0.5939362 nan
0.078341901 0.10421525 1.1320002 0.75090802 0.083392411 -0.6550377 nan
0.083358102 0.10500635 1.1366667 0.75758511 0.095993377 -0.64547181 nan
-0.044474833 0.11658436 1.1350001 nan nan nan nan
-0.038812384 0.11319906 1.1320002 -0.73108518 -0.35405788 -0.57078153 nan
0.077743508 0.1151162 1.1320002 0.73136771 0.14672674 -0.66457385 nan
0.082090378 0.11525948 1.1357777 0.75172275 0.12829481 -0.64600778 nan
-0.044581428 0.12547478 1.1325001 nan nan nan nan
-0.038830005 0.12835 1.1325001 nan nan nan nan
0.075392514 0.12556073 1.1328751 0.68677288 0.23450157 -0.68635666 nan
0.081960633 0.12420508 1.1373334 0.71872252 0.20724332 -0.66246974 nan
-0.044280004 0.13068001 1.1340001 nan nan nan nan
-0.035302784 0.13547274 1.1337693 nan nan nan nan
0.073866934 0.13460039 1.1349527 0.70108539 0.22637475 -0.67299455 nan
0.081285715 0.13222477 1.138 0.68295467 0.29384369 -0.6686908 nan
0.099320002 -0.062211428 1.146 nan nan nan nan
0.10150286 -0.062211428 1.146 nan nan nan nan
0.098973334 -0.055468574 1.1420001 nan nan nan nan
0.1035176 -0.055060446 1.1425335 nan nan nan nan
0.099320002 -0.041474286 1.146 0.81691599 0.21294886 -0.52573359 nan
0.10363457 -0.042106397 1.1420002 nan nan nan nan
0.099059999 -0.034837145 1.143 nan nan nan nan
0.10275295 -0.035599731 1.1425717 nan nan nan nan
0.098973334 -0.022840001 1.1420001 0.61945015 0.18120146 -0.76270401 nan
0.10312607 -0.024026498 1.1420002 nan nan nan nan
-0.051118098 -0.011963811 1.1420001 nan nan nan nan
0.098973334 -0.015226668 1.1420001 0.72893447 0.050928451 -0.67167193 nan
0.10359525 -0.015263811 1.145 nan nan nan nan
-0.051207621 -0.0087180957 1.1440001 nan nan nan nan
-0.04894286 -0.0097885719 1.1420001 nan nan nan nan
0.097657144 -0.0038071428 1.1425 nan nan nan nan
0.1035045 -0.0057665315 1.1457143 nan nan nan nan
-0.052982587 0.0076133348 1.1420002 nan nan nan nan
-0.04894286 0.0097885719 1.1420001 -0.70783609 0.2829265 -0.64724082 nan
0.098429523 0.0027190477 1.1420001 nan nan nan nan
0.10324915 0.0024011431 1.146 nan nan nan nan
-0.05329334 0.011963811 1.1420001 nan nan nan nan
0.098172575 0.016762286 1.1428002 nan nan nan nan
0.1030962 0.016050477 1.1425002 nan nan nan nan
0.09788572 0.025015239 1.1420001 nan nan nan nan
0.10150286 0.020737143 1.146 nan nan nan nan
-0.055544283 0.035938576 1.1435001 nan nan nan nan
-0.04894286 0.035891429 1.1420001 -0.54275495 0.13860996 -0.82837451 nan
0.097885713 0.031540956 1.1420001 nan nan nan nan
-0.056657143 0.04031238 1.1440001 nan nan nan nan
0.097156666 0.04626381 1.1430001 0.70812058 0.26912975 -0.62714821 nan
0.10259544 0.041608002 1.1436001 nan nan nan nan
-0.05546857 0.055468578 1.1420001 nan nan nan nan
0.096431628 0.054636575 1.1428002 0.76648659 0.051354803 -0.63674706 nan
0.10810935 0.05894896 1.1420001 nan nan nan nan
-0.054743499 0.06598223 1.1420002 nan nan nan nan
0.097037718 0.064542867 1.1448001 0.52788442 -0.0091980873 -0.82417548 nan
0.10388175 0.066252641 1.1438183 nan nan nan nan
-0.053553656 0.075339057 1.1436667 nan nan nan nan
-0.04894286 0.077220961 1.1420001 -0.71255893 0.29823539 -0.63165492 nan
0.095192775 0.07493259 1.1436001 0.72343349 0.19756715 -0.64586794 nan
0.10579162 0.07089334 1.1452001 nan nan nan nan
-0.051297143 0.085131437 1.146 nan nan nan nan
-0.047898099 0.08491049 1.143 -0.75250989 0.21340045 -0.61929053 nan
0.092611432 0.084982857 1.1440001 0.77160686 0.17816946 -0.60687792 nan
-0.051297139 0.094954289 1.146 nan nan nan nan
-0.047019325 0.094967075 1.1442858 -0.68871558 0.00067115657 -0.70329601 nan
0.088097148 0.098973334 1.1420001 0.73492372 0.096124433 -0.67130262 nan
0.091249041 0.095063336 1.1440001 0.74123043 0.13106236 -0.65760696 nan
-0.051297143 0.10477714 1.146 nan nan nan nan
-0.046355434 0.10554884 1.1425335 nan nan nan nan
0.088174291 0.10450382 1.1430001 0.74876112 0.12717411 -0.65010369 nan
0.090588577 0.10259429 1.146 0.71684933 0.15426476 -0.67941928 nan
-0.051225532 0.11443543 1.1444 nan nan nan nan
-0.048059598 0.11368954 1.1431429 nan nan nan nan
0.087301813 0.11490561 1.1442223 0.75713116 0.091089778 -0.6459077 nan
0.085885726 0.12533981 1.1444 0.7192921 0.1879482 -0.66650313 nan
-0.042256668 0.13522096 1.145 nan nan nan nan
0.082877144 0.1352181 1.145 0.68180823 0.24918517 -0.68595397 nan
-0.058047622 0.029571431 1.1500001 nan nan nan nan
-0.058047622 0.031761907 1.1500001 nan nan nan nan
0.099666677 0.049285717 1.1500001 0.78980809 -0.00015161728 -0.61335403 nan
0.10459544 0.046488378 1.1512002 nan nan nan nan
0.099666677 0.056952387 1.1500001 0.7314133 0.19264688 -0.64763606 nan
0.10477206 0.0548115 1.1510713 nan nan nan nan
0.11178643 0.055892147 1.15075 nan nan nan nan
0.098936521 0.066079371 1.1500001 0.47581324 0.076219954 -0.84879827 nan
0.10295239 0.060238097 1.1500001 -0.073978677 -0.50570929 -0.65682238 nan
-0.055857148 0.079952382 1.1500001 nan nan nan nan
0.098614767 0.0763354 1.1505001 0.69778633 0.28194186 -0.64442253 nan
0.10527169 0.075667217 1.1514167 nan nan nan nan
0.11061905 0.074476197 1.1500001 nan nan nan nan
-0.054816555 0.085513219 1.151125 nan nan nan nan
0.097834498 0.085404672 1.1513333 0.78654122 0.18109784 -0.58569181 nan
0.10184748 0.085161515 1.1570002 nan nan nan nan
-0.054791052 0.095333718 1.1506001 nan nan nan nan
0.096490763 0.095079727 1.1512856 0.7491129 0.064608097 -0.65545416 nan
0.10279197 0.095550887 1.1570002 nan nan nan nan
-0.054396834 0.10514288 1.1500001 nan nan nan nan
0.095928207 0.10555436 1.1518332 0.61241603 0.09671703 -0.77226049 nan
0.10490613 0.10429398 1.1567776 nan nan nan nan
-0.054761909 0.1117143 1.1500001 nan nan nan nan
0.094727218 0.11468241 1.1520475 0.65517229 0.15284032 -0.72450036 nan
0.10357904 0.1134962 1.1570001 nan nan nan nan
0.088714294 0.12704763 1.1500001 0.74012876 0.18637854 -0.64576137 nan
0.094707347 0.12495572 1.1538821 0.74116921 0.11687194 -0.65739226 nan
0.094011277 0.13489822 1.1548822 0.66459411 0.19677514 -0.71580034 nan
0.10722885 0.085559055 1.1624287 nan nan nan nan
0.11193366 0.08754953 1.1636667 nan nan nan nan
0.10705325 0.094588839 1.1610003 nan nan nan nan
0.11167714 0.095091432 1.161 nan nan nan nan
0.10946572 0.10062 1.161 nan nan nan nan
0.11167714 0.10062 1.161 nan nan nan nan
0.10583307 0.11753838 1.1627145 nan nan nan nan
0.11206191 0.11871905 1.1650001 nan nan nan nan
0.10536317 0.1253242 1.1645204 nan nan nan nan
0.11235029 0.12564172 1.1634001 nan nan nan nan
