# .PCD v0.7 - Point Cloud Data file format
VERSION 0.7
FIELDS x y z normal_x normal_y normal_z curvature
SIZE 4 4 4 4 4 4 4
TYPE F F F F F F F
COUNT 1 1 1 1 1 1 1
WIDTH 678
HEIGHT 1
VIEWPOINT 0 0 0 1 0 0 0
POINTS 678
DATA ascii
0.016457777 -0.06280826 1.0580002 nan nan nan nan
0.022145718 -0.063420959 1.0570002 nan nan nan nan
0.01735344 -0.055866886 1.0580002 nan nan nan nan
0.023435179 -0.054593146 1.0576004 0.15525791 -0.16779116 -0.92145199 nan
0.018137144 -0.045342863 1.0580002 -0.35018814 -0.093062803 -0.92996407 nan
0.02515322 -0.045270633 1.0563203 0.20080203 -0.18607304 -0.91823876 nan
0.031236196 -0.045342859 1.0580001 0.66716129 -0.20812123 -0.71231025 nan
0.016415073 -0.034668744 1.0578239 -0.39027384 -0.03259901 -0.91925508 nan
0.02513002 -0.035182435 1.0554802 0.11564171 -0.090915523 -0.94787854 nan
0.031557307 -0.034580164 1.0575001 0.65828538 -0.10152101 -0.74516577 nan
0.016870832 -0.025432382 1.0576253 -0.39679241 0.0030503629 -0.91766763 nan
0.025119049 -0.025119049 1.0550002 0.06321878 0.00033102519 -0.96074158 nan
0.032199528 -0.02515476 1.0565001 0.62408966 -0.063540906 -0.77670491 nan
0.01611889 -0.014216562 1.0578337 -0.37576243 -0.011308981 -0.92579538 nan
0.025152421 -0.015091317 1.0564402 0.020013925 0.018856527 -0.97836101 nan
0.031811979 -0.014250615 1.0580001 0.48789436 -0.054535497 -0.86969316 nan
0.015663898 -0.0050380952 1.0580004 -0.3328875 -0.028337566 -0.942011 nan
0.025149904 -0.0050313524 1.0564404 -0.025211031 -0.040782765 -0.98525929 nan
0.033427443 -0.0051535126 1.0555627 0.47452512 -0.087868303 -0.86802918 nan
0.015920384 0.0049373326 1.0580004 -0.33619606 0.021269178 -0.94057316 nan
0.025133677 0.0050267815 1.0557202 -0.071912043 -0.013882459 -0.98279244 nan
0.033025641 0.0053380225 1.0556926 0.39375347 -0.051963653 -0.9107061 nan
0.017297462 0.014946351 1.0580003 -0.38702267 0.10112854 -0.91520256 nan
0.025126249 0.015077257 1.0553602 -0.12596211 0.063981444 -0.97564656 nan
0.034419578 0.015699288 1.0566503 0.38909292 -0.025715331 -0.91021883 nan
0.017633334 0.021663811 1.0580001 -0.39463747 0.2077572 -0.89490104 nan
0.026043279 0.024145717 1.0563337 -0.1733723 0.17959847 -0.96291786 nan
0.034467526 0.024975287 1.0570003 0.28831041 0.056085825 -0.93826485 nan
0.028316088 0.035704661 1.0576668 -0.22335297 0.074626818 -0.97007328 nan
0.035057306 0.03539199 1.0567504 0.25600803 0.046435308 -0.93441153 nan
0.026937019 0.04614896 1.0580003 -0.22581537 0.031432934 -0.97219312 nan
0.034712777 0.045154333 1.0578641 0.2225384 0.045166746 -0.94776851 nan
0.028885081 0.054747306 1.0580001 -0.15422502 0.093488 -0.98299265 nan
0.033725604 0.055774681 1.0580003 0.12030322 0.08845441 -0.9772377 nan
0.029220957 0.064823501 1.0580001 -0.13056171 0.1283085 -0.9829582 nan
0.033251435 0.064212821 1.0580002 0.066022001 0.14159456 -0.97939461 nan
-0.0010171429 -0.060011432 1.0680001 nan nan nan nan
0.0047175349 -0.063530758 1.0668236 nan nan nan nan
0.011125715 -0.063721918 1.0620002 nan nan nan nan
0.027585791 -0.064624473 1.0666153 nan nan nan nan
0.032403268 -0.064661235 1.0680001 nan nan nan nan
-0.0035208792 -0.054378025 1.068 -0.33494294 -0.21117237 -0.91518933 nan
0.0053343275 -0.055453084 1.0653912 -0.42867094 -0.11437371 -0.88865632 nan
0.013897979 -0.055343226 1.061375 -0.42957327 0.13380592 -0.87443525 nan
0.027750373 -0.056509953 1.0616667 0.66985226 -0.29599193 -0.66993952 nan
0.032477502 -0.054807503 1.065625 0.74641144 -0.32042146 -0.58169907 nan
-0.0040678103 -0.045755815 1.0676001 -0.40592083 -0.066680782 -0.90905619 nan
0.0050677336 -0.045620564 1.0644798 -0.36962885 -0.065192565 -0.9257971 nan
0.013138288 -0.045480765 1.0612 -0.43342361 -0.065927058 -0.89830065 nan
0.035505787 -0.0450681 1.0650715 0.75179636 -0.18223052 -0.63133669 nan
-0.0040683816 -0.035592582 1.0678002 -0.42127186 -0.010520085 -0.90458852 nan
0.005064914 -0.035470322 1.0640799 -0.40371001 -0.0042728153 -0.91438824 nan
0.012378335 -0.036629766 1.061 -0.43599921 -0.036593273 -0.89832836 nan
0.035634834 -0.035774425 1.0645714 0.73760355 -0.12079527 -0.66383308 nan
-0.012544762 -0.02610667 1.0680001 -0.51005995 -0.033913448 -0.85902566 nan
-0.0049161916 -0.025259051 1.0680003 -0.40873069 0.013587676 -0.91140056 nan
0.0050674295 -0.025352379 1.0647999 -0.40608746 0.014298989 -0.91268492 nan
0.012016932 -0.024820745 1.0613333 -0.46774939 0.0053159469 -0.88351983 nan
0.037177365 -0.024858391 1.0637693 0.71200603 -0.11425479 -0.69196975 nan
-0.0044076196 -0.015741495 1.0680002 -0.43710932 0.021670984 -0.89784098 nan
0.0050651049 -0.015208343 1.0645999 -0.41967082 -0.055202812 -0.90512997 nan
0.012558777 -0.017466804 1.0610001 -0.44333911 -0.012762158 -0.89517319 nan
0.036789682 -0.015524287 1.0630556 0.65840846 -0.099222384 -0.7428534 nan
0.041702859 -0.016274286 1.0680001 0.73909348 -0.11177869 -0.6642158 nan
-0.0040674289 -0.0050838101 1.0672001 -0.50607729 -0.051990937 -0.86039746 nan
0.0050577531 -0.0050618672 1.0627998 -0.43239987 -0.075690769 -0.89770269 nan
0.01111524 -0.0050523817 1.0610001 -0.36012256 -0.04898423 -0.93103778 nan
0.038547516 -0.0048344978 1.062 0.68189389 -0.096719705 -0.72391725 nan
0.042239461 -0.0053741504 1.0668572 0.734029 -0.10181122 -0.67112297 nan
-0.0050835805 0.0050799241 1.0667199 -0.52685219 -0.015060323 -0.84771061 nan
0.0050569521 0.005060839 1.0626799 -0.39682087 0.023395533 -0.91567296 nan
0.01192362 0.0054565719 1.0610001 -0.31490049 0.059225548 -0.9470095 nan
0.037779681 0.004723175 1.0625 0.60423481 -0.080650166 -0.78980052 nan
0.043831114 0.0056236195 1.0669334 0.72440034 -0.12931404 -0.67583358 nan
-0.0049152388 0.015418096 1.0673335 -0.51093966 0.13316813 -0.84768838 nan
0.0050657908 0.015201637 1.0640398 -0.37280068 0.1485505 -0.91554159 nan
0.01313861 0.01531546 1.0612308 -0.38165155 0.12560904 -0.91506147 nan
0.038600195 0.012732001 1.0610001 0.5603404 -0.078818969 -0.82398379 nan
0.045511186 0.015393808 1.0657501 0.73929489 -0.063162975 -0.66574717 nan
-0.0034212989 0.023579221 1.068 -0.49745548 0.20557006 -0.84211951 nan
0.0052426197 0.0252208 1.066417 -0.39543304 0.17119765 -0.90167463 nan
0.01468195 0.025949163 1.0615715 -0.37533218 0.16161618 -0.91246182 nan
0.022960819 0.027872115 1.0614287 -0.28508949 0.18182419 -0.93988049 nan
0.039408576 0.026272384 1.0610001 0.58600724 0.01460369 -0.80986297 nan
0.044097811 0.025001459 1.0650588 0.71667236 0.026745917 -0.69378936 nan
0.0058487081 0.035550293 1.0664762 -0.43660691 0.093769491 -0.89313048 nan
0.015193143 0.035451122 1.0635198 -0.3559289 0.077425785 -0.92975616 nan
0.023505179 0.035131011 1.0615625 -0.28547549 0.093381323 -0.95060039 nan
0.039408576 0.031324763 1.0610001 0.59656525 0.050060708 -0.80100173 nan
0.043617968 0.03549784 1.0650001 0.71049154 0.017729891 -0.70013183 nan
0.0066312607 0.045362018 1.0668235 -0.482135 0.1113831 -0.86777377 nan
0.015173713 0.045527086 1.0623201 -0.40555835 0.047786888 -0.91159153 nan
0.022634668 0.044258859 1.061 -0.2985267 -9.8472512e-05 -0.95392638 nan
0.039408576 0.046818733 1.0610001 0.56131101 0.029412134 -0.8267889 nan
0.043595616 0.045618989 1.0644668 0.71106404 0.019237561 -0.69888908 nan
0.0084704775 0.054215245 1.0673335 -0.51052582 0.10920122 -0.85243225 nan
0.015198058 0.0557275 1.0638797 -0.4316408 0.12077194 -0.89258206 nan
0.024098499 0.055806674 1.0613159 -0.27539906 0.11325909 -0.95256478 nan
0.038650718 0.05481834 1.061 0.47753564 0.043370977 -0.87491089 nan
0.043589387 0.055892784 1.0642858 0.7019006 0.017252665 -0.70857829 nan
0.0085730618 0.064370617 1.0680001 -0.51599246 0.10785068 -0.84963173 nan
0.015487271 0.065371267 1.0649091 -0.41825655 0.10081856 -0.90186054 nan
0.024745801 0.065874383 1.0626364 -0.2831803 0.1109855 -0.94914448 nan
0.036970071 0.066719614 1.0614285 0.29758626 0.13822153 -0.93171573 nan
0.044743311 0.064729474 1.0663685 0.71037787 0.063560605 -0.69377917 nan
0.0091542862 0.074251436 1.0680001 -0.53311193 0.10419788 -0.83947009 nan
0.014960497 0.074469894 1.0660869 -0.43132472 0.075649925 -0.89697647 nan
0.025491931 0.075136654 1.0627142 -0.2253176 0.11413545 -0.96017241 nan
0.035125758 0.075302221 1.0619547 0.20805062 0.15339839 -0.95527548 nan
0.044133589 0.074233405 1.0677333 0.66514999 0.092575952 -0.7353341 nan
0.0091542862 0.084422864 1.0680001 -0.5193184 0.10544258 -0.84791034 nan
0.015240381 0.084347889 1.0670401 -0.42838207 0.12959394 -0.89032871 nan
0.025164444 0.084275566 1.0639998 -0.2084623 0.15625562 -0.96160167 nan
0.035715368 0.084418148 1.0634781 0.21715751 0.12757257 -0.95874274 nan
0.043714836 0.085102588 1.0674286 0.61352646 0.077192418 -0.78148288 nan
0.0091542862 0.090525724 1.0680001 -0.493238 0.1254835 -0.86079621 nan
0.017020194 0.094051816 1.068 -0.38088712 0.18384577 -0.90483481 nan
0.025382096 0.094439015 1.0662401 -0.20225908 0.18924822 -0.95754051 nan
0.035502017 0.094325654 1.0649599 0.17540286 0.18638781 -0.95568287 nan
0.042923432 0.093984008 1.068 0.57374066 0.15720356 -0.80001116 nan
0.018817145 0.10222287 1.0680001 -0.37789789 0.19939974 -0.90381926 nan
0.025420038 0.10473555 1.0676801 -0.20250863 0.21676598 -0.95077223 nan
0.035595279 0.10475061 1.0678402 0.20010017 0.21833387 -0.94178689 nan
0.041702859 0.1017143 1.0680001 0.53165942 0.19810125 -0.82343936 nan
0.029497145 0.11392 1.0680001 -0.10099261 0.20767753 -0.97225517 nan
0.034035169 0.11337233 1.068 0.13325581 0.2195428 -0.95871234 nan
-0.02156 -0.070840001 1.0780001 nan nan nan nan
-0.016426668 -0.070840001 1.0780001 nan nan nan nan
-0.022440003 -0.064973339 1.0780001 nan nan nan nan
-0.01522127 -0.064470798 1.0773332 nan nan nan nan
-0.0059140217 -0.063526079 1.0738335 nan nan nan nan
0.035544164 -0.062130362 1.073875 nan nan nan nan
0.040040001 -0.060573336 1.0780001 0.68676543 -0.32717302 -0.64908475 nan
-0.02156 -0.05441333 1.0780001 -0.62598431 -0.063349053 -0.77446562 nan
-0.015622195 -0.054595198 1.0745217 -0.53313917 -0.15415421 -0.82476401 nan
-0.0080142869 -0.056100011 1.0710001 -0.42276654 -0.2793009 -0.85787302 nan
0.037157245 -0.054657146 1.0737778 0.76797259 -0.27673516 -0.57655579 nan
0.041066669 -0.054413334 1.0780001 0.76611948 -0.24418469 -0.59346193 nan
-0.02156 -0.047226667 1.0780001 -0.66351247 0.018043753 -0.74792695 nan
-0.015355163 -0.044812076 1.0743598 -0.57690662 -0.014595612 -0.81462699 nan
-0.009180001 -0.045900002 1.0710001 -0.48209357 -0.040810078 -0.87433434 nan
0.039008573 -0.046766289 1.0722001 0.77904654 -0.19807261 -0.59351486 nan
0.042504001 -0.044146668 1.0780001 0.79681838 -0.15828215 -0.58274716 nan
-0.021560002 -0.033880003 1.0780001 -0.67907548 -0.019465681 -0.73369777 nan
-0.01506879 -0.035237964 1.0738636 -0.57932818 -0.038734481 -0.81113696 nan
-0.009180001 -0.035700005 1.0710001 -0.49254218 -0.029125694 -0.86948806 nan
0.039891429 -0.035799999 1.074 0.7711305 -0.13431267 -0.6221441 nan
0.043778416 -0.035054289 1.0773335 0.79535186 -0.13842216 -0.5899272 nan
-0.022146668 -0.025960002 1.0780001 -0.66183496 -0.0029523061 -0.74884421 nan
-0.015710909 -0.025463376 1.0734545 -0.59824783 -0.0031499863 -0.7960003 nan
-0.009180001 -0.029580001 1.0710001 -0.4621537 0.00016345237 -0.88679981 nan
0.039780006 -0.028560001 1.0710001 0.75589693 -0.12347847 -0.64287174 nan
0.045075383 -0.025609953 1.0755501 0.78051287 -0.15733221 -0.60454911 nan
0.050306667 -0.02156 1.0780001 0.78991646 -0.15109725 -0.59430766 nan
-0.02156 -0.015400002 1.0780001 -0.64974797 0.042514078 -0.75840795 nan
-0.015354897 -0.015348646 1.0744797 -0.58668923 0.075998932 -0.80206543 nan
-0.0086700013 -0.012750002 1.0710001 -0.48761165 0.045635171 -0.87100279 nan
0.045737978 -0.015073691 1.073125 0.76978552 -0.12665755 -0.62502593 nan
0.050306667 -0.0154 1.0780001 0.794451 -0.13871753 -0.59121203 nan
-0.02156 -0.0010266667 1.0780001 -0.64175296 0.0090193711 -0.7668584 nan
-0.015374399 -0.0051223622 1.0757599 -0.58427083 -0.00051910698 -0.81032705 nan
-0.009180001 -0.0051000002 1.0710001 -0.5412578 -0.022798341 -0.84004253 nan
0.046346378 -0.0049582417 1.0740001 0.75872558 -0.10618132 -0.64237922 nan
0.051076669 -0.0048766672 1.0780001 0.80269384 -0.10427279 -0.58690888 nan
-0.021560002 0.0071866675 1.0780001 -0.66061568 0.09420155 -0.74441516 nan
-0.015357487 0.0051159626 1.0746399 -0.61087507 0.01561655 -0.7884441 nan
0.04846679 0.0048453575 1.0713751 0.77302361 -0.12926044 -0.61999446 nan
0.05174667 0.0042517008 1.0774287 0.80496699 -0.11504175 -0.58182031 nan
-0.02156 0.011293334 1.0780001 -0.65132582 0.14498524 -0.74481809 nan
-0.014687395 0.014880225 1.0755713 -0.63472939 0.12437348 -0.75965977 nan
-0.009180001 0.011220001 1.0710001 -0.58616078 0.072546251 -0.80694026 nan
0.049980003 0.011220001 1.0710001 0.80371964 -0.086951919 -0.58862054 nan
0.053020716 0.01460143 1.0757501 0.82066107 -0.048159026 -0.56908232 nan
-0.014308272 0.025749678 1.0769472 -0.62867022 0.14179489 -0.76259857 nan
-0.0064142873 0.02696898 1.0714288 -0.50952101 0.18502919 -0.83945113 nan
0.0010200001 0.029580001 1.0710001 -0.44264117 0.19230287 -0.87583584 nan
0.048756003 0.027132003 1.0710001 0.79961246 0.041686345 -0.59866542 nan
0.052617874 0.025478832 1.0767694 0.82244593 0.03714161 -0.56723803 nan
-0.013659344 0.034660663 1.0776924 -0.59374374 0.1101436 -0.79610723 nan
-0.0049423808 0.035593256 1.0729165 -0.4958801 0.14483427 -0.85579395 nan
0.0010200001 0.035700005 1.0710001 -0.49772674 0.1377676 -0.85574907 nan
0.048020571 0.035756573 1.0728 0.79857111 0.017901782 -0.60157776 nan
0.051220573 0.03585181 1.0756 0.819251 0.022556623 -0.57288653 nan
-0.011880001 0.043266669 1.0780001 -0.54314721 0.1076394 -0.8326084 nan
-0.0053155106 0.044759683 1.0739523 -0.48880246 0.13606063 -0.86115402 nan
0.0018942859 0.046191435 1.0710001 -0.53526813 0.14451373 -0.83202153 nan
0.048280008 0.045220003 1.0710001 0.80223054 0.0098290239 -0.59672457 nan
0.051400002 0.045539867 1.0762857 0.82022297 -0.0051859403 -0.57183897 nan
-0.011635556 0.055097781 1.0780001 -0.50528961 0.072037786 -0.85958809 nan
-0.0051305913 0.054348424 1.07672 -0.46593454 0.09574233 -0.87908936 nan
0.0034689528 0.05506248 1.0720001 -0.53691 0.12142655 -0.83471954 nan
0.047430001 0.053550005 1.0710001 0.78213632 0.0084571075 -0.62273371 nan
0.051240005 0.054312378 1.0760001 0.81109029 0.0023620392 -0.58473724 nan
-0.011293334 0.064680003 1.0780001 -0.47136459 0.070028596 -0.87904835 nan
-0.0051302868 0.064602278 1.07672 -0.45289031 0.068253301 -0.88851833 nan
0.0037407943 0.064196669 1.0718333 -0.50413048 0.090511546 -0.85843885 nan
0.049980007 0.066300005 1.0710001 0.80278766 0.045880556 -0.59449118 nan
0.051692244 0.063698232 1.0762857 0.8107118 0.03625245 -0.58403319 nan
-0.0049620639 0.074764617 1.0778331 -0.45764893 0.13961288 -0.87719172 nan
0.0040851436 0.074629433 1.0733999 -0.49040267 0.10178363 -0.86517972 nan
0.048348006 0.074460015 1.0710001 0.7701869 0.042822435 -0.63560724 nan
0.051240001 0.075575717 1.076 0.80158311 0.017886441 -0.59699392 nan
-0.002566667 0.084700011 1.0780001 -0.51267004 0.15326023 -0.84372282 nan
0.0040866672 0.08490447 1.0740999 -0.52376485 0.10595987 -0.84472865 nan
0.047260009 0.08296001 1.0710001 0.71972364 0.053190242 -0.69122171 nan
0.052284829 0.085085839 1.0764002 0.80314445 0.055591527 -0.59195566 nan
-0.001368889 0.09513779 1.0780001 -0.58216971 0.16005073 -0.79690647 nan
0.0049434933 0.095414445 1.0753335 -0.51949382 0.15527597 -0.83860433 nan
0.012648001 0.095676005 1.0710001 -0.45112678 0.18585746 -0.87238932 nan
0.046729434 0.095499717 1.0713001 0.70619112 0.15851833 -0.68677342 nan
0.05078667 0.094399735 1.0757143 0.79293859 0.14069805 -0.5919072 nan
0.0055909953 0.10517367 1.0769091 -0.50568992 0.20500037 -0.83613008 nan
0.01462599 0.10560232 1.0715712 -0.41489705 0.22325268 -0.88088679 nan
0.045339633 0.10566852 1.0737222 0.66625071 0.17407075 -0.71829975 nan
0.05030667 0.10369335 1.0780001 0.79976833 0.13497652 -0.58448207 nan
0.0076429639 0.11418816 1.0780001 -0.47756058 0.2266141 -0.84833521 nan
0.015534742 0.11481148 1.0740476 -0.404075 0.23636405 -0.88318992 nan
0.024737688 0.11553281 1.0717142 -0.25486252 0.22415476 -0.9367972 nan
0.037418097 0.11701573 1.0715002 0.31021807 0.19699393 -0.92038 nan
0.044893891 0.11502466 1.0755295 0.61341137 0.14189039 -0.76975513 nan
0.0092400005 0.12217335 1.0780001 -0.45503491 0.33599252 -0.82465279 nan
0.015565023 0.12398668 1.0767272 -0.4171294 0.31917897 -0.85032767 nan
0.025691671 0.12540761 1.072 -0.29834998 0.25264025 -0.91291094 nan
0.035739202 0.12558675 1.0720798 0.20866543 0.18084842 -0.94670993 nan
0.044768803 0.12442525 1.0775001 0.5845384 0.1439551 -0.79287463 nan
0.018480001 0.13141334 1.0780001 -0.44804472 0.31967387 -0.83480823 nan
0.025606951 0.13482268 1.0757 -0.39760125 0.28049931 -0.8674159 nan
0.035762575 0.13486716 1.0728 0.14980166 0.17887913 -0.94911367 nan
0.04308876 0.13439277 1.0772001 0.55925828 0.14096241 -0.81528646 nan
-0.042023286 -0.06458921 1.0880002 nan nan nan nan
-0.035017543 -0.062962309 1.0867501 nan nan nan nan
-0.025972037 -0.06346745 1.0828183 nan nan nan nan
-0.019560954 -0.068978101 1.0810001 nan nan nan nan
0.038092382 -0.065889522 1.0810001 nan nan nan nan
0.043547556 -0.064180702 1.0834669 nan nan nan nan
-0.040411431 -0.055954285 1.0880001 -0.64846957 0.10787407 -0.75230515 nan
-0.03455035 -0.054911025 1.0878695 nan nan nan nan
-0.026271431 -0.054660674 1.0828824 -0.63637131 -0.016551288 -0.76722324 nan
0.046038669 -0.054708257 1.0838002 0.75350249 -0.24604267 -0.60745066 nan
0.050773337 -0.052845716 1.0880001 0.77476585 -0.24275681 -0.58279741 nan
-0.033950482 -0.045531433 1.0880002 -0.53352082 0.070775986 -0.83991486 nan
-0.025074603 -0.043963183 1.081889 -0.59386688 0.029760042 -0.80161667 nan
0.046538509 -0.044624902 1.0824288 0.79191381 -0.15279858 -0.5908953 nan
0.05166328 -0.044069629 1.0873334 0.79510617 -0.17055491 -0.58169883 nan
-0.033158101 -0.034021586 1.0880003 -0.58305538 0.012018151 -0.81062621 nan
-0.025452968 -0.035281248 1.0822309 -0.58935177 -0.0062759016 -0.80663419 nan
0.047975808 -0.035621528 1.0810002 0.79139757 -0.14365828 -0.59402174 nan
0.052928504 -0.033961512 1.0860835 0.78729081 -0.15327817 -0.5963344 nan
-0.034571085 -0.024585973 1.0880003 -0.58176494 0.0032646146 -0.81274295 nan
-0.026094433 -0.02561634 1.0825386 -0.59348249 -0.0013511267 -0.80449784 nan
0.052644331 -0.025803741 1.0837694 0.79437011 -0.14502017 -0.58860272 nan
-0.033602186 -0.01495075 1.0880003 -0.58779937 0.022973485 -0.80703586 nan
-0.025795367 -0.01547689 1.0832669 -0.57178301 0.019202996 -0.81949872 nan
0.054712933 -0.014747621 1.0838574 0.8303982 -0.10985009 -0.5452022 nan
-0.033733759 -0.0065625398 1.0880002 -0.64064008 0.058060721 -0.76403147 nan
-0.025770728 -0.0051537473 1.0822173 -0.58346319 0.014798434 -0.81109679 nan
0.056055006 -0.0052817864 1.0823752 0.83998209 -0.11242685 -0.53001803 nan
-0.032121904 0.0031085715 1.0880001 -0.66134918 0.081404917 -0.74389136 nan
-0.025771378 0.004503007 1.0822631 -0.60712236 0.071531303 -0.7902962 nan
0.055594292 0.0051476196 1.0810002 0.8295595 -0.10730638 -0.54759955 nan
-0.024383752 0.015869942 1.0835626 -0.59897476 0.15023485 -0.78524524 nan
-0.019046193 0.018016668 1.0810001 -0.69268554 0.15188485 -0.70495301 nan
0.056947619 0.016304193 1.0832002 0.84269744 -0.035803609 -0.53659683 nan
-0.023617364 0.025205646 1.0853078 -0.60735029 0.11038432 -0.78542691 nan
-0.018886669 0.025413334 1.0816668 -0.68236673 0.10623679 -0.72208565 nan
0.05783562 0.025813526 1.0844001 0.84435922 0.040432151 -0.53395796 nan
-0.023944492 0.034434833 1.0862858 -0.61818093 0.055449329 -0.7837345 nan
-0.018678505 0.035445035 1.0810002 -0.64132637 0.069847956 -0.76394397 nan
0.056815952 0.035121512 1.0845835 0.83858752 0.018049108 -0.54438436 nan
-0.02379486 0.044482861 1.0862002 -0.59764665 0.044818424 -0.79996556 nan
-0.016815556 0.044612702 1.0810001 -0.5890674 0.079113327 -0.80333316 nan
0.056830794 0.044427119 1.0848669 0.83472306 -0.0070850542 -0.55007929 nan
-0.022979429 0.054236379 1.0868001 -0.58459508 0.056288637 -0.8090626 nan
-0.016642556 0.054370485 1.0814211 -0.57232082 0.058218453 -0.81706971 nan
0.056809459 0.054740131 1.0844668 0.82260853 -0.013679781 -0.56828541 nan
0.06113524 0.052845716 1.0880001 0.83615303 -0.033370879 -0.54748011 nan
-0.022778189 0.065225437 1.0871001 -0.60400695 0.11094105 -0.78857923 nan
-0.016490476 0.064920001 1.082 -0.57945037 0.074803315 -0.80960315 nan
0.056272782 0.064527854 1.0840836 0.81035846 0.030130066 -0.58479214 nan
-0.022648165 0.074161634 1.0880002 -0.64190948 0.17361192 -0.74645293 nan
-0.015478667 0.075301528 1.0830798 -0.57665497 0.15874583 -0.79618794 nan
-0.0092657153 0.079273336 1.0810001 -0.46596661 0.21174303 -0.85909253 nan
0.05600718 0.07570374 1.0843079 0.81871337 0.026208716 -0.57297796 nan
-0.015018007 0.085109539 1.0853809 -0.57869679 0.21986479 -0.78262585 nan
-0.0075281328 0.08597663 1.0816157 -0.49454707 0.19416465 -0.84675986 nan
0.057782862 0.085348584 1.0855557 0.84603512 0.073610403 -0.52749437 nan
-0.013464192 0.093620196 1.0874002 -0.57430881 0.21776326 -0.78823179 nan
-0.0061847623 0.095709205 1.0818889 -0.55502784 0.18233865 -0.81110215 nan
0.055300243 0.095429927 1.0852501 0.82886595 0.14739951 -0.53838611 nan
-0.011398096 0.10051048 1.0880001 -0.55919313 0.19245483 -0.80638963 nan
-0.0053618597 0.10498745 1.0832857 -0.57517397 0.2047715 -0.7916553 nan
0.0010295239 0.10810001 1.0810001 -0.57572204 0.23909001 -0.78190798 nan
0.05349943 0.10513487 1.0844001 0.81758273 0.10193372 -0.56448138 nan
-0.0037930161 0.11437007 1.0851113 -0.56596893 0.21782057 -0.79490232 nan
0.0029301834 0.1150691 1.0810003 -0.55721152 0.2287444 -0.79729313 nan
0.05316516 0.11500785 1.0844706 0.78839219 0.064151712 -0.61114585 nan
-0.0027890846 0.12482235 1.0873079 -0.51926351 0.22948533 -0.82223201 nan
0.0049777781 0.12479358 1.0821666 -0.49108407 0.306418 -0.81362128 nan
0.011324762 0.12766096 1.0810001 -0.43377861 0.3579427 -0.826855 nan
0.048387624 0.1245724 1.0810001 0.70805538 0.12675868 -0.69468373 nan
0.053092726 0.12455905 1.0830001 0.78869998 0.13892171 -0.59742212 nan
0.006442646 0.13508435 1.0873333 -0.41298667 0.31683859 -0.85288185 nan
0.014884401 0.13576987 1.0834762 -0.45202574 0.33764404 -0.82531732 nan
0.021620002 0.13898572 1.0810001 -0.52447319 0.30089498 -0.79648608 nan
0.047393907 0.13496971 1.0818002 0.70871109 0.14975852 -0.68626386 nan
0.051626351 0.13510509 1.0865557 0.81138653 0.14568394 -0.56487554 nan
-0.051022228 -0.063513026 1.0933335 nan nan nan nan
-0.046565194 -0.063431852 1.0918889 nan nan nan nan
0.04883524 -0.06338191 1.0910001 nan nan nan nan
0.052215718 -0.063701436 1.0965 nan nan nan nan
-0.045066457 -0.055371646 1.0946665 -0.70769328 0.23706467 -0.64131546 nan
0.04883524 -0.059225716 1.0910001 0.73650783 -0.36137664 -0.57180691 nan
0.054211572 -0.055250481 1.0945714 0.78893673 -0.26557195 -0.54764211 nan
-0.043755949 -0.044791665 1.0937499 -0.65484124 0.055064317 -0.75051326 nan
-0.034808096 -0.042600956 1.0910001 -0.56899559 0.063319266 -0.81883639 nan
0.056502935 -0.044636998 1.0939232 0.82728988 -0.18572378 -0.52894127 nan
-0.043797813 -0.034407433 1.0947999 -0.63724971 -0.00085962279 -0.76502842 nan
-0.035247695 -0.034448426 1.091 -0.58849913 0.017498853 -0.8078078 nan
0.057827186 -0.035302687 1.093091 0.83317769 -0.16782181 -0.52434307 nan
0.061697148 -0.03346286 1.098 0.8854568 -0.12169614 -0.4458786 nan
-0.043763634 -0.025004821 1.0939375 -0.63783157 0.0091702435 -0.76341683 nan
-0.033826776 -0.025283493 1.0910001 -0.59343213 0.0098979343 -0.80460721 nan
0.058295239 -0.024982858 1.0930001 0.86118644 -0.070133515 -0.5024507 nan
0.061655007 -0.025079286 1.09725 0.87398469 -0.037372187 -0.48385885 nan
-0.04380396 -0.01564043 1.0949497 -0.65302366 0.069659732 -0.74776959 nan
-0.035044245 -0.016341386 1.091 -0.60500348 0.016711045 -0.79550356 nan
0.058605399 -0.017340319 1.0923334 0.85377717 -0.09702497 -0.51103193 nan
0.06162972 -0.015672002 1.0968001 0.87025803 -0.08403676 -0.48511967 nan
-0.041662674 -0.0052028573 1.0936002 -0.62921619 0.12199197 -0.76738667 nan
-0.036032069 -0.0045028571 1.0913333 -0.6636613 0.080550581 -0.74305177 nan
0.059225716 -0.0051952386 1.0910001 0.85680449 -0.11926066 -0.50166017 nan
0.062533021 -0.0052206349 1.0963334 0.86763358 -0.10405183 -0.48587847 nan
-0.041772857 0.0052214288 1.0965002 -0.64991957 0.055562545 -0.75660276 nan
-0.034914423 0.0056931078 1.0919522 -0.67185599 0.074193954 -0.73598808 nan
0.059225716 0.0051952382 1.0910001 0.85883904 -0.10453665 -0.50128549 nan
0.063062467 0.0057343654 1.0944169 0.88161254 -0.08527448 -0.46382368 nan
-0.041704863 0.015637999 1.0947 -0.64167452 0.050611164 -0.7645182 nan
-0.034298629 0.015590286 1.0913198 -0.62814939 0.094192237 -0.77076513 nan
-0.028054288 0.014893018 1.0910001 -0.56310213 0.14557846 -0.81280273 nan
0.059225716 0.014546668 1.0910001 0.86065853 -0.032945171 -0.5081116 nan
0.063629337 0.015645208 1.0952002 0.87870568 -0.051536482 -0.47428361 nan
-0.041772857 0.025062859 1.0965 -0.6324749 0.14221665 -0.76103467 nan
-0.034367051 0.024993524 1.0934 -0.60075283 0.13233306 -0.78777272 nan
-0.028054288 0.024937144 1.0910001 -0.55948949 0.13267791 -0.81772292 nan
0.06359937 0.025020953 1.0946667 0.86536252 0.010886729 -0.50043559 nan
-0.040782858 0.034508575 1.098 -0.65393442 0.10759809 -0.74832064 nan
-0.034400642 0.034395993 1.0944399 -0.62375027 0.087634332 -0.77609885 nan
-0.028054288 0.034288574 1.0910001 -0.60157216 0.065559521 -0.79580563 nan
0.0632485 0.034387697 1.094154 0.85698694 0.0052306331 -0.51513177 nan
-0.040782858 0.044965718 1.098 -0.67851871 0.022181882 -0.7341277 nan
-0.03443478 0.044866398 1.0955597 -0.63921076 0.025901901 -0.76807755 nan
-0.028054288 0.044679049 1.0910001 -0.61347377 0.029704018 -0.7885806 nan
0.06359937 0.044829212 1.0946668 0.85033512 -0.025301909 -0.52481663 nan
-0.040782861 0.053331431 1.098 -0.67576331 0.019729327 -0.73685044 nan
-0.034413718 0.055266745 1.0948797 -0.62458313 0.045162499 -0.77909511 nan
-0.026807427 0.055692952 1.091 -0.59718525 0.05723054 -0.79961348 nan
0.06463556 0.055479791 1.0945556 0.84786683 -0.029759318 -0.52898437 nan
-0.034249526 0.064965457 1.096 -0.61371368 0.13880624 -0.7766735 nan
-0.027035808 0.065510295 1.0918001 -0.60463715 0.13706754 -0.78425258 nan
0.059225719 0.067538105 1.0910001 0.81921643 0.053231724 -0.57097685 nan
0.064484268 0.065468021 1.0947895 0.83994472 0.024688317 -0.54127818 nan
0.070062861 0.063788578 1.098 0.84998256 -0.050567191 -0.52437836 nan
-0.033672001 0.07326971 1.0979999 -0.60989803 0.18792279 -0.76943314 nan
-0.026723176 0.075303487 1.0931113 -0.60743093 0.19234902 -0.77047378 nan
0.059225719 0.073772386 1.0910001 0.82928866 0.051245697 -0.55639148 nan
0.064296603 0.074588165 1.0964286 0.83679181 0.064514525 -0.54348969 nan
-0.030325714 0.086794287 1.098 -0.55920261 0.19620515 -0.80547875 nan
-0.025005955 0.084375009 1.0937499 -0.61505127 0.20326491 -0.76053077 nan
-0.019741906 0.088319056 1.0910001 -0.64626855 0.22092414 -0.73043102 nan
0.062561333 0.084452011 1.0948 0.84926003 0.097995244 -0.51807386 nan
-0.024704764 0.094629742 1.0958889 -0.58604056 0.1707067 -0.79091442 nan
-0.01766938 0.095700145 1.0913076 -0.61848664 0.20137799 -0.75916314 nan
0.059388574 0.095858097 1.0940001 0.85162532 0.13310504 -0.50649875 nan
0.06246629 0.092549719 1.0968001 0.86412019 0.11178905 -0.49065575 nan
-0.023857145 0.10511225 1.0958571 -0.55490327 0.16300279 -0.81521147 nan
-0.015789842 0.10529398 1.0928333 -0.59178662 0.19904014 -0.78046745 nan
0.05838133 0.10529201 1.0946 0.83679485 0.06398242 -0.53997743 nan
-0.023259642 0.11446751 1.097625 -0.55458629 0.16100247 -0.81632841 nan
-0.015470593 0.11557107 1.0948749 -0.56498462 0.18217242 -0.80429685 nan
-0.0087674838 0.11634899 1.0921429 -0.56206077 0.19504085 -0.80356574 nan
0.058527857 0.11471072 1.0925 0.81981695 0.033357203 -0.56983471 nan
0.062550478 0.11639428 1.0966668 0.84428269 0.060322445 -0.53014326 nan
-0.02196 0.12130286 1.098 -0.56676108 0.15961334 -0.80823278 nan
-0.01585442 0.12497551 1.0957142 -0.55551296 0.15934613 -0.81577528 nan
-0.0076636355 0.12607993 1.0924547 -0.51621878 0.17992233 -0.8366186 nan
0.058481336 0.12466078 1.0926001 0.81908989 0.16515777 -0.5486967 nan
0.062742859 0.12234858 1.098 0.84483963 0.14657323 -0.51445425 nan
-0.01496585 0.13417213 1.0961425 -0.57579058 0.16181894 -0.80052388 nan
-0.0054051247 0.13501677 1.0925237 -0.4597002 0.19011641 -0.86635911 nan
0.001870286 0.13653086 1.0910001 -0.40700632 0.2784166 -0.86935025 nan
0.056340422 0.13477197 1.0932223 0.84246182 0.16459917 -0.51100296 nan
-0.060202863 -0.062315241 1.1090001 nan nan nan nan
-0.055513091 -0.063932143 1.105 nan nan nan nan
0.057020683 -0.065570891 1.1028574 nan nan nan nan
0.063891999 -0.064309143 1.1070002 nan nan nan nan
-0.060202863 -0.05492191 1.1090001 -0.84311467 0.02886527 -0.52948445 nan
-0.054716766 -0.055764761 1.1047999 nan nan nan nan
-0.049327619 -0.053525712 1.102 -0.72431988 0.1427601 -0.67217207 nan
0.059117146 -0.05648905 1.1035001 0.83261716 -0.10351475 -0.53208518 nan
0.062315244 -0.054921906 1.1090001 0.86102259 -0.04646346 -0.49721563 nan
-0.060202863 -0.049640957 1.1090001 -0.71869922 0.15858026 -0.67699611 nan
-0.054640148 -0.045540303 1.1065787 -0.73296732 0.071025245 -0.67418474 nan
-0.049327616 -0.045129523 1.1020001 -0.74079525 0.054784633 -0.66933548 nan
0.059822857 -0.047228571 1.102 0.85728425 -0.17649245 -0.48352528 nan
0.062945835 -0.044507742 1.1061251 0.87161148 -0.18780312 -0.45095962 nan
-0.054586165 -0.03452231 1.1054736 -0.75645655 -0.00053995068 -0.65326512 nan
-0.049327616 -0.034634285 1.1020001 -0.75492978 0.0041114278 -0.65570587 nan
0.064105861 -0.035582315 1.1034287 0.89466429 -0.15560709 -0.41386163 nan
-0.053821318 -0.024843004 1.1046923 -0.78136325 0.043702934 -0.62198907 nan
-0.049327616 -0.025188571 1.102 -0.76801467 0.01647687 -0.64014864 nan
0.065761052 -0.024656858 1.1065 0.87132359 -0.025420895 -0.48889932 nan
-0.05384222 -0.015230034 1.1055335 -0.78441888 0.030086193 -0.61829346 nan
-0.049327616 -0.015742857 1.1020001 -0.76756358 0.065390043 -0.63676202 nan
0.065179266 -0.015329312 1.1057779 0.86807579 -0.080226064 -0.48964685 nan
-0.053892512 -0.0058318102 1.1066 -0.74638397 0.090681568 -0.65693736 nan
-0.04725543 -0.0052493331 1.1026001 -0.72153205 0.11818372 -0.68145907 nan
0.06628368 -0.0058646258 1.1047144 0.87463522 -0.086248495 -0.47659832 nan
-0.052734863 0.0052748579 1.1074002 -0.73594433 0.069542229 -0.67209738 nan
-0.04728191 0.0052540954 1.1032002 -0.73004597 0.063001156 -0.67893004 nan
0.067547977 0.0044694045 1.103875 0.87219155 -0.11371948 -0.47339252 nan
0.070764773 0.0031685715 1.1090001 0.8654868 -0.13029601 -0.48368952 nan
-0.052475479 0.015290476 1.1075001 -0.76844561 0.031830512 -0.63860112 nan
-0.04728191 0.015759239 1.1032002 -0.73710352 0.030995736 -0.67404366 nan
0.068219043 0.015742859 1.1020001 0.85888928 -0.081501983 -0.50496572 nan
0.070713721 0.015828382 1.1082001 0.85454905 -0.083682738 -0.51031035 nan
-0.052926887 0.0247618 1.1090001 -0.77306426 0.092942998 -0.62690812 nan
-0.047316194 0.025234288 1.1040001 -0.72436583 0.1214939 -0.67739028 nan
0.0683119 0.025224287 1.1035 0.86220515 -0.020785365 -0.50515449 nan
0.070573337 0.025279049 1.1060001 0.84481692 -0.0016907691 -0.53313601 nan
-0.051753335 0.030629527 1.1090001 -0.74258697 0.13006324 -0.65699935 nan
-0.046320241 0.034736432 1.1052498 -0.7007888 0.11011472 -0.70300418 nan
0.067698911 0.034674697 1.1032858 0.86275607 -8.4170541e-05 -0.50551671 nan
0.070987947 0.034093656 1.1070001 0.84952068 0.0093476819 -0.52701581 nan
-0.046320241 0.04526262 1.1052499 -0.7106753 0.030408993 -0.70200276 nan
0.068219043 0.045129523 1.1020001 0.84807885 -0.049450904 -0.52722728 nan
0.071618535 0.045828465 1.1076667 0.84966874 -0.057453249 -0.52338511 nan
-0.045457859 0.055867191 1.1047499 -0.71247244 0.04432638 -0.69934958 nan
0.068219043 0.053525712 1.102 0.85679519 -0.043044321 -0.51385719 nan
0.071490057 0.055340216 1.1056668 0.86441076 -0.030750742 -0.50168568 nan
-0.045020003 0.06483423 1.1045789 -0.71344674 0.11616457 -0.68882471 nan
0.072570197 0.065395713 1.1075002 0.85459441 -0.046975609 -0.51529062 nan
-0.043661904 0.074371718 1.1053529 -0.67604685 0.14742412 -0.71951926 nan
-0.036500104 0.076615237 1.1020001 -0.62150478 0.17845021 -0.76248395 nan
0.06828095 0.076686665 1.103 0.83994144 0.099734783 -0.53295135 nan
0.072518989 0.074472718 1.1057858 0.82533926 0.11186165 -0.55040157 nan
-0.043202229 0.085345715 1.1063335 -0.63065004 0.12498248 -0.76467103 nan
-0.0348254 0.084963024 1.1025 -0.5992375 0.16882782 -0.78179306 nan
0.067323148 0.085206956 1.1045001 0.85138124 0.14137506 -0.5046922 nan
0.07118725 0.08386153 1.1090001 0.83046436 0.1977998 -0.51857281 nan
-0.042806294 0.094464384 1.1070001 -0.60055757 0.17026179 -0.78013057 nan
-0.034712009 0.095714666 1.1043997 -0.58939779 0.17067865 -0.78890508 nan
-0.028337141 0.098655239 1.102 -0.54728168 0.16351134 -0.82081556 nan
0.065851137 0.096134655 1.1055386 0.85823351 0.12512012 -0.49763206 nan
-0.041719526 0.10192239 1.1090001 -0.58017874 0.20689729 -0.78746462 nan
-0.034768578 0.10535353 1.1062001 -0.61557281 0.17145403 -0.76854485 nan
-0.028337141 0.10495238 1.102 -0.55264711 0.15242013 -0.81918275 nan
0.065520108 0.1047055 1.1055555 0.84232116 -0.0030258473 -0.53210527 nan
-0.034430441 0.11465331 1.1070869 -0.62607312 0.18634243 -0.75673389 nan
-0.027108571 0.11494362 1.1032001 -0.56801265 0.17680854 -0.80316156 nan
0.066385791 0.1137644 1.1036924 0.83602124 0.0022065004 -0.5414778 nan
0.070764773 0.11512478 1.1090001 0.81889093 0.0010513337 -0.57226729 nan
-0.032380637 0.12494603 1.1086669 -0.61684513 0.2303493 -0.75214332 nan
-0.025579682 0.12543207 1.1036665 -0.60886294 0.21203837 -0.76347154 nan
0.059822857 0.12909143 1.102 0.82807845 0.20970869 -0.51991189 nan
0.065171108 0.12460942 1.1056668 0.82868683 0.22813483 -0.50941318 nan
-0.030629527 0.13308001 1.1090001 -0.61779106 0.22309257 -0.75402248 nan
-0.024610657 0.13513853 1.1053125 -0.6460675 0.21735959 -0.731408 nan
-0.019416189 0.13801238 1.102 -0.62105113 0.18961231 -0.76014221 nan
0.059888002 0.13553487 1.1032001 0.85742801 0.17565872 -0.47856846 nan
0.062315244 0.13519239 1.1090001 0.85755205 0.19939817 -0.47167748 nan
-0.063417152 -0.061291434 1.1160001 nan nan nan nan
0.067240007 -0.061300576 1.1136 nan nan nan nan
0.07102 -0.060420003 1.113 nan nan nan nan
-0.063619591 -0.055116735 1.1160002 nan nan nan nan
0.066607147 -0.05599143 1.1145 nan nan nan nan
-0.063275442 -0.045419432 1.1160002 -0.6142869 0.024352882 -0.76796955 nan
-0.0583 -0.041340001 1.113 -0.72152722 0.029874602 -0.69174123 nan
0.066901274 -0.046842225 1.115 0.85093927 -0.078854777 -0.51097322 nan
-0.062163576 -0.035598814 1.1157502 -0.65322578 0.085934781 -0.73327482 nan
-0.0583 -0.039219998 1.113 -0.73405087 -0.016966416 -0.67888254 nan
0.067741632 -0.033794694 1.1138572 0.89280128 -0.13883963 -0.41986677 nan
0.071856193 -0.035046667 1.1150001 nan nan nan nan
-0.060582865 -0.024445716 1.1160001 -0.80282432 0.093530424 -0.58813524 nan
-0.0583 -0.024380002 1.113 -0.78992933 0.079558544 -0.60775262 nan
0.068900004 -0.024380002 1.113 0.86832952 -0.054772049 -0.48762685 nan
0.071211427 -0.024445716 1.1160001 0.79077435 -0.024388203 -0.60803932 nan
-0.060582861 -0.01488 1.1160001 -0.79321551 -0.059968486 -0.60410666 nan
-0.0583 -0.015900001 1.1130002 -0.80646908 -0.016517846 -0.58996749 nan
0.068900004 -0.01484 1.113 0.85728788 -0.046325188 -0.51222354 nan
0.071211427 -0.014880001 1.1160001 0.81957012 -0.013764077 -0.57249105 nan
-0.060517717 -0.0053051431 1.1148001 -0.75164193 0.063530885 -0.64935189 nan
-0.057875998 -0.0036040002 1.113 -0.75707763 0.12401266 -0.63909483 nan
0.068946436 -0.004245 1.11375 0.87767422 -0.071362942 -0.47344789 nan
0.071211427 -0.0053142863 1.1160001 0.8412897 -0.088339001 -0.53278321 nan
-0.060582865 0.0053142863 1.1160001 -0.730856 0.10011496 -0.67271149 nan
-0.057302859 0.0053057144 1.1142001 -0.74780679 0.08854612 -0.65711808 nan
0.071067862 0.0058307145 1.11375 0.86445546 -0.14132848 -0.48205537 nan
-0.060582861 0.015234287 1.1160001 -0.81356573 0.056473725 -0.5780105 nan
-0.056956511 0.014975556 1.1143334 -0.79153597 0.043201718 -0.60872775 nan
0.074375361 0.014875357 1.1156251 0.82648718 -0.13947426 -0.54134601 nan
-0.060582861 0.02232 1.1160001 -0.8129487 0.034740027 -0.58116156 nan
-0.057302862 0.02440743 1.1142 -0.79660815 0.080240645 -0.59747171 nan
0.075090341 0.024267035 1.1153078 0.79923624 -0.034285713 -0.59363008 nan
-0.05456439 0.03503029 1.1146002 -0.74423331 0.087612443 -0.66071606 nan
0.074766003 0.035257433 1.1151001 0.80374068 0.035522666 -0.59000313 nan
-0.055219002 0.045659576 1.1149501 -0.72064298 0.02902011 -0.68948507 nan
0.075678572 0.045938574 1.1152501 0.83195025 -0.029258247 -0.5486902 nan
-0.054170713 0.055231676 1.1152501 -0.77611655 0.071248218 -0.6250813 nan
-0.049819998 0.05618 1.113 -0.74980491 0.054287113 -0.65942818 nan
0.075462863 0.055268575 1.1160001 0.86920077 0.0038073349 -0.49385342 nan
-0.053369097 0.064368576 1.1146364 -0.79609621 0.11240101 -0.59369773 nan
-0.049819998 0.066780001 1.113 -0.76585925 0.12467937 -0.63071644 nan
0.075943574 0.064259291 1.1152501 0.8622576 -0.11794165 -0.49142402 nan
-0.052667353 0.074524499 1.1155715 -0.79298413 0.10908032 -0.5987789 nan
-0.049041785 0.076081075 1.1133751 -0.76723379 0.10154378 -0.63278443 nan
0.077006429 0.074877858 1.1152501 0.83447725 0.065473899 -0.53272283 nan
-0.052080002 0.085028574 1.1160001 -0.78687596 0.048918728 -0.615031 nan
-0.04877679 0.084827505 1.1133751 -0.75445914 0.073765025 -0.65142661 nan
0.074301429 0.084912859 1.1145 0.80289519 0.23894939 -0.54432696 nan
-0.052080002 0.09353143 1.1160001 -0.76279056 0.13603374 -0.63114339 nan
-0.048285481 0.094977848 1.1142501 -0.7172603 0.15056853 -0.67778075 nan
0.071682051 0.094108991 1.1138572 0.84169883 0.097695537 -0.5288114 nan
-0.045097332 0.10555372 1.1150001 -0.65867525 0.20084304 -0.72291052 nan
0.071888931 0.10584322 1.114125 0.81232214 -0.082906358 -0.57088816 nan
-0.043343376 0.11496624 1.1149092 -0.64208049 0.1904041 -0.74165916 nan
-0.039219998 0.11872001 1.113 -0.60796249 0.1683445 -0.77587825 nan
0.073272385 0.11397906 1.115 0.80578351 -0.020854957 -0.58507347 nan
-0.041876573 0.12350401 1.1160001 -0.63616252 0.19114967 -0.74734378 nan
-0.037333142 0.12578458 1.1136001 -0.59046018 0.22674315 -0.774064 nan
0.067401439 0.12790287 1.1145 0.82215798 0.26633245 -0.50168884 nan
0.071211427 0.12116572 1.1160001 0.79584706 0.25019315 -0.54234242 nan
-0.041451432 0.13073143 1.1160001 -0.61669475 0.21026471 -0.75860161 nan
-0.035173573 0.13484751 1.114875 -0.57859886 0.23076281 -0.78127015 nan
-0.028620001 0.13780001 1.113 -0.63436073 0.241721 -0.73400801 nan
0.066004582 0.13497773 1.1142 0.85503578 0.21041766 -0.46989051 nan
-0.072358288 -0.051869143 1.1206 nan nan nan nan
-0.06795238 -0.054670054 1.1206666 nan nan nan nan
0.067733333 -0.053866666 1.12 0.74254501 0.059724048 -0.64851171 nan
0.074346118 -0.053855911 1.1217648 nan nan nan nan
0.080142856 -0.052358098 1.1220001 nan nan nan nan
-0.073423982 -0.044519741 1.1202728 nan nan nan nan
-0.068000004 -0.045333337 1.12 nan nan nan nan
0.069333337 -0.044444442 1.1200001 0.85679138 -0.0094797425 -0.50946587 nan
0.074689344 -0.045156762 1.1235335 nan nan nan nan
-0.072363816 -0.03551095 1.1215 nan nan nan nan
-0.067542493 -0.034714065 1.1202308 nan nan nan nan
0.069426194 -0.038452856 1.1215 nan nan nan nan
0.074343495 -0.034150951 1.1205 nan nan nan nan
-0.071849525 -0.025734287 1.126 nan nan nan nan
-0.06624952 -0.024574572 1.1219001 nan nan nan nan
0.075761147 -0.024542481 1.1204001 nan nan nan nan
0.083816893 -0.023585815 1.1229999 nan nan nan nan
-0.071913332 -0.012880001 1.1270001 nan nan nan nan
-0.066308454 -0.014971669 1.1228751 nan nan nan nan
0.075768091 -0.014939523 1.1205001 0.62050158 0.024473457 -0.76998627 nan
0.083460957 -0.014978573 1.1235 nan nan nan nan
-0.071610242 -0.0042773811 1.1222501 nan nan nan nan
-0.066231519 -0.0053429529 1.1216002 nan nan nan nan
0.075802475 -0.0053392379 1.1209999 0.67266452 -0.053457696 -0.71714091 nan
0.084664568 -0.0053585907 1.12524 nan nan nan nan
0.091233335 -0.0042933337 1.1270001 nan nan nan nan
-0.071658097 0.0032085716 1.123 nan nan nan nan
-0.066104271 0.0051216041 1.1223159 nan nan nan nan
0.075733334 0.0053333342 1.12 0.61470109 -0.13464986 -0.70802128 nan
0.082766391 0.0049612322 1.1217645 nan nan nan nan
-0.064255238 0.015208191 1.1244 -0.80566007 0.09925805 -0.57152611 nan
0.077866666 0.014933334 1.12 0.55747014 -0.10571276 -0.81467158 nan
0.083078094 0.01516381 1.1212001 nan nan nan nan
-0.063725084 0.025165875 1.1245 -0.80009168 0.052849799 -0.59567976 nan
0.077866666 0.025600001 1.12 0.72837704 -0.032810457 -0.68360245 nan
0.083268575 0.024551906 1.1209003 nan nan nan nan
-0.063640237 0.035688851 1.1235294 nan nan nan nan
-0.058666665 0.036266666 1.12 -0.73163843 0.032173168 -0.67791927 nan
0.077866666 0.035733335 1.12 0.73002821 0.039360691 -0.67632711 nan
0.083737709 0.035514414 1.1206819 nan nan nan nan
-0.063977592 0.044859365 1.1232668 nan nan nan nan
0.077866666 0.043733336 1.1200001 0.75353479 -0.042765431 -0.65481985 nan
0.08451172 0.044930097 1.1232001 nan nan nan nan
-0.062917247 0.052991696 1.123091 nan nan nan nan
-0.058666665 0.055466667 1.12 -0.75536144 0.17756431 -0.62963104 nan
0.077866666 0.055466667 1.12 0.8573997 0.068428792 -0.50865519 nan
0.083762601 0.054214977 1.1259445 nan nan nan nan
0.091233335 0.052593336 1.1270001 nan nan nan nan
-0.061329685 0.064536989 1.1231668 -0.81218851 0.10510045 -0.57041717 nan
-0.05773598 0.065561377 1.1203333 -0.80060083 0.12149138 -0.58610946 nan
0.077918813 0.064042144 1.12075 0.86852902 -0.11432938 -0.48097795 nan
0.083770536 0.065713271 1.1253685 nan nan nan nan
0.091233335 0.067620009 1.1270001 nan nan nan nan
-0.05706476 0.075226665 1.1220001 -0.78708142 0.10762446 -0.60689247 nan
0.077866666 0.077866666 1.12 0.82294846 0.18645655 -0.53664684 nan
0.083137482 0.075342394 1.1232144 nan nan nan nan
0.091233335 0.078353338 1.1270001 nan nan nan nan
-0.061180007 0.084793344 1.1270001 -0.79083103 -0.027787078 -0.60839814 nan
-0.056623749 0.084395185 1.1217334 -0.78414065 0.0080752615 -0.61954391 nan
0.077684924 0.085165881 1.1225001 0.79523885 0.21243429 -0.5662623 nan
0.084024817 0.085714735 1.1257368 nan nan nan nan
-0.061180007 0.091233335 1.1270001 -0.76657474 0.11893469 -0.63104492 nan
-0.056406006 0.095429458 1.1226876 -0.75607491 0.11912379 -0.64173937 nan
0.076178752 0.095238835 1.1216923 0.79667294 0.10114506 -0.58982593 nan
0.081692599 0.094811119 1.127 nan nan nan nan
-0.053772431 0.10507178 1.1223501 -0.71151161 0.16497941 -0.68167341 nan
-0.048 0.10986666 1.12 -0.70982671 0.19575618 -0.67662811 nan
0.076247618 0.10479862 1.1218182 0.78862047 -0.093750596 -0.595649 nan
0.083174102 0.10653772 1.1254001 nan nan nan nan
-0.053149659 0.11463525 1.1235335 -0.6798988 0.14548551 -0.71844959 nan
-0.047573335 0.11456 1.12 -0.69859397 0.17580931 -0.69314784 nan
0.077118807 0.11474095 1.12075 0.7373746 0.01907202 -0.65287119 nan
0.084382027 0.11461481 1.1238749 nan nan nan nan
0.091233335 0.11592001 1.1270001 nan nan nan nan
-0.052179866 0.12488007 1.1251539 -0.65412635 0.11202148 -0.74742156 nan
-0.045724448 0.12508446 1.12 -0.64794594 0.16903596 -0.74188101 nan
0.075203396 0.12545735 1.1226667 0.75719231 0.34101078 -0.55181646 nan
0.082110003 0.12182334 1.1270001 0.55143619 0.57790977 -0.55976605 nan
-0.051264364 0.13511907 1.1247145 -0.61804104 0.13494182 -0.77391315 nan
-0.044767506 0.13530038 1.120706 -0.58135331 0.17446396 -0.79261482 nan
-0.037760001 0.13759999 1.12 -0.54058927 0.23469675 -0.80633372 nan
0.068906672 0.13504 1.12 0.82232708 0.26002342 -0.50096291 nan
0.073670767 0.13427095 1.1243 0.77630419 0.31486949 -0.54429191 nan
-0.073784284 -0.023697143 1.131 nan nan nan nan
-0.072168574 -0.017234286 1.131 nan nan nan nan
-0.071514294 0.0089847622 1.1320001 nan nan nan nan
-0.072120003 0.015404504 1.1332728 nan nan nan nan
-0.067860007 0.014002858 1.131 nan nan nan nan
-0.072272196 0.024807813 1.1326001 nan nan nan nan
-0.067860007 0.024774287 1.131 -0.70660585 0.026073862 -0.70553267 nan
-0.071710721 0.035044529 1.1322501 nan nan nan nan
-0.067860007 0.033391427 1.131 nan nan nan nan
-0.071163215 0.045286074 1.1321251 nan nan nan nan
-0.067860007 0.046317145 1.131 nan nan nan nan
-0.071437813 0.055206385 1.1365002 nan nan nan nan
-0.066309847 0.056956403 1.1331111 nan nan nan nan
0.087556332 0.056165315 1.131 nan nan nan nan
0.091638103 0.056417145 1.1320001 nan nan nan nan
-0.072181717 0.064595036 1.1380001 nan nan nan nan
-0.066052213 0.065066755 1.1335454 -0.73557562 0.005101508 -0.66030359 nan
0.088110283 0.063551441 1.131 nan nan nan nan
0.091557145 0.062474288 1.131 nan nan nan nan
-0.07131467 0.072181717 1.138 nan nan nan nan
-0.064943753 0.074714288 1.1334739 -0.73719949 0.14561829 -0.64566571 nan
0.088205718 0.073734701 1.1314287 nan nan nan nan
0.092467435 0.074791998 1.1316001 nan nan nan nan
-0.070447616 0.086704761 1.138 nan nan nan nan
-0.065928005 0.085378684 1.1348 nan nan nan nan
0.087248579 0.081862867 1.131 nan nan nan nan
0.091557145 0.081862859 1.131 nan nan nan nan
-0.070447616 0.09537524 1.138 nan nan nan nan
-0.065020189 0.095256768 1.1340002 nan nan nan nan
0.087277308 0.095193498 1.1336668 nan nan nan nan
0.091800004 0.092880003 1.1340001 nan nan nan nan
-0.070447616 0.10512953 1.138 nan nan nan nan
-0.064819284 0.1047831 1.1342503 nan nan nan nan
-0.059242859 0.10771429 1.131 -0.72012889 0.13246225 -0.68074566 nan
0.086262539 0.10243192 1.1321669 nan nan nan nan
-0.070447616 0.11163238 1.138 nan nan nan nan
-0.064214982 0.11465969 1.1350667 nan nan nan nan
-0.058435008 0.11606214 1.131 -0.70182127 0.13906036 -0.69808638 nan
-0.070447616 0.12897334 1.138 nan nan nan nan
-0.064525709 0.12498691 1.1362501 nan nan nan nan
-0.057806671 0.12530763 1.1310002 -0.65430099 0.076807514 -0.74946713 nan
0.082754292 0.1262835 1.1333334 nan nan nan nan
-0.070447616 0.13222477 1.138 nan nan nan nan
-0.064240709 0.1345631 1.136 nan nan nan nan
-0.056848746 0.13471091 1.1315627 -0.61724359 0.1065902 -0.77534485 nan
-0.07504572 0.05981905 1.1420001 nan nan nan nan
-0.07504572 0.067432381 1.1420001 nan nan nan nan
-0.073626675 0.076460578 1.1436001 nan nan nan nan
0.097137146 0.076400004 1.146 nan nan nan nan
-0.072639629 0.084419429 1.1452 nan nan nan nan
-0.072870485 0.094622858 1.1420001 nan nan nan nan
-0.073567085 0.1052928 1.1431429 nan nan nan nan
-0.071764961 0.11539467 1.1452001 nan nan nan nan
-0.068520002 0.11746287 1.1420001 nan nan nan nan
-0.070942864 0.1255143 1.1460001 nan nan nan nan
-0.068520002 0.12362605 1.1420001 nan nan nan nan
0.087473653 0.12704001 1.1433334 nan nan nan nan
0.091142476 0.12464114 1.1420001 nan nan nan nan
-0.073380955 0.11828573 1.1500001 nan nan nan nan
-0.07294286 0.12420001 1.1500001 nan nan nan nan
