# .PCD v0.7 - Point Cloud Data file format
VERSION 0.7
FIELDS x y z normal_x normal_y normal_z curvature
SIZE 4 4 4 4 4 4 4
TYPE F F F F F F F
COUNT 1 1 1 1 1 1 1
WIDTH 405
HEIGHT 1
VIEWPOINT 0 0 0 1 0 0 0
POINTS 405
DATA ascii
0.058441907 -0.061464764 1.0580001 nan nan nan nan
0.013099049 -0.059449527 1.0580001 nan nan nan nan
0.02418286 -0.052396193 1.0580001 -0.10972814 -0.43315017 -0.88888103 nan
0.032243811 -0.052396193 1.0580001 -0.00036087446 -0.43200248 -0.89577937 nan
0.046663016 -0.052036032 1.0575001 -0.17331621 -0.44828123 -0.86662006 nan
0.055767663 -0.054287881 1.0565792 nan nan nan nan
0.062932618 -0.051855955 1.05725 0.51464361 -0.52901894 -0.666085 nan
0.025173903 -0.045317143 1.0574003 -0.21024181 -0.15572686 -0.95679539 nan
0.035241414 -0.045307089 1.0571603 -0.01087403 -0.25982949 -0.96384108 nan
0.045320462 -0.045322523 1.0575204 -0.12394433 -0.2343547 -0.95963424 nan
0.055261917 -0.045214288 1.0550002 0.020668501 -0.15263504 -0.95868725 nan
0.062873587 -0.045268338 1.0562503 0.62985051 -0.083933584 -0.75650597 nan
0.025707232 -0.035501081 1.0567731 -0.30323949 -0.044170149 -0.95049894 nan
0.035170902 -0.035171121 1.0551202 -0.062196292 -0.09476158 -0.99181324 nan
0.045268115 -0.035211131 1.0563203 -0.037374932 -0.094378069 -0.99417949 nan
0.055249333 -0.035159349 1.0547602 0.067948505 -0.0606048 -0.97508621 nan
0.063609593 -0.034946728 1.0559378 0.65530562 -0.11347342 -0.73993754 nan
0.0090685729 -0.021160003 1.0580001 -0.27143478 -0.20881462 -0.93953162 nan
0.0165755 -0.022986583 1.0577275 -0.24897827 -0.21192452 -0.94393063 nan
0.025422402 -0.024811553 1.0568264 -0.24408476 -0.071512312 -0.96446162 nan
0.03516667 -0.025119044 1.0550002 -0.10469951 -0.0083335862 -0.99304396 nan
0.045229029 -0.025128761 1.0553602 -0.011927286 -0.03897734 -0.99884009 nan
0.055248424 -0.025112646 1.0547602 0.038030226 -0.031524189 -0.98887968 nan
0.064326487 -0.025126476 1.0553002 0.62841648 -0.1073501 -0.75446457 nan
0.0090685729 -0.015114287 1.0580001 -0.33122337 -0.11152884 -0.93619406 nan
0.015091088 -0.015093598 1.0564402 -0.22267699 -0.13105391 -0.96389043 nan
0.025184762 -0.015110631 1.0577604 -0.10533477 -0.05550855 -0.99104327 nan
0.035170209 -0.015073142 1.0551202 -0.12295432 0.0035426442 -0.99213082 nan
0.045214284 -0.015071427 1.0550002 -0.023880338 -0.03192842 -0.9989273 nan
0.055249337 -0.015068914 1.0547602 0.0077848076 -0.055709712 -0.99403495 nan
0.065351702 -0.015080688 1.0556003 0.59932572 -0.078788564 -0.77042615 nan
0.071540952 -0.01108381 1.0580001 0.81304669 -0.073042527 -0.57759833 nan
0.0082048997 -0.0038865311 1.0580001 -0.34596458 -0.0027976201 -0.93734431 nan
0.015085029 -0.0050294092 1.0560803 -0.20000082 0.012174066 -0.97491616 nan
0.025173329 -0.0050342102 1.0572803 -0.060113266 0.0088949054 -0.99737149 nan
0.035166666 -0.0050238096 1.0550002 -0.13319804 -0.0059325336 -0.99066079 nan
0.045192115 -0.0050226669 1.0545201 -0.067188337 -0.014334674 -0.99722189 nan
0.055171624 -0.0050178668 1.0533201 -0.0097840475 -0.032044094 -0.99525678 nan
0.06513112 -0.0050221435 1.0547502 0.59568697 -0.015875829 -0.77767754 nan
0.071540952 -0.0080609536 1.0580001 0.81091893 -0.036242098 -0.58398259 nan
0.0073052393 0.0027709524 1.0580001 -0.31300688 0.015356991 -0.94867909 nan
0.015681362 0.0044612256 1.057429 -0.18538055 0.063596629 -0.97968423 nan
0.025174592 0.0050340956 1.0574003 -0.12765256 -0.0069512534 -0.99036014 nan
0.035170436 0.005024381 1.0551202 -0.11383235 -0.031794246 -0.99271595 nan
0.045203082 0.0050233528 1.0547602 -0.059457935 0.011656356 -0.997877 nan
0.055223506 0.005021296 1.0542802 0.0026564228 0.054060224 -0.9954887 nan
0.065320611 0.0050248383 1.0551202 0.58472013 0.045175832 -0.77534127 nan
0.016655352 0.015469917 1.0580003 -0.29939634 -0.023265436 -0.95158815 nan
0.025123846 0.0150744 1.0552403 -0.18097414 -0.069019049 -0.97980964 nan
0.03516667 0.01507143 1.0550002 -0.079798065 -0.063438065 -0.99449223 nan
0.045197945 0.015065369 1.0546402 -0.018505527 -0.056048885 -0.9972055 nan
0.05526191 0.015071432 1.0550002 0.039331138 -0.03016991 -0.9947257 nan
0.064985767 0.015252258 1.0553916 0.52755553 0.010121984 -0.79972988 nan
0.0090685729 0.024518732 1.0580001 -0.32700086 0.018777441 -0.94431579 nan
0.015101485 0.025173105 1.0572803 -0.37131798 -0.00072865601 -0.92746896 nan
0.025119046 0.025119046 1.0550002 -0.16394271 -0.0087893708 -0.98528862 nan
0.03516221 0.025115961 1.0548801 -0.086241245 -0.007756819 -0.99598759 nan
0.04511166 0.025061674 1.0526 -0.062746458 -0.059750561 -0.99573958 nan
0.055186484 0.025081333 1.0535601 0.070903584 -0.095877834 -0.99026257 nan
0.065305755 0.025114359 1.0548801 0.56140286 -0.054176494 -0.77698052 nan
0.015750682 0.034524206 1.0580003 -0.36759397 0.096821792 -0.92447591 nan
0.025126474 0.035179581 1.0553602 -0.19123019 0.074027039 -0.97792315 nan
0.03516667 0.035166673 1.0550002 -0.1129577 0.032397524 -0.99274182 nan
0.045149598 0.035118666 1.0535601 -0.12835254 -0.00068478833 -0.99108475 nan
0.055118248 0.035073981 1.05224 0.081070669 -0.035946753 -0.98633397 nan
0.064305626 0.035166673 1.0550002 0.56526244 0.042296458 -0.80663919 nan
0.017129524 0.046955049 1.0580002 -0.33649671 0.058819819 -0.93943751 nan
0.025152763 0.045281604 1.0565604 -0.22442967 0.054861248 -0.97216034 nan
0.03516667 0.045214284 1.0550002 -0.13808514 0.030794317 -0.98974681 nan
0.045138862 0.045142744 1.0533202 -0.11671391 0.057886645 -0.99105179 nan
0.055118244 0.045096457 1.05224 0.077376403 0.072368205 -0.98234338 nan
0.064326487 0.045227718 1.0553002 0.6302709 0.066258751 -0.76426166 nan
0.016726477 0.054612949 1.0580003 -0.31475836 0.032739289 -0.94776756 nan
0.02517082 0.055381563 1.0572803 -0.23506038 0.034369305 -0.96990192 nan
0.035166666 0.055261895 1.0550002 -0.14264828 0.022505019 -0.98915488 nan
0.045208916 0.055255849 1.0548801 -0.046630818 0.075913087 -0.99541801 nan
0.055241678 0.055243731 1.0546402 0.055516485 0.11854383 -0.98232025 nan
0.064309053 0.055261906 1.0550002 0.62920833 0.011522514 -0.74381697 nan
0.018473018 0.062136512 1.0580001 -0.33403593 0.13116433 -0.93298364 nan
0.025622901 0.064976849 1.0570458 -0.28064188 0.1107825 -0.95198429 nan
0.03516667 0.065309517 1.0550002 -0.15795776 0.04620688 -0.98430967 nan
0.045214288 0.065309525 1.0550002 0.032832082 0.051207781 -0.99763459 nan
0.055299859 0.065356389 1.0557202 0.063222542 0.10854884 -0.98786777 nan
0.064580731 0.065249763 1.0555717 0.56635511 0.077321544 -0.77635729 nan
0.027930997 0.075186588 1.0577275 -0.30968866 0.087228782 -0.94637328 nan
0.035193067 0.075419202 1.0558403 -0.18201323 0.058556061 -0.977507 nan
0.045240913 0.075401828 1.0556003 0.046600804 0.068954885 -0.9960131 nan
0.055379286 0.07551863 1.0572803 0.073886558 0.07001473 -0.9911688 nan
0.064425208 0.07549414 1.0569503 0.60147208 0.055414505 -0.77237338 nan
0.027695719 0.085438743 1.0575002 -0.31225261 0.10608906 -0.94322127 nan
0.035197973 0.085481554 1.0559603 -0.17456104 0.1367546 -0.9695105 nan
0.045283888 0.085529447 1.0565603 0.042438067 0.1382324 -0.98896879 nan
0.05518445 0.085379921 1.0567503 0.093444489 0.15304753 -0.97894114 nan
0.06383805 0.085255072 1.0560591 0.62358767 0.1692145 -0.7456724 nan
0.028213335 0.092700958 1.0580001 -0.26046413 0.2136889 -0.94112778 nan
0.03541062 0.093708567 1.0580003 -0.14898503 0.28203598 -0.94291377 nan
0.045118947 0.094604239 1.0580003 0.022226015 0.27451307 -0.9582299 nan
0.051964357 0.094860144 1.0580001 0.082243912 0.26130554 -0.96024156 nan
-0.0025428573 -0.060520004 1.0680001 nan nan nan nan
0.0044588572 -0.062526867 1.0658001 nan nan nan nan
0.014500636 -0.062033974 1.0620002 nan nan nan nan
0.025691977 -0.063720822 1.0668571 nan nan nan nan
0.035460763 -0.063828006 1.0638001 nan nan nan nan
0.045225792 -0.06365861 1.0661539 nan nan nan nan
0.05378636 -0.061232071 1.0656668 nan nan nan nan
-0.012205714 -0.051874287 1.0680001 -0.43922365 -0.47276157 -0.76129955 nan
-0.0046336511 -0.054699693 1.0680001 nan nan nan nan
0.0052334126 -0.055550631 1.0637498 nan nan nan nan
0.015245875 -0.055421598 1.0612502 nan nan nan nan
0.025494 -0.056046385 1.0622003 nan nan nan nan
0.035949115 -0.056161642 1.061143 -0.03875012 -0.37984946 -0.90783894 nan
0.045094237 -0.056701057 1.0621055 nan nan nan nan
0.054452192 -0.058908571 1.0628002 nan nan nan nan
0.064867832 -0.056470823 1.0642143 nan nan nan nan
0.070182867 -0.052891433 1.0680001 nan nan nan nan
-0.013604287 -0.045135718 1.068 -0.42285627 -0.18779986 -0.87774086 nan
-0.0050834287 -0.045725565 1.06688 -0.24328104 -0.14019339 -0.95664984 nan
0.005064609 -0.045589261 1.0637598 -0.25799111 -0.027689254 -0.96239066 nan
0.01515863 -0.045476116 1.0611202 -0.26588392 0.022757674 -0.96163166 nan
0.067039758 -0.045535002 1.0625001 0.82026684 -0.015623223 -0.56695461 nan
0.070182867 -0.048822857 1.0680001 0.9012506 -0.077536277 -0.42265642 nan
-0.013940841 -0.036198318 1.068 -0.46008995 0.045111444 -0.88324183 nan
-0.0050723045 -0.035490897 1.0647999 -0.26554745 -0.019299516 -0.96240377 nan
0.0050666663 -0.035466667 1.0639997 -0.18441004 -0.046421189 -0.98072422 nan
0.015180798 -0.035425756 1.0627999 -0.28390756 -0.035667852 -0.95501667 nan
0.021220004 -0.033345714 1.0610001 -0.34756798 -0.053623863 -0.93595237 nan
0.067845471 -0.036456428 1.0632501 0.77881813 -0.11862771 -0.61470968 nan
0.070764087 -0.035890616 1.0680001 0.83443958 -0.12071459 -0.53636622 nan
-0.011769798 -0.026300412 1.0680001 -0.43121871 0.017732307 -0.8982929 nan
-0.0050782477 -0.025373258 1.0655999 -0.33736882 -0.034055885 -0.93953282 nan
0.0048899213 -0.025474124 1.0627501 -0.24448952 -0.13466102 -0.95813769 nan
0.014005378 -0.027000073 1.0612143 -0.2428005 -0.18728785 -0.95064104 nan
0.022230478 -0.029303811 1.0610001 -0.32302681 -0.10517579 -0.94050187 nan
0.069801718 -0.025293905 1.0622 0.83308154 -0.1211447 -0.53757399 nan
0.072556198 -0.026106669 1.0680001 0.86173761 -0.12672341 -0.48643541 nan
-0.014013967 -0.01480508 1.0680001 -0.40238467 -0.091500014 -0.90979642 nan
-0.0050664381 -0.015195885 1.0637598 -0.34759429 -0.055936616 -0.93511134 nan
0.0040443339 -0.015170428 1.0620502 -0.34555209 -0.072490752 -0.93480414 nan
0.072461717 -0.01522286 1.0656 0.82956362 -0.10019287 -0.54841363 nan
-0.013821177 -0.0054447064 1.068 -0.42168978 -0.009198281 -0.90568924 nan
-0.0050694095 -0.0050672763 1.0643198 -0.34028298 -0.042779759 -0.93852723 nan
0.0038227518 -0.005513228 1.0630001 -0.36981869 -0.041261341 -0.92773324 nan
0.069722861 -0.0050523812 1.0610001 0.7913152 0.02238255 -0.61099863 nan
0.073166668 -0.0020314287 1.067 0.8447541 0.027965669 -0.52945924 nan
-0.015084127 0.0052533345 1.0676669 -0.46993077 -0.023070902 -0.88112736 nan
-0.0050650672 0.0050627813 1.0630398 -0.35546601 -0.033825722 -0.93357444 nan
0.0039824662 0.0061222971 1.061 -0.28204978 0.030035274 -0.95703495 nan
0.012125716 0.008083811 1.0610001 -0.21308275 0.11381342 -0.97034502 nan
0.074189022 0.0061749462 1.0670769 nan nan nan nan
-0.013696584 0.014891879 1.0675294 -0.46188381 0.080937482 -0.88147801 nan
-0.0050657527 0.015194284 1.06352 -0.31906149 0.093540542 -0.94124311 nan
0.0050567244 0.015176113 1.0622 -0.25354025 0.10173836 -0.96085536 nan
0.011873096 0.014399288 1.061 -0.26022911 0.069062315 -0.96154845 nan
0.069919996 0.013173334 1.064 0.80075371 0.067874871 -0.59258437 nan
0.074059375 0.015253652 1.0676666 nan nan nan nan
-0.013477144 0.025682857 1.068 -0.40476882 0.023866491 -0.91108704 nan
-0.0050773327 0.025373867 1.0655999 -0.27825218 0.097150974 -0.95374632 nan
0.0045109526 0.025415193 1.0635908 -0.34505618 0.071628012 -0.93457764 nan
0.074774705 0.025262317 1.0671428 nan nan nan nan
-0.021360001 0.039668575 1.0680001 -0.40019867 -0.12294322 -0.90814424 nan
-0.015087618 0.035769526 1.0680003 -0.34705651 -0.10468321 -0.93039072 nan
-0.005081295 0.03554957 1.0665601 -0.23510101 -0.054332294 -0.9695403 nan
0.005061524 0.03544667 1.0633999 -0.33854595 0.02246662 -0.93964529 nan
0.013136192 0.03772445 1.0610001 -0.35027945 0.072883934 -0.93323326 nan
0.069722861 0.035366669 1.0610001 0.77540654 0.055413872 -0.62807322 nan
0.074403815 0.035296667 1.0665001 nan nan nan nan
-0.021360001 0.045771431 1.0680001 -0.37989098 -0.018150525 -0.92351234 nan
-0.015250437 0.045744613 1.0673603 -0.32468536 -0.013232726 -0.94339299 nan
-0.0050666672 0.045599993 1.0639997 -0.20832057 -0.025867466 -0.97692996 nan
0.005061524 0.045574289 1.0633998 -0.26320529 0.0027884825 -0.96395165 nan
0.013809845 0.044393592 1.061 -0.32107431 0.034175992 -0.9456113 nan
0.06976229 0.045499437 1.0616001 0.75854868 0.094981357 -0.64411098 nan
0.073287196 0.045057781 1.0671111 0.79794633 0.13846739 -0.5859161 nan
-0.021360001 0.051874287 1.0680001 -0.42112243 0.052565932 -0.90547925 nan
-0.015257142 0.054925721 1.0680002 -0.32003874 0.053150713 -0.94481641 nan
-0.0049884883 0.055472627 1.0657393 -0.20764847 0.037744306 -0.97724682 nan
0.0050635813 0.055715159 1.0636399 -0.26343858 0.025607223 -0.96383315 nan
0.012732002 0.056788772 1.061 -0.28025004 0.049701586 -0.95798123 nan
0.069880567 0.055699617 1.0634001 0.85507339 -0.01724311 -0.50734228 nan
0.072217144 0.051874287 1.0680001 0.83786672 0.12954184 -0.53028131 nan
-0.015087618 0.063995235 1.0680003 -0.33449098 0.00070338161 -0.94038212 nan
-0.0049957507 0.065297887 1.0649229 -0.20965554 -0.027113741 -0.97624266 nan
0.0050666672 0.065866657 1.0639997 -0.20800275 0.023590505 -0.9756332 nan
0.014700954 0.06615819 1.0612729 -0.26045111 0.1150856 -0.95694655 nan
0.021893654 0.069049209 1.0610001 -0.33989844 0.11094241 -0.93374532 nan
0.069772147 0.066234052 1.0617502 0.87641966 -0.014385391 -0.47536206 nan
0.072126985 0.065013342 1.0666668 0.91671693 -0.020917837 -0.3932111 nan
-0.015257142 0.074251421 1.0680002 -0.34549275 0.021498451 -0.9367733 nan
-0.0052645812 0.074784026 1.0645713 -0.20776758 0.067483604 -0.97396433 nan
0.0050666672 0.074986659 1.0639999 -0.12940352 0.091186471 -0.98616469 nan
0.015441367 0.075544052 1.0625652 -0.23767178 0.094692297 -0.96487826 nan
0.023096601 0.076074436 1.061 -0.32835683 0.09711168 -0.93920243 nan
0.069788575 0.0738362 1.062 0.85614967 0.082119025 -0.50852013 nan
0.071640953 0.075707622 1.0670002 0.88211721 0.11925716 -0.45491844 nan
-0.013821177 0.083824545 1.068 -0.31745794 0.1864319 -0.92653698 nan
-0.0050805341 0.084325649 1.06672 -0.20820835 0.17851368 -0.96039569 nan
0.0050686481 0.084196717 1.0651199 -0.15023157 0.11950552 -0.98071438 nan
0.014913767 0.084615767 1.0634546 -0.24518828 0.06428156 -0.96669728 nan
0.022930039 0.086045951 1.061 -0.32023874 0.09337572 -0.94168478 nan
0.059618101 0.08993239 1.0610001 0.2864415 0.22027156 -0.93243325 nan
0.068441272 0.083944768 1.062 0.82263124 0.14805369 -0.54232353 nan
0.070589721 0.086050287 1.0680001 0.87836027 0.093512565 -0.4639836 nan
-0.011188572 0.091542862 1.0680001 -0.2991429 0.26435643 -0.91678667 nan
-0.0040685716 0.093690164 1.0680001 -0.26805773 0.20506449 -0.93999451 nan
0.0050727623 0.094439015 1.0662402 -0.23274328 0.14034198 -0.96145225 nan
0.015199998 0.094240002 1.0639997 -0.23950648 0.13398339 -0.96038282 nan
0.024527976 0.095592514 1.062125 -0.23146665 0.22422884 -0.9440068 nan
0.035029843 0.097342551 1.0610001 -0.15754998 0.3480781 -0.92316997 nan
0.047492385 0.095995247 1.0610001 0.044652492 0.29113516 -0.9541024 nan
0.057043005 0.09531267 1.0614285 0.15605518 0.28932995 -0.9401589 nan
0.064905114 0.094765715 1.0618824 0.62867415 0.21230888 -0.7280038 nan
0.070764087 0.095466129 1.0680001 0.8954674 0.06847439 -0.4356018 nan
-0.0016952383 0.10137525 1.0680001 -0.30345917 0.19353282 -0.93274057 nan
0.0053484063 0.10437914 1.0676522 -0.24814625 0.17386302 -0.9520365 nan
0.015224836 0.10455055 1.06576 -0.18885022 0.19136785 -0.96285248 nan
0.025343541 0.10442194 1.0644797 -0.15958235 0.22791238 -0.95955819 nan
0.03544575 0.10431653 1.0634 -0.11825266 0.27116278 -0.95227194 nan
0.045532912 0.10422373 1.0624403 -0.011919835 0.27823973 -0.95805293 nan
0.055838894 0.10442104 1.0627503 0.12850074 0.24290496 -0.95812166 nan
0.064852715 0.10437043 1.0639499 0.66014093 0.17770363 -0.70703238 nan
0.07086096 0.10307048 1.0680001 0.87441009 0.12831837 -0.46474284 nan
0.0078597413 0.11530702 1.068 -0.22531293 0.14346853 -0.96274185 nan
0.015257142 0.11493715 1.0680002 -0.17042157 0.14113413 -0.97434604 nan
0.025367772 0.11467948 1.0655999 -0.15749368 0.1526271 -0.97492462 nan
0.035466667 0.11450665 1.0639997 -0.11229721 0.13875075 -0.98253292 nan
0.045599997 0.11450667 1.0639997 -0.029407216 0.11802885 -0.99124897 nan
0.055733327 0.11450665 1.0639997 0.16956098 0.11567453 -0.97059715 nan
0.064417385 0.11422311 1.06725 0.60195589 0.15447582 -0.76732337 nan
0.0084761912 0.12171811 1.0680001 -0.24459553 0.19520973 -0.9488306 nan
0.015610931 0.12484325 1.0680002 -0.20813119 0.19653903 -0.95565534 nan
0.025425069 0.12508953 1.0678402 -0.14601162 0.14340778 -0.97827637 nan
0.035532344 0.12488611 1.06608 -0.12327302 0.16341996 -0.97833586 nan
0.045606554 0.12465932 1.0641596 -0.053681228 0.16588287 -0.98410869 nan
0.055756643 0.12469713 1.0644798 0.13606371 0.12060209 -0.97505879 nan
0.063979872 0.12534261 1.0662858 0.57274383 -0.10439517 -0.78571695 nan
0.070182867 0.12917715 1.0680001 nan nan nan nan
0.018817145 0.13273714 1.0680001 -0.26890865 0.2933135 -0.91692537 nan
0.025598098 0.13511048 1.0680003 -0.21818915 0.23484504 -0.9444164 nan
0.035588115 0.13524038 1.0676802 -0.10359591 0.17937681 -0.97704041 nan
0.045764878 0.13526034 1.0678402 -0.048394628 0.18505161 -0.98140556 nan
0.055541206 0.13508308 1.0671306 -0.030028183 0.19473726 -0.97869849 nan
0.064602777 0.13530408 1.0674547 nan nan nan nan
0.070996575 0.13690744 1.0680001 nan nan nan nan
0.029497145 0.14240001 1.0680001 -0.2305541 0.34141088 -0.91108465 nan
0.036108576 0.14290857 1.068 -0.13368635 0.28577918 -0.9476409 nan
-0.0133327 -0.060498416 1.0766667 nan nan nan nan
-0.0056865313 -0.062244091 1.0714287 nan nan nan nan
0.025500001 -0.062220007 1.0710001 nan nan nan nan
0.055303495 -0.065338627 1.0775557 nan nan nan nan
-0.02258667 -0.052360006 1.0780001 nan nan nan nan
-0.015583587 -0.054920062 1.0737058 nan nan nan nan
-0.009180001 -0.057120003 1.0710001 nan nan nan nan
0.068340003 -0.056100007 1.0710001 nan nan nan nan
0.072055563 -0.054291114 1.0756668 nan nan nan nan
-0.023743179 -0.043893021 1.0760001 nan nan nan nan
-0.018105002 -0.046664998 1.0710001 -0.64141512 -0.26374495 -0.71078229 nan
0.074434288 -0.043859497 1.074 nan nan nan nan
0.081006348 -0.042041272 1.0766667 nan nan nan nan
-0.024365289 -0.035402969 1.0757778 nan nan nan nan
-0.018105004 -0.034425002 1.0710001 -0.57259107 0.067839161 -0.81128848 nan
0.075650617 -0.035398923 1.0743335 nan nan nan nan
0.081106678 -0.035933331 1.0780001 nan nan nan nan
-0.031826667 -0.02156 1.0780001 nan nan nan nan
-0.025629329 -0.02562537 1.0762398 nan nan nan nan
-0.016666034 -0.025167622 1.0713334 -0.45212683 -0.016617652 -0.88308907 nan
0.076612629 -0.02491278 1.0749167 0.84602374 -0.094921611 -0.50778627 nan
0.081791118 -0.02908889 1.0780001 nan nan nan nan
-0.032755811 -0.015357333 1.0748001 nan nan nan nan
-0.025533255 -0.015320458 1.0723199 nan nan nan nan
-0.018505719 -0.016465716 1.0710001 -0.33232403 -0.15889519 -0.92302418 nan
0.076706231 -0.015501396 1.0738463 0.82341695 -0.17416011 -0.5295434 nan
0.084030472 -0.012299047 1.076 nan nan nan nan
-0.032379594 -0.0060046264 1.0768572 nan nan nan nan
-0.025566515 -0.0051100585 1.0736399 nan nan nan nan
-0.018360004 -0.0043350002 1.0710001 -0.39983746 0.036677618 -0.91190815 nan
0.0766358 -0.0055458513 1.0728573 0.79027528 0.090180941 -0.58582085 nan
0.083903715 -0.0051209526 1.0764736 nan nan nan nan
-0.031620003 0.009180001 1.0710001 nan nan nan nan
-0.025574815 0.0051128766 1.0739597 nan nan nan nan
-0.019380003 0.0010200001 1.0710001 -0.42141834 -0.055020295 -0.90519577 nan
0.077552393 0.0030658508 1.0734286 nan nan nan nan
0.080755562 0.007151112 1.0733335 nan nan nan nan
-0.031757779 0.016060002 1.0756668 nan nan nan nan
-0.025591543 0.015353371 1.0746398 nan nan nan nan
-0.018615004 0.016065001 1.0710001 -0.53580308 0.080531776 -0.83905727 nan
0.077265009 0.015300002 1.0710001 nan nan nan nan
-0.033880003 0.026351113 1.0780001 nan nan nan nan
-0.025619732 0.025612263 1.0757599 nan nan nan nan
-0.018473336 0.025046669 1.0710001 -0.53866917 -0.048862893 -0.83816701 nan
0.076500006 0.025840003 1.0710001 nan nan nan nan
-0.034543753 0.035745773 1.0761176 nan nan nan nan
-0.025726115 0.035598181 1.0731666 -0.42396545 -0.32357955 -0.82902116 nan
-0.019380003 0.031620003 1.0710001 -0.47415563 -0.16133243 -0.86553353 nan
0.078925006 0.036894999 1.0762501 nan nan nan nan
0.081613339 0.037557781 1.0756668 nan nan nan nan
-0.032823808 0.044106666 1.077 nan nan nan nan
-0.025621317 0.045550838 1.0719047 nan nan nan nan
0.077163041 0.046516974 1.0724546 nan nan nan nan
0.08141239 0.044618096 1.0730001 nan nan nan nan
-0.031826667 0.057493336 1.0780001 nan nan nan nan
-0.025665715 0.055140201 1.0732105 nan nan nan nan
0.07574039 0.055325914 1.0718 nan nan nan nan
0.080805711 0.057279997 1.074 nan nan nan nan
-0.032739263 0.065136299 1.0780001 nan nan nan nan
-0.025554895 0.064386129 1.07312 nan nan nan nan
-0.019380003 0.066300005 1.0710001 -0.34948978 -0.013963769 -0.93683612 nan
0.076834612 0.064540006 1.0756668 nan nan nan nan
0.08110667 0.068786673 1.0780001 nan nan nan nan
-0.032726139 0.07445778 1.0775557 nan nan nan nan
-0.025542134 0.074571177 1.0725998 nan nan nan nan
0.075973079 0.074105375 1.0766364 nan nan nan nan
-0.031803049 0.085153148 1.0772001 nan nan nan nan
-0.025384523 0.084662139 1.0731667 nan nan nan nan
-0.018360002 0.085935004 1.0710001 -0.40022784 0.24452236 -0.87867427 nan
0.074594609 0.084150486 1.0753335 0.85225499 0.069938108 -0.49676186 nan
-0.024279576 0.095061161 1.077111 nan nan nan nan
-0.015693622 0.095344469 1.0734348 -0.38355646 0.31414372 -0.86590928 nan
-0.0077228583 0.097191438 1.0710001 -0.31193298 0.21059915 -0.92553109 nan
0.074102223 0.092877775 1.0756668 nan nan nan nan
-0.023466667 0.10545334 1.0780001 nan nan nan nan
-0.015367238 0.10548106 1.0752798 -0.36486498 0.16222459 -0.91171473 nan
-0.0055703907 0.1056039 1.0718181 -0.34291825 0.20031574 -0.9172895 nan
0.0020400002 0.10914001 1.0710001 -0.31086135 0.16900739 -0.93525362 nan
0.071636677 0.10949668 1.0745001 0.86856508 0.11234009 -0.48010024 nan
-0.022244446 0.11259112 1.0780001 -0.37135756 0.28013748 -0.87442636 nan
-0.014938626 0.11471239 1.0775555 -0.32138747 0.22357464 -0.91860378 nan
-0.004943572 0.11532374 1.0731666 -0.36855122 0.18626031 -0.91007084 nan
0.0029142862 0.1149686 1.0710001 -0.31564388 0.15780765 -0.93486369 nan
0.067830004 0.11781 1.0710001 0.75854766 0.13535108 -0.6348775 nan
0.071513474 0.11479975 1.0748572 0.8563379 0.09870591 -0.50374132 nan
-0.012205927 0.12445482 1.0780001 -0.32191682 0.13129562 -0.93567002 nan
-0.0051258444 0.1249293 1.0752271 -0.36189494 0.19666855 -0.91039932 nan
0.0046388311 0.12600584 1.0716816 -0.30624536 0.271696 -0.91128647 nan
0.011220001 0.12852001 1.0710001 -0.22779137 0.30481014 -0.92451096 nan
0.067723811 0.1245562 1.072 0.75977176 -0.13949785 -0.60129821 nan
0.0712464 0.12508041 1.0752858 nan nan nan nan
-0.011293334 0.13449334 1.0780001 -0.25030252 0.15303738 -0.95352089 nan
-0.0053044446 0.13466446 1.0779998 -0.26151374 0.19899845 -0.94202602 nan
0.005125334 0.13532114 1.0764 -0.2370839 0.31399104 -0.91825324 nan
0.014435953 0.13532382 1.0733752 -0.28582075 0.33264878 -0.8982597 nan
0.02142 0.13974002 1.0710001 -0.31906629 0.33987558 -0.88469279 nan
0.071400009 0.13260001 1.0710001 nan nan nan nan
-0.0023955558 0.1433911 1.0780001 -0.17339857 0.21201821 -0.96100932 nan
-0.022690795 -0.062919691 1.0830001 nan nan nan nan
-0.016765477 -0.062674291 1.0832502 nan nan nan nan
-0.024965953 -0.054307386 1.0810002 nan nan nan nan
-0.018531431 -0.058682859 1.0810001 nan nan nan nan
0.075641096 -0.053814426 1.0837144 nan nan nan nan
-0.02837879 -0.045235936 1.0817275 nan nan nan nan
0.077828765 -0.047689337 1.0838002 nan nan nan nan
0.082705095 -0.045642227 1.0810001 nan nan nan nan
-0.029856194 -0.036033336 1.0810001 nan nan nan nan
0.079273336 -0.03191524 1.0810001 nan nan nan nan
0.081332393 -0.03191524 1.0810001 nan nan nan nan
-0.03397429 -0.021620002 1.0810001 nan nan nan nan
0.079273336 -0.027797144 1.0810001 nan nan nan nan
0.085063472 -0.025226409 1.083182 nan nan nan nan
0.079273336 -0.017501906 1.0810001 0.84794348 -0.13632986 -0.51225585 nan
0.084567629 -0.01753254 1.0828335 nan nan nan nan
0.090148576 -0.01865143 1.0880001 nan nan nan nan
-0.032601591 0.0041180956 1.0810002 nan nan nan nan
0.084658541 0.0035637366 1.0810003 nan nan nan nan
-0.03397429 0.026767619 1.0810001 nan nan nan nan
-0.03397429 0.048387621 1.0810001 nan nan nan nan
0.082361914 0.046328574 1.0810002 nan nan nan nan
-0.032430001 0.051990956 1.0810001 nan nan nan nan
-0.029856192 0.052505717 1.0810001 nan nan nan nan
0.083391443 0.052505717 1.0810002 nan nan nan nan
0.077500008 0.065099999 1.085 nan nan nan nan
0.081859052 0.065280005 1.0880001 nan nan nan nan
0.078508377 0.077271439 1.0818001 nan nan nan nan
0.082382962 0.07482297 1.0827779 nan nan nan nan
-0.029856192 0.089568578 1.0810001 nan nan nan nan
0.07872694 0.086380281 1.0815716 nan nan nan nan
0.083065033 0.084761299 1.0840911 nan nan nan nan
-0.032033335 0.094033331 1.085 nan nan nan nan
-0.029169843 0.096088901 1.0810002 nan nan nan nan
0.077572957 0.094535619 1.0860001 nan nan nan nan
0.082474604 0.092136197 1.0870001 nan nan nan nan
-0.027797144 0.10501144 1.0810001 nan nan nan nan
0.07491456 0.10534532 1.0860002 0.90053052 0.084735371 -0.42209628 nan
-0.026572762 0.11493828 1.0814 nan nan nan nan
-0.019560954 0.11736572 1.0810001 -0.21681398 0.25242624 -0.94247866 nan
0.077212647 0.11502104 1.0867336 nan nan nan nan
0.082895249 0.11708953 1.0880002 nan nan nan nan
-0.025398556 0.12438399 1.0816956 nan nan nan nan
-0.017244525 0.12444369 1.0810002 -0.18985963 0.085637636 -0.97008377 nan
0.075964585 0.12432089 1.0833126 nan nan nan nan
0.082895242 0.12123429 1.0880001 nan nan nan nan
-0.024556844 0.13470383 1.0814213 nan nan nan nan
-0.016472379 0.13486765 1.0810001 -0.14748229 0.082666032 -0.97487479 nan
0.075155243 0.13074954 1.0810001 nan nan nan nan
-0.015585716 -0.065460011 1.0910001 nan nan nan nan
0.077928573 -0.052991431 1.0910001 nan nan nan nan
0.080699369 -0.051606037 1.0910001 nan nan nan nan
0.083123818 -0.04883524 1.0910001 nan nan nan nan
0.085439049 -0.021880001 1.0940001 nan nan nan nan
0.090728574 -0.0219 1.095 nan nan nan nan
0.084982291 0.067025714 1.0962001 nan nan nan nan
0.085748568 0.070062861 1.098 nan nan nan nan
0.077928573 0.097670481 1.0910001 0.90095615 0.2905519 -0.31748503 nan
0.082336828 0.097968265 1.0943335 nan nan nan nan
0.077928573 0.10494383 1.0910001 0.8846283 0.040112972 -0.4581688 nan
0.083023928 0.10524196 1.0918419 nan nan nan nan
0.084203348 0.11226811 1.0915 nan nan nan nan
