# .PCD v0.7 - Point Cloud Data file format
VERSION 0.7
FIELDS x y z normal_x normal_y normal_z curvature
SIZE 4 4 4 4 4 4 4
TYPE F F F F F F F
COUNT 1 1 1 1 1 1 1
WIDTH 502
HEIGHT 1
VIEWPOINT 0 0 0 1 0 0 0
POINTS 502
DATA ascii
0.0080609536 -0.062472384 1.0580001 nan nan nan nan
0.013099048 -0.061464768 1.0580001 nan nan nan nan
0.01209143 -0.057434291 1.0580001 nan nan nan nan
-0.0027349661 -0.042751841 1.0580001 -0.27818367 -0.24079852 -0.92149848 nan
0.0030228577 -0.042320006 1.0580001 0.062561572 -0.17585623 -0.97715849 nan
-0.0041295239 -0.035036288 1.0571003 -0.41510224 -0.12254554 -0.88559276 nan
0.0033326747 -0.034639787 1.0577695 0.057326112 -0.16183341 -0.97525984 nan
0.01108381 -0.031236194 1.0580001 0.27911919 -0.16055734 -0.94673854 nan
-0.0048684925 -0.025005396 1.0572504 -0.49379832 -0.10212141 -0.8422367 nan
0.0050332956 -0.025164416 1.0568002 0.15111102 -0.099282846 -0.97444397 nan
0.01108381 -0.02468667 1.0580001 0.27391112 -0.10220547 -0.95581698 nan
-0.01108381 -0.014106668 1.0580001 -0.79897201 -0.028666452 -0.60025549 nan
-0.0050297529 -0.015081944 1.0557202 -0.50755 -0.043954711 -0.83018231 nan
0.004363765 -0.015191067 1.0567145 0.15686277 -0.028557006 -0.98210609 nan
-0.0050307815 -0.0050303242 1.0560802 -0.5167399 -0.022628808 -0.82380843 nan
0.0050350092 -0.0050345529 1.0569203 0.14897935 -0.076065779 -0.98134756 nan
0.013502097 -0.004232001 1.0580003 0.27716327 -0.10468275 -0.95471978 nan
-0.01108381 0.0070533343 1.0580001 -0.78887838 -0.032119714 -0.61354864 nan
-0.0050248383 0.0050239246 1.0551202 -0.54014105 -0.043120697 -0.81250232 nan
0.0050278096 0.0050255251 1.0553602 0.15135503 -0.027139373 -0.98437339 nan
0.014583961 0.0039774436 1.0580003 0.29510811 -0.0090110945 -0.95490819 nan
-0.011083811 0.015114287 1.0580001 -0.78740519 0.016467676 -0.61598724 nan
-0.0050268951 0.015076799 1.0553602 -0.52734971 0.032985952 -0.81898761 nan
0.0050313524 0.015085827 1.0559603 0.15506992 0.025634758 -0.98491299 nan
0.01471124 0.017532572 1.0580002 0.24370258 -0.058819797 -0.96665442 nan
0.021160003 0.017129526 1.0580001 0.22955872 -0.086141303 -0.96947533 nan
-0.0050329529 0.025147617 1.0562003 -0.52805775 0.10071357 -0.8159256 nan
0.0048561492 0.02522766 1.0559133 0.028949339 0.017328212 -0.99304539 nan
0.015104 0.025172416 1.0572803 0.1954519 -0.084798075 -0.9755972 nan
0.022279581 0.026310055 1.0580002 0.28781286 -0.054653462 -0.95352501 nan
-0.0039736843 0.035767667 1.0572108 -0.53059536 0.017905144 -0.83129042 nan
0.0050292951 0.035211917 1.0564404 -0.026526129 -0.037387334 -0.99046725 nan
0.014838136 0.034877561 1.0568264 0.21305752 -0.0040939641 -0.97522646 nan
0.021831749 0.031907942 1.0580001 0.32695127 0.039313167 -0.94408166 nan
-0.01108381 0.043327622 1.0580001 -0.80298775 0.017351672 -0.59574294 nan
-0.0048633739 0.045096707 1.0561253 -0.59513855 0.063637525 -0.78439248 nan
0.0050266669 0.045242283 1.0556003 -0.024488091 0.087814599 -0.98594344 nan
0.014195574 0.045601003 1.0569503 0.21245015 0.05250686 -0.97413677 nan
0.022167621 0.049373336 1.0580001 0.37444526 -0.0090847611 -0.92710429 nan
-0.0032467726 0.053179894 1.0580002 -0.49224296 0.19166586 -0.83929396 nan
0.0049373335 0.054612953 1.0580004 -0.088317014 0.19038169 -0.97128421 nan
0.015112801 0.055413 1.0578804 0.16170835 0.1111792 -0.97717917 nan
0.021495877 0.055083178 1.0580001 0.33306867 0.070310324 -0.93926561 nan
-0.0010076191 0.069525719 1.0580001 -0.452205 0.058884718 -0.8899681 nan
0.0048461678 0.065783143 1.0580004 -0.14083162 0.067063309 -0.98038232 nan
0.011979473 0.065047421 1.0580002 0.11394273 0.085085288 -0.98869687 nan
0.0063420734 0.074741617 1.0580003 -0.077322453 0.10323735 -0.98592722 nan
0.011083811 0.075571433 1.0580001 0.12731403 0.11425592 -0.98480064 nan
0.0030228575 0.083632387 1.0580001 -0.22295368 0.19310729 -0.95551097 nan
-0.0026430476 -0.061544385 1.0664002 nan nan nan nan
0.0025333334 -0.062320001 1.064 nan nan nan nan
0.018276192 -0.062944762 1.0660001 nan nan nan nan
0.02176686 -0.062452581 1.0680001 nan nan nan nan
0.035260953 -0.064419053 1.0680001 nan nan nan nan
-0.011866668 -0.052552383 1.0680001 -0.63031161 -0.53502858 -0.5599699 nan
-0.0046680956 -0.054870378 1.0649 nan nan nan nan
0.0050571812 -0.055653218 1.06244 nan nan nan nan
0.016136391 -0.055003863 1.0622633 nan nan nan nan
0.025046563 -0.054485299 1.066 0.39445883 -0.36903995 -0.82706571 nan
0.032345146 -0.053501721 1.0680001 0.3366161 -0.37439606 -0.86147451 nan
-0.013059049 -0.045407888 1.0662858 -0.75873065 -0.21098965 -0.60004896 nan
-0.0059520118 -0.046489686 1.0611668 -0.41866028 -0.3310791 -0.82447469 nan
0.005690577 -0.046428725 1.0610001 0.067899458 -0.18327162 -0.96567458 nan
0.015183886 -0.04554183 1.0626801 0.20508027 0.046697803 -0.97486115 nan
0.025333332 -0.045600004 1.0639997 0.24878103 -0.10499192 -0.95861095 nan
0.034655053 -0.045321722 1.0670002 0.38053998 -0.18492098 -0.90430975 nan
-0.013202287 -0.0355388 1.0661334 -0.82052779 -0.03263538 -0.56649399 nan
-0.0086900964 -0.036175054 1.0610001 -0.68201417 -0.07220915 -0.72456747 nan
0.0069049215 -0.036040317 1.061 0.23793241 -0.12780586 -0.96082211 nan
0.015360318 -0.035611033 1.0632499 0.23237512 -0.10514657 -0.96583962 nan
0.025333332 -0.035466667 1.0639997 0.20316654 -0.061088689 -0.97669476 nan
0.035556264 -0.035552613 1.0665599 0.35092032 -0.064839214 -0.93300146 nan
-0.013043946 -0.025066668 1.0650001 -0.83277291 -0.042856056 -0.54902238 nan
-0.0090942867 -0.029303811 1.0610001 -0.73282397 -0.053275388 -0.67832941 nan
0.01592703 -0.02535814 1.0610002 0.28217837 -0.094403774 -0.95426363 nan
0.025318708 -0.025315735 1.06328 0.23779605 -0.067541853 -0.96801215 nan
0.035556272 -0.025394592 1.0665599 0.32411021 -0.057026818 -0.94387585 nan
0.042041913 -0.024750479 1.0680001 0.40423286 -0.085135207 -0.91051567 nan
-0.013933419 -0.015589525 1.0655456 -0.85728884 -0.023595696 -0.51243198 nan
0.0085890489 -0.014651907 1.0610001 0.25125897 -0.037652086 -0.9670372 nan
0.015157144 -0.015157144 1.0610002 0.28734651 -0.027166998 -0.95715123 nan
0.025313219 -0.015186745 1.0630399 0.23786409 -0.034808472 -0.96985161 nan
0.035518322 -0.015222399 1.0654399 0.30595157 -0.039884221 -0.9509328 nan
0.043424182 -0.014787695 1.068 0.38442689 -0.056253031 -0.92094094 nan
-0.013181905 -0.0050682547 1.0643334 -0.83204222 -0.0067333919 -0.55271089 nan
0.017582288 -0.0062649534 1.061 0.28409132 -0.089574166 -0.95430702 nan
0.025312765 -0.0050627813 1.0630399 0.26525292 -0.058588237 -0.96135747 nan
0.035513297 -0.0050727623 1.0652797 0.30812198 -0.015585139 -0.9507311 nan
0.04410702 -0.0043459744 1.068 0.30398169 -0.061827362 -0.94890016 nan
0.052891433 -0.0010171429 1.0680001 0.29084659 -0.16993095 -0.94080544 nan
-0.013698572 0.0045669843 1.0651667 -0.83433503 -0.041281067 -0.54805028 nan
0.016841274 0.0084206369 1.0610001 0.30722761 -0.024624944 -0.95089579 nan
0.025286816 0.0050564948 1.0619601 0.2881822 -0.023349183 -0.95634812 nan
0.035524264 0.0050733713 1.0655999 0.30764893 -0.034167845 -0.95000786 nan
0.046141308 0.0052706506 1.0680002 0.23779981 -0.068194613 -0.96818304 nan
0.052778415 0.0046336511 1.068 0.27023873 -0.085392393 -0.95754993 nan
-0.014724842 0.015060715 1.0660834 -0.84858525 0.021299889 -0.5263626 nan
0.015426606 0.013540383 1.061 0.27670941 -0.0065883216 -0.96011484 nan
0.025456509 0.015086506 1.062 0.2669909 -0.068871334 -0.96059626 nan
0.035506442 0.015214475 1.0651199 0.29929453 -0.08455614 -0.94997948 nan
0.045758937 0.015251655 1.0676802 0.26279578 -0.054591589 -0.9625901 nan
0.051874287 0.015257144 1.0680001 0.32893789 -0.0043504438 -0.94341105 nan
-0.01318851 0.02535397 1.0648667 -0.83092725 0.079074904 -0.54859585 nan
0.0070733344 0.024251431 1.0610001 0.13279089 9.4077317e-05 -0.99100906 nan
0.026909111 0.024635181 1.0611874 0.29852223 -0.053273927 -0.95171511 nan
0.035459582 0.025327619 1.0637598 0.31700251 -0.014422605 -0.94733953 nan
0.045740195 0.025409527 1.0672002 0.28263685 -0.013464849 -0.95786238 nan
0.05289143 0.026700003 1.068 0.36716068 -0.0027462423 -0.92984402 nan
-0.012874068 0.035020884 1.0646923 -0.83850348 0.04261595 -0.54113859 nan
-0.0084206369 0.03368254 1.0610001 -0.7316162 0.04048929 -0.67809224 nan
0.018188573 0.039408576 1.0610001 0.31761491 0.034937188 -0.94688833 nan
0.025750306 0.035863381 1.0620909 0.32880145 0.061667807 -0.94166648 nan
0.03549638 0.035493337 1.0647999 0.31578881 0.05807732 -0.9460718 nan
0.045594767 0.035510007 1.0678337 0.28333479 0.047377851 -0.95647949 nan
0.053004447 0.034695871 1.068 0.31766903 0.041319188 -0.94622165 nan
-0.012293122 0.045891218 1.0655556 -0.83417726 0.035319854 -0.54753762 nan
-0.0090942867 0.04951334 1.0610001 -0.7437014 0.091811545 -0.66217738 nan
0.018794861 0.044258863 1.0610001 0.33789644 0.037517112 -0.93987894 nan
0.025553584 0.045164678 1.0620435 0.34481129 0.036828328 -0.93705773 nan
0.035490438 0.045626819 1.0646398 0.30797863 0.067275815 -0.94725531 nan
0.045771435 0.045771435 1.0680002 0.32277179 0.080765627 -0.94073856 nan
0.051874287 0.042720005 1.0680001 0.312379 0.13078481 -0.94080627 nan
-0.012649004 0.055292815 1.0661819 -0.831361 0.079745337 -0.5437091 nan
-0.0060660718 0.056860011 1.061375 -0.60850751 0.13859944 -0.76677102 nan
0.0054565719 0.058809724 1.0610001 -0.081059135 0.14529796 -0.98404163 nan
0.026474036 0.055765264 1.062579 0.3758741 0.063982695 -0.92404658 nan
0.03538939 0.055138335 1.0674288 0.3162854 0.059229381 -0.94463211 nan
0.045053452 0.054865886 1.068 0.32079005 0.064116947 -0.94343376 nan
-0.011146667 0.064853333 1.064 -0.77385092 0.11530029 -0.6226598 nan
-0.0052261516 0.065551251 1.0616252 -0.595061 0.1093272 -0.78299725 nan
0.0060628578 0.064165249 1.0610001 -0.06267456 0.057219334 -0.99597114 nan
0.01692887 0.065945551 1.0611875 0.21541134 0.11337963 -0.96919918 nan
0.025320878 0.065830909 1.0633998 0.31856406 0.081241444 -0.94304013 nan
0.035478946 0.06481538 1.0665184 0.29336849 0.012528391 -0.95488858 nan
0.04499647 0.064176872 1.0680002 0.36917871 0.091902442 -0.92306 nan
-0.011188572 0.073573343 1.0680001 -0.77466381 0.11468967 -0.62155461 nan
-0.0048699779 0.075116783 1.0624287 -0.62129307 0.11605367 -0.76435173 nan
0.0022735717 0.077554055 1.061 -0.27926645 0.13719197 -0.94567513 nan
0.016170332 0.075796157 1.0611502 0.22597563 0.099929713 -0.96862042 nan
0.025333334 0.074986659 1.0639999 0.24151543 0.041556075 -0.96815157 nan
0.035808835 0.074652471 1.0658184 0.3095108 -0.01086193 -0.94860661 nan
0.042284086 0.073670208 1.0680001 0.45593873 0.038687512 -0.8884058 nan
-0.011188572 0.083405718 1.0680001 -0.7840364 0.15772851 -0.60011548 nan
-0.0052433345 0.084315255 1.0644999 -0.64863366 0.15688942 -0.73496544 nan
0.0052448539 0.085409328 1.0610002 -0.13481206 0.20026296 -0.96251678 nan
0.015177429 0.084976874 1.0622001 0.14405537 0.15444005 -0.97613299 nan
0.02533333 0.084106669 1.0639997 0.19019818 0.087493092 -0.97689724 nan
0.035518933 0.084220491 1.0654399 0.31284735 0.082888469 -0.94180107 nan
0.042833019 0.08555302 1.068 0.47207472 0.072116412 -0.87751162 nan
-0.0049100001 0.094235063 1.0658331 -0.67132175 0.16706519 -0.70981777 nan
0.0049764393 0.094558053 1.0636085 -0.16209623 0.16473123 -0.9654606 nan
0.015199999 0.094240017 1.0639997 0.10714359 0.1611335 -0.98041755 nan
0.025358932 0.094326846 1.0649598 0.20918673 0.19251762 -0.95724815 nan
0.034737248 0.093719915 1.0677896 0.30227131 0.238254 -0.92078894 nan
0.041702859 0.091542862 1.0680001 0.40047354 0.19272508 -0.89556879 nan
-0.003906968 0.10444833 1.0669475 -0.69720078 0.14989527 -0.69337261 nan
0.0050666663 0.10437331 1.0639997 -0.18173926 0.11147578 -0.96469206 nan
0.015218134 0.10448626 1.0651196 0.16005103 0.15770516 -0.97282857 nan
0.025071306 0.10448398 1.0678264 0.26091245 0.20679055 -0.94211066 nan
0.031531431 0.10069715 1.0680001 0.30979913 0.24024475 -0.91994941 nan
-0.0027111112 0.11394732 1.0666667 -0.70641434 0.19934306 -0.67586672 nan
0.0050709331 0.11457705 1.0646397 -0.2583186 0.16539563 -0.93146908 nan
0.015251199 0.11488487 1.0675203 0.19008508 0.07094688 -0.97749108 nan
0.022716189 0.11538921 1.068 0.25748631 0.057998173 -0.96366531 nan
-0.0010171429 0.12307429 1.0680001 -0.68334121 0.224214 -0.69479841 nan
0.0050846478 0.12509045 1.0678402 -0.38554737 0.2077519 -0.88062459 nan
0.015214475 0.12477243 1.0651199 0.15236861 0.17953812 -0.96500057 nan
0.023055239 0.12426096 1.068 0.2992838 0.18424916 -0.93233389 nan
0.0052128574 0.13362715 1.068 -0.36323395 0.27623764 -0.86934137 nan
0.015257144 0.13121143 1.0680001 0.16274202 0.35499457 -0.91626531 nan
-0.013346667 -0.060573336 1.0780001 nan nan nan nan
-0.0071664285 -0.061445475 1.07525 nan nan nan nan
0.026954284 -0.064050436 1.0715294 nan nan nan nan
0.034496002 -0.061846294 1.0716002 nan nan nan nan
0.0443464 -0.06263946 1.0757145 nan nan nan nan
0.052360006 -0.061600007 1.0780001 nan nan nan nan
-0.01550102 -0.054686032 1.0752668 nan nan nan nan
-0.009180001 -0.058140002 1.0710001 nan nan nan nan
0.028560001 -0.058140002 1.0710001 0.32420161 -0.47154403 -0.81477487 nan
0.036817711 -0.055597149 1.0718 0.32554546 -0.19013165 -0.90894139 nan
0.045207284 -0.054958548 1.0744706 0.33777675 -0.23181023 -0.90570796 nan
0.054006215 -0.054095488 1.0769564 0.33627266 -0.24404632 -0.89555573 nan
-0.018044129 -0.045502547 1.0723333 -0.87810737 -0.11969725 -0.45320722 nan
0.039372008 -0.047532003 1.0710001 0.41235852 -0.16607796 -0.89484608 nan
0.045494806 -0.04577142 1.0723635 0.34798735 -0.16214152 -0.92237937 nan
0.054789759 -0.044545475 1.07525 0.40371501 -0.13771786 -0.90277457 nan
0.06108667 -0.041580003 1.0780001 0.44878483 -0.12644538 -0.88432324 nan
-0.02156 -0.035933334 1.0780001 -0.93642467 0.0035550429 -0.35085064 nan
-0.018401621 -0.03577438 1.0733001 -0.90299428 0.0010403978 -0.42848706 nan
0.044905718 -0.035720576 1.0716 0.37873027 -0.071410052 -0.9220376 nan
0.054071069 -0.035646468 1.0745416 0.37957689 -0.085241452 -0.92079961 nan
0.062216002 -0.034496002 1.0780001 0.39071456 -0.11025468 -0.91347808 nan
-0.018139396 -0.025946669 1.0741819 -0.88702029 0.0033884456 -0.46062502 nan
0.046740003 -0.02538 1.0710001 0.37802717 -0.072242893 -0.92220449 nan
0.054788742 -0.02585905 1.0743636 0.38035598 -0.047564935 -0.92324066 nan
0.064109795 -0.025754979 1.0778179 0.36329874 -0.030197987 -0.9306137 nan
0.087266676 -0.023613337 1.0780001 nan nan nan nan
-0.018423336 -0.015350002 1.0745001 -0.89155579 -0.00252924 -0.45280123 nan
0.048450008 -0.015810002 1.0710001 0.40069053 -0.069422714 -0.91332167 nan
0.055291761 -0.015357191 1.07505 0.39319393 -0.087359048 -0.91473264 nan
0.063653342 -0.0154 1.0779999 0.39849404 -0.060517855 -0.91425496 nan
0.086496681 -0.012576667 1.0780001 nan nan nan nan
-0.018423334 -0.0051166671 1.0745001 -0.87770122 -0.0057597957 -0.47889766 nan
0.047211442 -0.0056828577 1.0710001 0.34107873 -0.080841176 -0.93538666 nan
0.055342544 -0.0055580954 1.0716667 0.37270126 -0.16720262 -0.91167217 nan
0.063533805 -0.0051245717 1.0759 0.44656858 -0.13821863 -0.8836506 nan
0.086856008 -0.0073920013 1.0780001 nan nan nan nan
-0.01842819 0.0051169526 1.0748001 -0.8798604 -0.031767417 -0.47377077 nan
0.043180004 0.0037400003 1.0710001 0.241056 -0.041607291 -0.96959436 nan
0.056841824 0.0054709096 1.0710001 0.39815205 -0.056735013 -0.91350269 nan
0.064176433 0.0053886129 1.0754347 0.47267044 -0.059116405 -0.87810731 nan
0.070840001 0.0092400005 1.0780001 0.4374676 -0.031602059 -0.89867872 nan
0.08110667 0.0092400005 1.0780001 0.15038005 -0.14100198 -0.97852147 nan
-0.02156 0.014373334 1.0780001 -0.89665884 0.022559728 -0.44180566 nan
-0.018667025 0.015597024 1.073875 -0.89082778 0.024683446 -0.45267376 nan
0.055855177 0.015303398 1.0711875 0.390596 0.007241494 -0.91962117 nan
0.064569674 0.015375162 1.0760797 0.44026694 -0.021924242 -0.89701736 nan
0.071752593 0.01562815 1.0780001 0.34511974 -0.049568202 -0.93410271 nan
0.087512657 0.016270749 1.0774287 nan nan nan nan
0.091928571 0.01634286 1.0725001 nan nan nan nan
-0.018284233 0.025094394 1.0731112 -0.8864761 0.087509014 -0.45292705 nan
0.056466669 0.024660002 1.0715001 0.39215082 -0.02921664 -0.91899991 nan
0.064496115 0.025589602 1.0748398 0.43321258 -0.024123251 -0.90078259 nan
0.071980737 0.024754075 1.0780001 0.34537062 -0.023886556 -0.93588883 nan
0.087560005 0.024493335 1.0780001 nan nan nan nan
0.091756672 0.023883335 1.0745001 nan nan nan nan
-0.017759223 0.03597619 1.0737273 -0.8901605 0.038340241 -0.45320413 nan
0.049980003 0.037740003 1.0710001 0.33369952 0.10142726 -0.9372071 nan
0.056685977 0.036461562 1.0715456 0.38328999 0.071142986 -0.91846633 nan
0.064252958 0.035485756 1.0752608 0.42657986 0.050963845 -0.90122086 nan
0.07326667 0.03462667 1.0780001 0.33915764 0.0096014757 -0.93831742 nan
-0.017263519 0.045156706 1.0757694 -0.89754671 0.053022482 -0.4366253 nan
0.055295002 0.045842264 1.0726252 0.38551131 0.12157809 -0.91350967 nan
0.064897671 0.044661988 1.0769091 0.38783804 0.12659039 -0.91211295 nan
0.072379999 0.043633334 1.0780001 0.29157335 0.078496546 -0.95177305 nan
-0.02156 0.050306667 1.0780001 -0.91656065 0.025587903 -0.39907622 nan
-0.017918969 0.054427695 1.0749168 -0.90536159 0.033940148 -0.42268214 nan
0.049980007 0.055420008 1.0710001 0.40002784 0.052516133 -0.91495222 nan
0.055485561 0.054685552 1.074389 0.40986326 0.074922994 -0.9087373 nan
0.064643733 0.05438133 1.0773598 0.39192447 0.082315713 -0.91563153 nan
0.071866669 0.050306667 1.0780001 0.29301462 0.12646662 -0.94721913 nan
-0.015828179 0.064076468 1.0739412 -0.86518061 0.058723602 -0.4948183 nan
0.049980003 0.063750006 1.0710001 0.39932624 0.12782849 -0.90772432 nan
0.055272814 0.064481296 1.0746499 0.39963934 0.13188672 -0.90677828 nan
0.064652115 0.064652734 1.0775198 0.37459305 0.070210151 -0.92337149 nan
-0.014865939 0.07478448 1.0739412 -0.82496089 0.10038616 -0.55367166 nan
0.046284843 0.074887037 1.0726155 0.49397859 0.081850819 -0.86390263 nan
0.054368228 0.07488054 1.0770398 0.39171001 0.1274237 -0.90954769 nan
0.063995555 0.074555561 1.0779998 0.30072549 0.11464877 -0.94559669 nan
-0.013935524 0.085030384 1.0757002 -0.83036721 0.15926905 -0.53178662 nan
0.046794288 0.084226668 1.0720001 0.51635861 0.033554822 -0.85505098 nan
0.054536194 0.08496128 1.0769998 0.43856901 0.063482016 -0.89517474 nan
0.061746672 0.083160006 1.0780001 0.33482811 0.12598379 -0.93266344 nan
-0.012173334 0.094751112 1.0748889 -0.83179277 0.17785354 -0.52386618 nan
-0.009180001 0.098940007 1.0710001 -0.80793512 0.15049149 -0.56973076 nan
0.038420007 0.097580008 1.0710001 0.36047578 0.30060649 -0.88263917 nan
0.045295503 0.095354967 1.0727221 0.42847902 0.22599649 -0.87103111 nan
0.052271366 0.095317207 1.0761335 0.44683045 0.16711296 -0.87713659 nan
-0.011275 0.10455167 1.0762501 -0.82754189 0.17916159 -0.53193873 nan
-0.0088442862 0.10579096 1.0715001 -0.81164777 0.163187 -0.5605517 nan
0.029580001 0.10812001 1.0710001 0.32654932 0.18553075 -0.92667198 nan
0.035750806 0.1052897 1.0724347 0.36406219 0.22886433 -0.90178895 nan
0.044883177 0.10573452 1.0768573 0.38163391 0.23785278 -0.89245641 nan
0.051219262 0.10529038 1.0780001 0.36288825 0.21694168 -0.90591729 nan
-0.0071587018 0.11570105 1.0733637 -0.79721004 0.18796177 -0.57136047 nan
0.02703 0.11500502 1.0710001 0.31178162 0.077731974 -0.94594377 nan
0.035591189 0.11553454 1.07275 0.38724118 0.080783501 -0.91770875 nan
0.044146664 0.11427591 1.0780001 0.3939229 0.080846451 -0.91451406 nan
0.050306667 0.11190667 1.0780001 0.36283323 0.13037111 -0.9226892 nan
-0.0046086907 0.12531191 1.0741251 -0.75715208 0.19547187 -0.62097842 nan
0.027727477 0.12638286 1.072154 0.35689077 0.24415614 -0.89998144 nan
0.036074936 0.12523808 1.0738636 0.3348105 0.1873669 -0.92245996 nan
0.044825904 0.12462173 1.077 0.39412844 0.11248324 -0.91030371 nan
0.050306667 0.12422667 1.0780001 0.46325493 0.14587384 -0.8741371 nan
-0.0032317215 0.13467085 1.0743848 -0.73552984 0.17028093 -0.65350449 nan
0.004873334 0.13860667 1.0710001 -0.33478656 0.30448022 -0.85535103 nan
0.015315812 0.1357882 1.0720001 0.18733624 0.40119931 -0.89295036 nan
0.025611332 0.13520877 1.0754999 0.29029402 0.36951646 -0.88170481 nan
0.034744564 0.13470946 1.0779999 0.24803199 0.29273769 -0.92263049 nan
0.043291114 0.13312447 1.0780001 0.33450648 0.21596149 -0.91320217 nan
-0.023793248 -0.064038098 1.086182 nan nan nan nan
-0.016095359 -0.064245112 1.0815002 nan nan nan nan
0.055594288 -0.063315712 1.0810002 nan nan nan nan
0.063713908 -0.061232388 1.0824002 nan nan nan nan
0.07149715 -0.06113524 1.0880001 nan nan nan nan
-0.022758191 -0.054823715 1.0861002 nan nan nan nan
-0.019064287 -0.057192858 1.082 -0.76476079 -0.23530889 -0.5913524 nan
0.058682859 -0.057653338 1.0810001 nan nan nan nan
0.065019242 -0.054696575 1.08356 nan nan nan nan
0.073681027 -0.054623123 1.0876002 nan nan nan nan
-0.02271305 -0.04438829 1.0839002 -0.92527372 -0.027475689 -0.37610832 nan
0.058682859 -0.045299053 1.0810001 0.47964868 -0.12347823 -0.86820352 nan
0.065582454 -0.044783901 1.0815715 0.43811899 -0.16190313 -0.88262969 nan
0.075167343 -0.044217188 1.0863042 0.48460463 -0.2203836 -0.84267509 nan
-0.022846671 -0.034930751 1.0832858 -0.9324792 -0.025728503 -0.35708293 nan
0.06733086 -0.03541562 1.0810002 0.36694893 -0.16583703 -0.91404611 nan
0.075273953 -0.035058811 1.0826501 0.49318567 -0.25493547 -0.82082266 nan
0.084967621 -0.031085715 1.0880002 nan nan nan nan
-0.023434436 -0.025334947 1.084154 nan nan nan nan
0.068978101 -0.025051748 1.0810001 0.3051562 0.006476406 -0.95226574 nan
0.075201869 -0.025752731 1.0816399 0.35735947 0.0023101051 -0.91850352 nan
0.084676005 -0.024695048 1.0834002 nan nan nan nan
-0.023610888 -0.015639868 1.0844288 nan nan nan nan
0.068978101 -0.015442858 1.0810002 0.35168514 -0.019756207 -0.93501914 nan
0.075268298 -0.015468761 1.0825998 0.14529012 -0.045640148 -0.9653312 nan
0.084916592 -0.016791319 1.0819412 nan nan nan nan
-0.023434434 -0.0046843961 1.084154 -0.87890267 -0.009157504 -0.47614253 nan
0.068978101 -0.0051476196 1.0810002 0.41929302 -0.11153048 -0.90068781 nan
0.075259015 -0.0051550856 1.08244 0.1205566 -0.034297895 -0.9648627 nan
0.084352329 -0.0036376517 1.0810003 nan nan nan nan
0.091627628 -0.0010295239 1.0810001 nan nan nan nan
-0.023420956 0.0049997079 1.0835387 -0.88668847 -0.018173644 -0.46165335 nan
0.068978101 0.0020590478 1.0810001 0.46613997 -0.097415462 -0.87932944 nan
0.075351276 0.0049766665 1.0813334 0.22681364 -0.11075747 -0.95945358 nan
0.085674778 0.0049798414 1.0816667 nan nan nan nan
0.091627628 0.0051476196 1.0810002 nan nan nan nan
-0.024485543 0.01585472 1.0834547 -0.90292376 0.056000829 -0.42511383 nan
0.076956905 0.015314167 1.0810002 0.20843989 -0.046265833 -0.97589493 nan
0.084553346 0.015102012 1.0812223 nan nan nan nan
0.091627628 0.011324762 1.0810001 nan nan nan nan
-0.023198877 0.02488563 1.0846366 -0.90290445 0.10490173 -0.41563213 nan
-0.019633334 0.029966667 1.085 -0.89712262 0.059129827 -0.43780661 nan
0.076828219 0.026252858 1.0810002 0.22439511 0.0047752238 -0.971331 nan
0.084535353 0.026195666 1.0810001 nan nan nan nan
0.091627628 0.029856192 1.0810001 nan nan nan nan
-0.023178667 0.034970287 1.0864002 -0.88540155 0.030010907 -0.45679888 nan
0.077214293 0.035346985 1.0810002 0.27061087 -0.0081805941 -0.95892167 nan
0.085512578 0.03503124 1.0818 nan nan nan nan
0.091627628 0.032944765 1.0810001 nan nan nan nan
-0.02271962 0.044400573 1.0842003 -0.90419769 0.092244111 -0.41609287 nan
-0.019560954 0.044269528 1.0810001 -0.90902913 0.048729956 -0.41387373 nan
0.077531077 0.044744689 1.0810003 0.27485558 0.065524846 -0.95495498 nan
0.085555017 0.044323772 1.0822799 nan nan nan nan
0.092396826 0.045166984 1.0860002 nan nan nan nan
-0.022373175 0.054380476 1.0841669 -0.91636086 0.026876908 -0.39861137 nan
0.075508915 0.054984596 1.0821739 0.3624174 0.17820239 -0.91162831 nan
0.085258931 0.054523334 1.0856817 0.28795862 0.31481671 -0.88489473 nan
0.093809687 0.0547571 1.08485 nan nan nan nan
0.10023333 0.05166667 1.085 nan nan nan nan
-0.022629948 0.065589741 1.0854446 -0.89868504 -0.022253312 -0.43588507 nan
-0.019560954 0.066919059 1.0810001 -0.8954308 0.012711572 -0.44498739 nan
0.075317368 0.064994544 1.0832399 0.43505812 0.016328383 -0.89689827 nan
0.085780047 0.065155923 1.0873749 nan nan nan nan
0.093140647 0.064741753 1.0846668 nan nan nan nan
-0.022778191 0.075581051 1.0871001 -0.88238686 0.0623262 -0.46495628 nan
-0.019589907 0.075268 1.0826 -0.86355203 0.074961036 -0.49683982 nan
0.06846334 0.077214293 1.0810001 0.32704103 0.11630863 -0.93713945 nan
0.075259626 0.075255953 1.0824399 0.35335127 0.061692748 -0.92707241 nan
0.085214064 0.075255468 1.0851363 nan nan nan nan
0.09291175 0.077196196 1.0880003 nan nan nan nan
-0.022150477 0.084253334 1.0868 nan nan nan nan
-0.018282861 0.085971355 1.0828183 -0.80841941 0.19576862 -0.54919434 nan
0.06601809 0.086269215 1.0812224 0.35017404 0.18486109 -0.91684204 nan
0.075173467 0.085416198 1.0850868 0.34236348 0.26275489 -0.90056306 nan
0.084779352 0.083826818 1.0866156 nan nan nan nan
0.091530167 0.083240643 1.0880001 nan nan nan nan
-0.016813768 0.095128052 1.0846366 -0.82731068 0.22402456 -0.51075989 nan
0.057653338 0.095745735 1.0810002 0.4464553 0.1426803 -0.88281834 nan
0.06472861 0.095582686 1.0832173 0.41249254 0.15138014 -0.89793497 nan
0.074090824 0.094644159 1.0869287 0.38636008 0.18634988 -0.90219498 nan
0.081859052 0.090148576 1.0880001 0.39259505 0.35032985 -0.85037529 nan
-0.015334128 0.10420875 1.0851669 -0.84845734 0.17253917 -0.49873731 nan
0.056623813 0.10501143 1.0810003 0.39914799 0.17577611 -0.8995446 nan
0.065343209 0.10486107 1.0842727 0.40003562 0.13602954 -0.90614718 nan
0.073530108 0.1045983 1.0874002 0.3553718 0.10939709 -0.92657846 nan
0.081859052 0.10672762 1.0880001 0.17545429 0 -0.98448759 nan
-0.01291913 0.1141758 1.0849168 -0.85216683 0.2021523 -0.48185131 nan
0.047358096 0.11736573 1.0810001 0.39222625 0.050639842 -0.91821855 nan
0.054941744 0.11458348 1.0813478 0.37561795 0.13251545 -0.91665602 nan
0.065011032 0.11475666 1.0863333 0.39018816 0.15569192 -0.90725052 nan
0.073224127 0.11259937 1.0880002 0.29665238 0.17013454 -0.9367215 nan
-0.011985715 0.12533131 1.0875716 -0.85077721 0.15538082 -0.50138563 nan
-0.0092657153 0.1245724 1.0810002 -0.84160155 0.1643732 -0.51396865 nan
0.048387621 0.1204543 1.0810001 0.41513309 0.025689229 -0.9093979 nan
0.054863185 0.12485278 1.0834167 0.43478924 0.15932406 -0.88501924 nan
0.065071702 0.12548116 1.0873749 0.37381738 0.18624859 -0.90782845 nan
0.087491147 0.12596314 1.0859002 nan nan nan nan
0.090148576 0.12330666 1.0880001 nan nan nan nan
-0.011398096 0.13505018 1.0880001 -0.86060303 0.12918632 -0.49221557 nan
-0.0082601905 0.13521963 1.0838002 -0.83010781 0.13995355 -0.53767198 nan
0.045767017 0.13711385 1.0810003 0.38409176 0.25112876 -0.88404399 nan
0.053619951 0.13478777 1.0849444 0.46302298 0.19509335 -0.86425674 nan
0.063207619 0.13159619 1.0880001 0.37570184 0.21611476 -0.90037584 nan
-0.027066667 -0.061416194 1.0930001 nan nan nan nan
-0.030325714 -0.055422861 1.098 nan nan nan nan
-0.027110666 -0.055257332 1.0948 nan nan nan nan
0.077235878 -0.054376833 1.0910001 nan nan nan nan
0.081901193 -0.052780241 1.092 nan nan nan nan
-0.036600001 -0.046011429 1.098 nan nan nan nan
-0.027032698 -0.0444327 1.0963334 -0.90308213 0.022435058 -0.41912341 nan
0.084370688 -0.044886865 1.0909998 nan nan nan nan
-0.030242858 -0.030242858 1.095 nan nan nan nan
-0.026680684 -0.033544358 1.0955715 nan nan nan nan
0.085201919 -0.036366671 1.091 nan nan nan nan
-0.030242858 -0.027114285 1.095 nan nan nan nan
-0.027638668 -0.025560576 1.0910001 nan nan nan nan
-0.031792987 -0.014707273 1.096091 nan nan nan nan
-0.027725082 -0.01524762 1.0916667 nan nan nan nan
-0.031025002 -0.0057357149 1.0950001 -0.90752006 0.085153863 -0.38236657 nan
-0.027460547 -0.0060858512 1.0910001 -0.86243552 -0.0015654692 -0.49631602 nan
-0.031078931 0.0052225003 1.0968751 -0.88068771 -0.059857599 -0.4526118 nan
-0.027460547 0.0054921089 1.0910001 -0.88783079 -0.01265708 -0.45845711 nan
-0.030325714 0.012548571 1.098 -0.8395341 0.27369949 -0.46918699 nan
-0.028157143 0.015642857 1.0950001 -0.91291857 0.084812582 -0.39881203 nan
-0.03137143 0.028234286 1.098 nan nan nan nan
-0.02743016 0.025690794 1.0936668 -0.88192862 -0.01572974 -0.45586938 nan
-0.03137143 0.034770004 1.098 nan nan nan nan
-0.027198413 0.033909738 1.0936668 nan nan nan nan
-0.026426986 0.044166669 1.0953335 -0.88934726 0.20112018 -0.39586431 nan
-0.023898099 0.057147622 1.0910001 -0.91790938 0.0091561135 -0.39571154 nan
-0.026061749 0.066016361 1.0945001 -0.89869666 -0.093490362 -0.42410415 nan
-0.027129048 0.07459905 1.0955 -0.93078578 0.017235812 -0.34677881 nan
0.093514293 0.073772386 1.0910001 nan nan nan nan
-0.030325714 0.080520004 1.098 nan nan nan nan
-0.026241114 0.084616035 1.0946668 nan nan nan nan
0.086841434 0.087880485 1.092 0.37014613 0.54025942 -0.73349923 nan
0.092586987 0.087387949 1.0923333 nan nan nan nan
-0.024478376 0.094523191 1.0948824 nan nan nan nan
-0.019741906 0.097670481 1.0910001 -0.77099669 0.24828959 -0.58514106 nan
0.077928573 0.09663143 1.0910001 0.39284015 0.12725274 -0.90975749 nan
0.084366553 0.094854102 1.0924581 0.47897142 0.15601176 -0.83922875 nan
0.092933342 0.095023245 1.0964001 nan nan nan nan
-0.022969143 0.10544515 1.0962002 nan nan nan nan
-0.019168844 0.10594763 1.0921429 -0.81323248 0.1731277 -0.55020249 nan
0.077928573 0.10494383 1.0910001 0.32740512 0.05491608 -0.94222784 nan
0.084262952 0.10487263 1.0911665 nan nan nan nan
0.091503233 0.10501772 1.0918001 nan nan nan nan
-0.02196 0.11189143 1.098 -0.80851787 0.36670977 -0.46024209 nan
-0.017890874 0.11583406 1.0940833 -0.85289949 0.19838606 -0.47685537 nan
0.069616199 0.11741239 1.0910001 0.40728816 0.14545041 -0.90164322 nan
0.07540518 0.11637334 1.091 0.25390172 0.1611028 -0.95124966 nan
0.084009573 0.11513032 1.0924782 nan nan nan nan
0.090645723 0.11461238 1.0940001 nan nan nan nan
-0.016598096 0.12489437 1.0934666 -0.86987877 0.091104761 -0.48091999 nan
0.069616199 0.12156858 1.0910001 0.39641145 0.14827193 -0.90602064 nan
0.07470753 0.12560226 1.0918421 0.24560894 0.11363213 -0.96012145 nan
0.083862312 0.12494041 1.0927894 nan nan nan nan
0.090687141 0.12091286 1.0945001 nan nan nan nan
-0.015490612 0.13505402 1.0944285 -0.8750391 0.16045099 -0.45236844 nan
0.057978857 0.13653088 1.0910001 0.44296619 0.19450757 -0.87517351 nan
0.065826721 0.13562629 1.0909998 0.32912964 0.21213374 -0.91775525 nan
0.075110644 0.13497563 1.0926471 0.22001077 0.18001498 -0.95561206 nan
0.084166676 0.1351597 1.0936667 nan nan nan nan
0.09133511 0.13470326 1.0915716 nan nan nan nan
-0.03199878 -0.053628162 1.1041429 nan nan nan nan
-0.033324655 -0.045132175 1.1049999 nan nan nan nan
-0.028337141 -0.049327616 1.102 -0.84970027 0.1981992 -0.48859647 nan
-0.033022642 -0.036103524 1.1074617 nan nan nan nan
-0.028337141 -0.036733329 1.102 -0.88160008 -0.0018120458 -0.45764631 nan
-0.03412921 -0.0049244449 1.1083336 nan nan nan nan
-0.034934096 0.0054689525 1.1048001 nan nan nan nan
-0.034128014 0.015792998 1.1054705 nan nan nan nan
-0.03420851 0.024369018 1.1061335 nan nan nan nan
-0.033616193 0.034665715 1.103 nan nan nan nan
-0.032836467 0.04488327 1.1070001 nan nan nan nan
-0.028337141 0.046179045 1.102 -0.87733012 0.23649499 -0.41293871 nan
-0.033232827 0.056135561 1.1066002 nan nan nan nan
-0.027303046 0.05565333 1.1026 -0.87636709 -0.02655991 -0.45925012 nan
-0.033186905 0.064078651 1.1060835 nan nan nan nan
-0.02781238 0.063496187 1.102 -0.85415936 -0.1414139 -0.49061972 nan
-0.031172791 0.073946401 1.1068572 nan nan nan nan
-0.028337141 0.074516185 1.102 -0.93682986 0.14363492 -0.3189339 nan
-0.030629527 0.085551441 1.1090001 nan nan nan nan
-0.027356908 0.10521714 1.10475 nan nan nan nan
-0.024205292 0.11493185 1.104889 nan nan nan nan
-0.023061059 0.12512518 1.1061112 nan nan nan nan
-0.019940952 0.12804189 1.102 -0.89801061 0.14208117 -0.41613531 nan
-0.02214 0.13495049 1.1070001 nan nan nan nan
-0.019954525 0.13443261 1.1027501 -0.91558194 0.15484661 -0.36718094 nan
-0.035582148 -0.03345643 1.1152501 nan nan nan nan
-0.038262859 -0.012754286 1.1160001 nan nan nan nan
-0.03716667 -0.0053057144 1.1150001 nan nan nan nan
-0.037875243 0.0060161906 1.1150001 nan nan nan nan
-0.039255239 0.013790476 1.1140001 nan nan nan nan
-0.038566194 0.024062384 1.1145 nan nan nan nan
-0.035828002 0.047699999 1.113 nan nan nan nan
-0.035013333 0.051986672 1.1140001 nan nan nan nan
-0.036074288 0.065779053 1.1140001 nan nan nan nan
-0.033920001 0.073139995 1.113 nan nan nan nan
-0.027441636 0.11627919 1.1142858 nan nan nan nan
-0.027039645 0.12432536 1.1133749 nan nan nan nan
-0.025793334 0.13179334 1.1130002 nan nan nan nan
-0.037333332 -0.031999998 1.12 nan nan nan nan
-0.042531025 -0.014482314 1.1204286 nan nan nan nan
-0.038755555 -0.016711112 1.1200001 nan nan nan nan
-0.041860003 -0.0059033339 1.1270001 nan nan nan nan
-0.0383332 -0.0050404086 1.1224287 nan nan nan nan
-0.041810479 0.0032187304 1.1256669 nan nan nan nan
-0.039545957 0.0042730952 1.1222501 nan nan nan nan
-0.041760951 0.014638413 1.1243334 nan nan nan nan
-0.041860003 0.023613337 1.1270001 nan nan nan nan
-0.038826033 0.068744123 1.1220001 nan nan nan nan
-0.036406666 0.074949287 1.1242501 nan nan nan nan
-0.034224764 0.081283808 1.123 nan nan nan nan
-0.031837527 0.11687905 1.1217999 nan nan nan nan
-0.031466667 0.12213333 1.12 nan nan nan nan
-0.024533333 0.13653332 1.12 nan nan nan nan
-0.043731999 -0.0058165719 1.131 nan nan nan nan
-0.039854284 -0.0053857146 1.131 nan nan nan nan
-0.045270719 0.023711428 1.1317501 nan nan nan nan
-0.037700001 0.078631431 1.131 nan nan nan nan
-0.037700001 0.080785714 1.131 nan nan nan nan
