# .PCD v0.7 - Point Cloud Data file format
VERSION 0.7
FIELDS x y z normal_x normal_y normal_z curvature
SIZE 4 4 4 4 4 4 4
TYPE F F F F F F F
COUNT 1 1 1 1 1 1 1
WIDTH 725
HEIGHT 1
VIEWPOINT 0 0 0 1 0 0 0
POINTS 725
DATA ascii
0.27130857 0.099594288 1.202 0.67427349 -0.42608008 -0.60316747 nan
0.27450857 0.099925719 1.2060001 nan nan nan nan
0.27772382 0.10025714 1.21 nan nan nan nan
0.28002858 0.10025714 1.21 nan nan nan nan
0.14432001 0.10442667 1.2320001 nan nan nan nan
0.14607145 0.10400286 1.2270001 nan nan nan nan
0.14840858 0.10400286 1.2270001 nan nan nan nan
0.14865716 0.10256191 1.21 -0.984707 -0.029005669 -0.17178693 nan
0.14996381 0.10188381 1.202 -0.97386009 -0.074326552 -0.21464412 nan
0.15225333 0.10188381 1.202 -0.96887714 -0.10585747 -0.22376609 nan
0.1539 0.10146 1.197 -0.96383137 -0.068402551 -0.25758532 nan
0.1556581 0.10112096 1.1930001 -0.93582594 -0.063435987 -0.3467069 nan
0.15740095 0.1007819 1.189 -0.9242354 -0.058503684 -0.37731448 nan
0.15912858 0.10044286 1.1850001 -0.88106906 -0.028904442 -0.47210363 nan
0.16084096 0.10010382 1.1810001 -0.8715139 -0.02393852 -0.48978618 nan
0.16309048 0.10010382 1.1810001 -0.82835138 -0.020519355 -0.55983299 nan
0.16478001 0.099764764 1.177 -0.7490626 0.00032981718 -0.66249919 nan
0.1670219 0.099764764 1.177 -0.64372581 0.030641656 -0.76464254 nan
0.16868858 0.099425726 1.1730001 -0.53068632 0.049362056 -0.84612972 nan
0.17092286 0.099425726 1.1730001 -0.39636263 0.069188036 -0.9154833 nan
0.17315716 0.099425726 1.1730001 -0.33234149 0.087631457 -0.93907928 nan
0.17539144 0.099425726 1.1730001 -0.26607716 0.079886578 -0.96063578 nan
0.17762573 0.099425726 1.1730001 -0.18825869 0.062695339 -0.98011631 nan
0.17986001 0.099425726 1.1730001 -0.12599377 0.04490418 -0.99101424 nan
0.18209431 0.099425726 1.1730001 -0.026922856 0.0089475941 -0.99959749 nan
0.18432859 0.099425726 1.1730001 0.017857954 -0.017833246 -0.99968147 nan
0.18656288 0.099425726 1.1730001 0.087860718 -0.0087446133 -0.99609441 nan
0.18879716 0.099425726 1.1730001 0.15494683 -0.0085953996 -0.98788542 nan
0.19103144 0.099425726 1.1730001 0.15499857 -0.017250197 -0.98776406 nan
0.19326572 0.099425726 1.1730001 0.17117898 -0.017184509 -0.98509008 nan
0.19550002 0.099425726 1.1730001 0.24850753 -0.0084498813 -0.96859312 nan
0.19840857 0.099764764 1.177 0.29118496 0.01595852 -0.95653367 nan
0.20065048 0.099764764 1.177 0.31063777 0.047564697 -0.94933754 nan
0.20289238 0.099764764 1.177 0.38609788 0.060417026 -0.92047715 nan
0.20513429 0.099764764 1.177 0.43035448 0.072923675 -0.89970946 nan
0.20808096 0.10010382 1.1810001 0.41233027 0.088448331 -0.90673077 nan
0.21033049 0.10010382 1.1810001 0.37179017 0.075963773 -0.9252035 nan
0.21258001 0.10010382 1.1810001 0.34154755 0.04673152 -0.93870199 nan
0.21555714 0.10044286 1.1850001 0.35428792 0.038645215 -0.9343375 nan
0.2178143 0.10044286 1.1850001 0.36719012 0.01550482 -0.9300167 nan
0.22007143 0.10044286 1.1850001 0.31601474 0.00013968126 -0.94875425 nan
0.22232857 0.10044286 1.1850001 0.26063573 -0.016193587 -0.96530139 nan
0.22458573 0.10044286 1.1850001 0.23147862 -0.041202534 -0.9719671 nan
0.22684287 0.10044286 1.1850001 0.14521246 -0.025585977 -0.98906964 nan
0.2291 0.10044286 1.1850001 0.061271265 -0.02622324 -0.99777663 nan
0.23135716 0.10044286 1.1850001 0.069752626 -0.008731653 -0.99752611 nan
0.2336143 0.10044286 1.1850001 0.1118567 -0.0086383708 -0.9936868 nan
0.23587143 0.10044286 1.1850001 0.11159884 0.0085534099 -0.99371654 nan
0.23812859 0.10044286 1.1850001 0.10323728 0.0085779084 -0.99461979 nan
0.24038573 0.10044286 1.1850001 0.11124498 0.025676871 -0.99346125 nan
0.24264286 0.10044286 1.1850001 0.15162785 0.033709701 -0.98786265 nan
0.24572666 0.1007819 1.189 0.24275875 0.032406937 -0.96954525 nan
0.24799141 0.1007819 1.189 0.29187897 0.02921799 -0.95600885 nan
0.25025621 0.1007819 1.189 0.22201926 0.030292816 -0.97457159 nan
0.25337049 0.10112096 1.1930001 0.25178042 0.0251408 -0.96745777 nan
0.25564286 0.10112096 1.1930001 0.15421398 0.034280326 -0.98744261 nan
0.25878 0.10146 1.197 0.18268462 0.091343001 -0.97891921 nan
0.26018763 0.10112096 1.1930001 0.034988504 -0.035051715 -0.99877286 nan
0.26157999 0.1007819 1.189 0.052045621 -0.13946874 -0.98885781 nan
0.26384476 0.1007819 1.189 0.18163204 -0.052026201 -0.98198932 nan
0.26700476 0.10112096 1.1930001 0.52108055 -0.57608539 -0.62976241 nan
0.27017999 0.10146 1.197 0.63907933 -0.5409376 -0.54677612 nan
0.27246001 0.10146 1.197 nan nan nan nan
0.27680573 0.10222286 1.2060001 nan nan nan nan
0.27910286 0.10222286 1.2060001 nan nan nan nan
0.14432001 0.10677334 1.2320001 nan nan nan nan
0.14666668 0.10677334 1.2320001 nan nan nan nan
0.14840858 0.10634001 1.2270001 nan nan nan nan
0.15025429 0.10599334 1.223 -0.97578835 0.13908394 -0.16879788 nan
0.15046287 0.10452001 1.2060001 -0.97953546 -0.018021455 -0.20046319 nan
0.15225333 0.10417333 1.202 -0.97448295 -0.015898032 -0.22389792 nan
0.15338571 0.10339334 1.1930001 -0.96779144 -0.0209678 -0.25087872 nan
0.1551362 0.10304666 1.189 -0.9393577 -0.018767795 -0.34242502 nan
0.15687144 0.1027 1.1850001 -0.92731816 -0.015380508 -0.37395784 nan
0.15912858 0.1027 1.1850001 -0.88283682 -0.007999544 -0.46961173 nan
0.16084096 0.10235334 1.1810001 -0.87287158 -0.0011365763 -0.48794866 nan
0.16309048 0.10235334 1.1810001 -0.82495946 -0.0011685063 -0.56519073 nan
0.16478001 0.10200667 1.177 -0.73695558 0.014093839 -0.67579418 nan
0.1670219 0.10200667 1.177 -0.62747204 0.046245482 -0.77726454 nan
0.16926381 0.10200667 1.177 -0.51654893 0.065950699 -0.85371405 nan
0.17092286 0.10166001 1.1730001 -0.38749707 0.086407736 -0.91781247 nan
0.17315716 0.10166001 1.1730001 -0.33178532 0.096250392 -0.93843186 nan
0.17539144 0.10166001 1.1730001 -0.27379659 0.097266227 -0.95685667 nan
0.17762573 0.10166001 1.1730001 -0.20514627 0.08916425 -0.97466135 nan
0.17986001 0.10166001 1.1730001 -0.15200378 0.089335516 -0.98433429 nan
0.18209431 0.10166001 1.1730001 -0.053646289 0.062534221 -0.99659997 nan
0.18432859 0.10166001 1.1730001 0.017780632 0.035534471 -0.99921024 nan
0.18592668 0.10131334 1.169 0.096000664 0.03496401 -0.99476701 nan
0.18815334 0.10131334 1.169 0.14608541 0.034427565 -0.98867273 nan
0.19038001 0.10131334 1.169 0.14619257 0.0258116 -0.98891938 nan
0.19260666 0.10131334 1.169 0.17851208 0.025461189 -0.98360825 nan
0.19550002 0.10166001 1.1730001 0.26219508 0.032663096 -0.96446198 nan
0.1977343 0.10166001 1.1730001 0.31079662 0.047637913 -0.94928187 nan
0.20065048 0.10200667 1.177 0.32965085 0.070429347 -0.94147229 nan
0.20289238 0.10200667 1.177 0.39752543 0.067343131 -0.91511661 nan
0.20513429 0.10200667 1.177 0.44115043 0.072252251 -0.89451993 nan
0.20808096 0.10235334 1.1810001 0.41228196 0.088398807 -0.90675753 nan
0.21033049 0.10235334 1.1810001 0.35276672 0.084448732 -0.93189275 nan
0.21258001 0.10235334 1.1810001 0.32786414 0.062586829 -0.94264942 nan
0.21482953 0.10235334 1.1810001 0.34091836 0.054352004 -0.93852037 nan
0.2178143 0.1027 1.1850001 0.34788132 0.031058345 -0.937024 nan
0.22007143 0.1027 1.1850001 0.30206111 0.015988287 -0.9531545 nan
0.22232857 0.1027 1.1850001 0.2457618 5.0238192e-05 -0.96933025 nan
0.22458573 0.1027 1.1850001 0.23115541 -0.016462239 -0.97277755 nan
0.22684287 0.1027 1.1850001 0.15302658 -2.5779391e-05 -0.98822206 nan
0.2291 0.1027 1.1850001 0.069727689 -1.1742614e-05 -0.99756604 nan
0.23135716 0.1027 1.1850001 0.078096792 0.017300205 -0.99679565 nan
0.2336143 0.1027 1.1850001 0.11987057 0.017064586 -0.99264288 nan
0.23587143 0.1027 1.1850001 0.11966079 0.025598723 -0.99248475 nan
0.23812859 0.1027 1.1850001 0.11135575 0.025669051 -0.99344903 nan
0.24038573 0.1027 1.1850001 0.11936972 0.034110948 -0.99226373 nan
0.24264286 0.1027 1.1850001 0.15147173 0.042097025 -0.98756474 nan
0.24572666 0.10304666 1.189 0.23529035 0.040622011 -0.97107583 nan
0.24799141 0.10304666 1.189 0.283465 0.029406503 -0.95853162 nan
0.25025621 0.10304666 1.189 0.34502199 0.035753101 -0.93791342 nan
0.25337049 0.10339334 1.1930001 0.23346807 -0.04993163 -0.97108161 nan
0.25564286 0.10339334 1.1930001 0.22753882 -0.06821426 -0.97137678 nan
0.25878 0.10374 1.197 0.099925071 -0.33285886 -0.93766731 nan
0.26018763 0.10339334 1.1930001 -8.3013147e-05 -0.40187004 -0.91569668 nan
0.26157999 0.10304666 1.189 -0.21572073 -0.37744996 -0.90055323 nan
0.26384476 0.10304666 1.189 0.088703163 -0.44514683 -0.89105332 nan
0.26700476 0.10339334 1.1930001 0.62938219 -0.37706369 -0.67948586 nan
0.26927716 0.10339334 1.1930001 0.4497934 -0.70205534 -0.55209076 nan
0.27154952 0.10339334 1.1930001 nan nan nan nan
0.27382192 0.10339334 1.1930001 nan nan nan nan
0.27910286 0.10452001 1.2060001 nan nan nan nan
0.14432001 0.10912001 1.2320001 nan nan nan nan
0.14607145 0.10867715 1.2270001 nan nan nan nan
0.14840858 0.10867715 1.2270001 nan nan nan nan
0.14914858 0.10752572 1.2140001 -0.97184932 0.16418479 -0.16897418 nan
0.15046287 0.10681715 1.2060001 -0.97006518 0.15182801 -0.18953048 nan
0.15225333 0.10646286 1.202 -0.96876031 0.11946269 -0.21732946 nan
0.15338571 0.10566572 1.1930001 -0.96833545 0.026299454 -0.2482636 nan
0.1551362 0.10531143 1.189 -0.94035417 0.034461532 -0.33844715 nan
0.15740095 0.10531143 1.189 -0.93151516 0.021283105 -0.36307928 nan
0.15912858 0.10495715 1.1850001 -0.88554209 0.018899683 -0.46417454 nan
0.16084096 0.10460287 1.1810001 -0.87368011 0.021355428 -0.48603192 nan
0.16309048 0.10460287 1.1810001 -0.82126826 0.024408864 -0.57001984 nan
0.16478001 0.10424858 1.177 -0.72400099 0.042194221 -0.68850726 nan
0.1670219 0.10424858 1.177 -0.60978192 0.069892354 -0.78948152 nan
0.16868858 0.10389429 1.1730001 -0.50132054 0.090814136 -0.86048269 nan
0.17092286 0.10389429 1.1730001 -0.37062368 0.10370541 -0.92297524 nan
0.17315716 0.10389429 1.1730001 -0.32246074 0.11351844 -0.93975139 nan
0.17539144 0.10389429 1.1730001 -0.27283612 0.11452211 -0.95521992 nan
0.17762573 0.10389429 1.1730001 -0.19530226 0.11538222 -0.97393221 nan
0.17986001 0.10389429 1.1730001 -0.15063348 0.13285145 -0.97962242 nan
0.18209431 0.10389429 1.1730001 -0.079880051 0.115325 -0.99011075 nan
0.18432859 0.10389429 1.1730001 -0.0088582756 0.079758391 -0.99677485 nan
0.18656288 0.10389429 1.1730001 0.087005556 0.069689691 -0.99376726 nan
0.18815334 0.10354 1.169 0.14552635 0.060036425 -0.98753113 nan
0.19038001 0.10354 1.169 0.14549272 0.059968248 -0.98754025 nan
0.19260666 0.10354 1.169 0.17744775 0.067631565 -0.9818036 nan
0.19550002 0.10389429 1.1730001 0.26820642 0.06498757 -0.96116698 nan
0.19840857 0.10424858 1.177 0.32311511 0.070856489 -0.94370335 nan
0.20065048 0.10424858 1.177 0.32916942 0.078272775 -0.9410212 nan
0.20289238 0.10424858 1.177 0.39199939 0.060213983 -0.91799277 nan
0.20583144 0.10460287 1.1810001 0.44734678 0.057665378 -0.89249963 nan
0.20808096 0.10460287 1.1810001 0.41836199 0.080738962 -0.90468472 nan
0.21033049 0.10460287 1.1810001 0.34682816 0.077126876 -0.93475217 nan
0.21258001 0.10460287 1.1810001 0.31381941 0.078525953 -0.94622993 nan
0.21555714 0.10495715 1.1850001 0.32754865 0.062418491 -0.9427703 nan
0.2178143 0.10495715 1.1850001 0.33438691 0.046674121 -0.94127941 nan
0.22007143 0.10495715 1.1850001 0.28777745 0.03196967 -0.95716357 nan
0.22232857 0.10495715 1.1850001 0.23037308 0.024656652 -0.97278994 nan
0.22458573 0.10495715 1.1850001 0.23047622 0.016429704 -0.97293925 nan
0.22684287 0.10495715 1.1850001 0.16063261 0.025299383 -0.98668998 nan
0.22987333 0.10531143 1.189 0.077959046 0.034585025 -0.99635649 nan
0.23135716 0.10495715 1.1850001 0.08628574 0.043057162 -0.99533957 nan
0.2336143 0.10495715 1.1850001 0.11950666 0.042601805 -0.99191898 nan
0.23587143 0.10495715 1.1850001 0.11954251 0.034104709 -0.99224317 nan
0.23812859 0.10495715 1.1850001 0.11124468 0.03419745 -0.99320447 nan
0.24119714 0.10531143 1.189 0.12753038 0.034013093 -0.99125129 nan
0.24346191 0.10531143 1.189 0.15921898 0.050286606 -0.98596174 nan
0.24572666 0.10531143 1.189 0.23504718 0.048664685 -0.97076494 nan
0.24799141 0.10531143 1.189 0.26638547 0.029769398 -0.96340674 nan
0.25025621 0.10531143 1.189 0.31636897 0.00019839127 -0.94863617 nan
0.25252095 0.10531143 1.189 0.17131062 -0.13689759 -0.97565961 nan
0.25564286 0.10566572 1.1930001 0.16297698 -0.18614133 -0.96891171 nan
0.25791523 0.10566572 1.1930001 -0.034436554 -0.34404221 -0.93832248 nan
0.26018763 0.10566572 1.1930001 -0.15906374 -0.424187 -0.89149541 nan
0.26245999 0.10566572 1.1930001 -0.39240253 -0.19644062 -0.89857185 nan
0.26473239 0.10566572 1.1930001 -0.19905755 0.39903584 -0.89506787 nan
0.26610953 0.10531143 1.189 -0.00018412148 -0.21942021 -0.97563046 nan
0.26837429 0.10531143 1.189 nan nan nan nan
0.27063903 0.10531143 1.189 nan nan nan nan
0.27382192 0.10566572 1.1930001 nan nan nan nan
0.14432001 0.11146668 1.2320001 nan nan nan nan
0.14666668 0.11146668 1.2320001 nan nan nan nan
0.14840858 0.11101429 1.2270001 nan nan nan nan
0.15074573 0.11101429 1.2270001 -0.94267511 0.26653093 -0.20081049 nan
0.15046287 0.10911429 1.2060001 -0.96523452 0.2100364 -0.15558603 nan
0.15225333 0.10875238 1.202 -0.97041816 0.17197424 -0.1694506 nan
0.15338571 0.1079381 1.1930001 -0.94448018 0.19101129 -0.26734224 nan
0.1556581 0.1079381 1.1930001 -0.94793963 0.095786795 -0.30370271 nan
0.15740095 0.10757619 1.189 -0.9112643 0.058421366 -0.40765706 nan
0.15912858 0.10721429 1.1850001 -0.90012479 0.030234203 -0.4345817 nan
0.16084096 0.10685239 1.1810001 -0.84005404 0.035869081 -0.54131567 nan
0.16309048 0.10685239 1.1810001 -0.81799191 0.036515895 -0.57406956 nan
0.16478001 0.10649048 1.177 -0.71565634 0.049408797 -0.69670278 nan
0.1670219 0.10649048 1.177 -0.59876901 0.070329055 -0.79782802 nan
0.16868858 0.10612858 1.1730001 -0.49452198 0.09100689 -0.86438751 nan
0.17092286 0.10612858 1.1730001 -0.37049142 0.10363299 -0.92303646 nan
0.17315716 0.10612858 1.1730001 -0.32288289 0.10493986 -0.94060314 nan
0.17598952 0.10649048 1.177 -0.27278075 0.11450565 -0.95523775 nan
0.17823143 0.10649048 1.177 -0.18645252 0.11543934 -0.97565836 nan
0.18047334 0.10649048 1.177 -0.15058796 0.13284622 -0.97963011 nan
0.18271525 0.10649048 1.177 -0.1066682 0.11549442 -0.98756415 nan
0.18432859 0.10612858 1.1730001 -0.026565058 0.097393326 -0.99489135 nan
0.18656288 0.10612858 1.1730001 0.077966221 0.10406826 -0.9915095 nan
0.18879716 0.10612858 1.1730001 0.1367037 0.085609838 -0.98690581 nan
0.19103144 0.10612858 1.1730001 0.15317087 0.076715805 -0.98521739 nan
0.19326572 0.10612858 1.1730001 0.18478145 0.084102049 -0.97917449 nan
0.19616666 0.10649048 1.177 0.26779655 0.073101275 -0.96069831 nan
0.19840857 0.10649048 1.177 0.32345638 0.063135214 -0.94413447 nan
0.20133239 0.10685239 1.1810001 0.32364884 0.055255745 -0.94456244 nan
0.20289238 0.10649048 1.177 0.38713762 0.037948523 -0.92124069 nan
0.20583144 0.10685239 1.1810001 0.45895767 0.035877388 -0.88773346 nan
0.20808096 0.10685239 1.1810001 0.42564407 0.051404513 -0.90342939 nan
0.21033049 0.10685239 1.1810001 0.34862092 0.038759768 -0.93646204 nan
0.21258001 0.10685239 1.1810001 0.31485006 0.055109397 -0.94754016 nan
0.21555714 0.10721429 1.1850001 0.31463364 0.055016194 -0.94761747 nan
0.2178143 0.10721429 1.1850001 0.32158142 0.039152853 -0.9460721 nan
0.22007143 0.10721429 1.1850001 0.28077734 0.032028511 -0.95923835 nan
0.22232857 0.10721429 1.1850001 0.22990188 0.040961787 -0.97235143 nan
0.22458573 0.10721429 1.1850001 0.22980428 0.040936157 -0.97237557 nan
0.22684287 0.10721429 1.1850001 0.16801694 0.05029634 -0.98450017 nan
0.22987333 0.10757619 1.189 0.085966125 0.06869027 -0.9939273 nan
0.23135716 0.10721429 1.1850001 0.085812338 0.077141419 -0.99332041 nan
0.2336143 0.10721429 1.1850001 0.1105191 0.084919594 -0.99023944 nan
0.23587143 0.10721429 1.1850001 0.11061643 0.076504692 -0.99091423 nan
0.23893237 0.10757619 1.189 0.1107229 0.068082832 -0.99151659 nan
0.24038573 0.10721429 1.1850001 0.13500232 0.06752988 -0.98854142 nan
0.24346191 0.10757619 1.189 0.16645521 0.07495489 -0.98319602 nan
0.24572666 0.10757619 1.189 0.23886898 0.069823898 -0.96853817 nan
0.24799141 0.10757619 1.189 0.27253076 0.062121321 -0.96013951 nan
0.25025621 0.10757619 1.189 0.24853185 -0.066074766 -0.96636742 nan
0.25252095 0.10757619 1.189 0.26706079 -0.15563376 -0.95102924 nan
0.25478572 0.10757619 1.189 0.10091962 -0.30252615 -0.94778329 nan
0.25791523 0.1079381 1.1930001 0.051480461 -0.41206765 -0.90969777 nan
0.25931525 0.10757619 1.189 -0.18593843 -0.46441844 -0.86587667 nan
0.26157999 0.10757619 1.189 -0.19459951 -0.58412457 -0.78799081 nan
0.26384476 0.10757619 1.189 -0.21264872 -0.4257448 -0.87950093 nan
0.26610953 0.10757619 1.189 nan nan nan nan
0.26747143 0.10721429 1.1850001 nan nan nan nan
0.2697286 0.10721429 1.1850001 nan nan nan nan
0.14432001 0.11381335 1.2320001 nan nan nan nan
0.14666668 0.11381335 1.2320001 nan nan nan nan
0.14840858 0.11335144 1.2270001 nan nan nan nan
0.15074573 0.11335144 1.2270001 -0.95636064 0.16558225 -0.24074233 nan
0.15046287 0.11141144 1.2060001 -0.94589144 0.28309253 -0.15858129 nan
0.15276001 0.11141144 1.2060001 -0.95281374 0.24278469 -0.18221299 nan
0.1539 0.11058 1.197 -0.94112331 0.22281487 -0.25424486 nan
0.1556581 0.11021049 1.1930001 -0.94833326 0.15784551 -0.27522498 nan
0.15740095 0.10984095 1.189 -0.91797698 0.102033 -0.38328519 nan
0.15912858 0.10947143 1.1850001 -0.90508902 0.060736474 -0.4208622 nan
0.16084096 0.10910191 1.1810001 -0.83919662 0.072591603 -0.53896153 nan
0.16309048 0.10910191 1.1810001 -0.81885213 0.054264016 -0.57143384 nan
0.16478001 0.10873239 1.177 -0.71043009 0.06348639 -0.70089841 nan
0.1670219 0.10873239 1.177 -0.58679295 0.078515768 -0.80592138 nan
0.16926381 0.10873239 1.177 -0.4800913 0.099613883 -0.8715443 nan
0.17150572 0.10873239 1.177 -0.36245328 0.10378776 -0.92620498 nan
0.17374763 0.10873239 1.177 -0.31451958 0.10505413 -0.94341987 nan
0.17598952 0.10873239 1.177 -0.26416925 0.11458507 -0.95764548 nan
0.17823143 0.10873239 1.177 -0.17787035 0.10677059 -0.97824442 nan
0.18047334 0.10873239 1.177 -0.15111192 0.11558039 -0.98173642 nan
0.18271525 0.10873239 1.177 -0.11578861 0.10685173 -0.98750985 nan
0.18432859 0.10836286 1.1730001 -0.017664693 0.10594229 -0.99421537 nan
0.18656288 0.10836286 1.1730001 0.077663869 0.12095899 -0.98961473 nan
0.18879716 0.10836286 1.1730001 0.11979597 0.10288043 -0.98745358 nan
0.19103144 0.10836286 1.1730001 0.14477652 0.085340835 -0.9857772 nan
0.19326572 0.10836286 1.1730001 0.17654999 0.092644781 -0.97992194 nan
0.19616666 0.10873239 1.177 0.2528798 0.081689 -0.9640429 nan
0.19908287 0.10910191 1.1810001 0.30955222 0.071502075 -0.94819033 nan
0.20133239 0.10910191 1.1810001 0.30977222 0.063583419 -0.94868243 nan
0.20289238 0.10873239 1.177 0.38069728 0.045731325 -0.92356819 nan
0.20583144 0.10910191 1.1810001 0.45893005 0.035903651 -0.88774663 nan
0.20808096 0.10910191 1.1810001 0.4208228 0.03698111 -0.90638876 nan
0.21033049 0.10910191 1.1810001 0.34916985 0.023315845 -0.93676931 nan
0.21258001 0.10910191 1.1810001 0.32865855 0.039139528 -0.94363749 nan
0.21555714 0.10947143 1.1850001 0.3145541 0.055004738 -0.94764453 nan
0.2178143 0.10947143 1.1850001 0.31458285 0.047091007 -0.94806123 nan
0.22007143 0.10947143 1.1850001 0.28741196 0.039830528 -0.9569785 nan
0.22232857 0.10947143 1.1850001 0.23672873 0.05700716 -0.96990192 nan
0.22534381 0.10984095 1.189 0.23633139 0.065023571 -0.9694944 nan
0.22684287 0.10947143 1.1850001 0.18269224 0.082879901 -0.97967058 nan
0.22987333 0.10984095 1.189 0.10200776 0.10194247 -0.98954642 nan
0.23213808 0.10984095 1.189 0.10161541 0.11849627 -0.98774135 nan
0.2336143 0.10947143 1.1850001 0.11748035 0.13420592 -0.98396498 nan
0.23666762 0.10984095 1.189 0.10136421 0.12666504 -0.98675287 nan
0.23893237 0.10984095 1.189 0.10169385 0.11013152 -0.98870087 nan
0.24119714 0.10984095 1.189 0.13420881 0.1007373 -0.98581946 nan
0.24346191 0.10984095 1.189 0.15003453 0.10013653 -0.98359662 nan
0.24572666 0.10984095 1.189 0.1934212 0.061192058 -0.97920567 nan
0.24799141 0.10984095 1.189 0.21697643 0.05118382 -0.97483408 nan
0.25025621 0.10984095 1.189 0.17163035 -0.068505563 -0.9827767 nan
0.25337049 0.11021049 1.1930001 0.18547651 -0.1389669 -0.97277266 nan
0.25478572 0.10984095 1.189 0.069167607 -0.20733902 -0.9758209 nan
0.25791523 0.11021049 1.1930001 0.052331727 -0.36670569 -0.928864 nan
0.25931525 0.10984095 1.189 -0.19225886 -0.38426584 -0.90298188 nan
0.26157999 0.10984095 1.189 -0.41414884 -0.41414797 -0.81053203 nan
0.26384476 0.10984095 1.189 nan nan nan nan
0.26610953 0.10984095 1.189 nan nan nan nan
0.26747143 0.10947143 1.1850001 nan nan nan nan
0.2697286 0.10947143 1.1850001 nan nan nan nan
0.14666668 0.11616001 1.2320001 nan nan nan nan
0.14840858 0.11568858 1.2270001 nan nan nan nan
0.15025429 0.11531143 1.223 nan nan nan nan
0.15208477 0.11493429 1.2190001 -0.94785637 0.25748327 -0.18780486 nan
0.15276001 0.11370859 1.2060001 -0.9436872 0.27468592 -0.18439668 nan
0.1539 0.11286 1.197 -0.95618361 0.18514934 -0.22678758 nan
0.1556581 0.11248287 1.1930001 -0.95046091 0.1626092 -0.26491937 nan
0.15740095 0.11210571 1.189 -0.91896421 0.140861 -0.36832458 nan
0.15912858 0.11172857 1.1850001 -0.90667069 0.11681555 -0.40534237 nan
0.16084096 0.11135144 1.1810001 -0.83980227 0.12716378 -0.52778924 nan
0.16309048 0.11135144 1.1810001 -0.82186085 0.090032905 -0.56252891 nan
0.16478001 0.11097429 1.177 -0.70664477 0.098173864 -0.70072466 nan
0.1670219 0.11097429 1.177 -0.57783324 0.10964852 -0.80875582 nan
0.16926381 0.11097429 1.177 -0.47764596 0.12385182 -0.86977875 nan
0.17092286 0.11059715 1.1730001 -0.3689031 0.12039109 -0.92163795 nan
0.17315716 0.11059715 1.1730001 -0.31330103 0.122071 -0.9417755 nan
0.17598952 0.11097429 1.177 -0.27209157 0.12296048 -0.95438302 nan
0.17823143 0.11097429 1.177 -0.18661202 0.10666984 -0.97662556 nan
0.18047334 0.11097429 1.177 -0.15131287 0.10684336 -0.98269475 nan
0.18209431 0.11059715 1.1730001 -0.11576951 0.10682095 -0.98751545 nan
0.18432859 0.11059715 1.1730001 -0.0088190595 0.11438635 -0.99339718 nan
0.18656288 0.11059715 1.1730001 0.077632673 0.12092009 -0.98962188 nan
0.18879716 0.11059715 1.1730001 0.10312954 0.10332087 -0.98928714 nan
0.19103144 0.11059715 1.1730001 0.14450078 0.09367609 -0.98506057 nan
0.19326572 0.11059715 1.1730001 0.18406004 0.10056329 -0.9777571 nan
0.19616666 0.11097429 1.177 0.25206935 0.097669236 -0.96276778 nan
0.19908287 0.11135144 1.1810001 0.3082566 0.094887324 -0.94655919 nan
0.20065048 0.11097429 1.177 0.30129918 0.095180891 -0.9487673 nan
0.20358191 0.11135144 1.1810001 0.36673099 0.076489143 -0.92717731 nan
0.20583144 0.11135144 1.1810001 0.45242217 0.057535224 -0.88994598 nan
0.20808096 0.11135144 1.1810001 0.41436642 0.051876873 -0.90863043 nan
0.21033049 0.11135144 1.1810001 0.34845921 0.038791917 -0.93652087 nan
0.21258001 0.11135144 1.1810001 0.3408249 0.054291032 -0.93855786 nan
0.21555714 0.11172857 1.1850001 0.32070971 0.062573031 -0.94510841 nan
0.2178143 0.11172857 1.1850001 0.30710056 0.062917337 -0.94959497 nan
0.22007143 0.11172857 1.1850001 0.28671384 0.055631761 -0.95639962 nan
0.22232857 0.11172857 1.1850001 0.25061625 0.072602496 -0.96536022 nan
0.22534381 0.11210571 1.189 0.24980503 0.088428393 -0.96424991 nan
0.22684287 0.11172857 1.1850001 0.19709505 0.1065885 -0.97457296 nan
0.22987333 0.11210571 1.189 0.11775106 0.12612791 -0.98500073 nan
0.23213808 0.11210571 1.189 0.11725048 0.14236575 -0.98284501 nan
0.23440285 0.11210571 1.189 0.11674357 0.15842965 -0.98044425 nan
0.23666762 0.11210571 1.189 0.084539481 0.14370868 -0.9860025 nan
0.23893237 0.11210571 1.189 0.084843248 0.12726027 -0.98823398 nan
0.24119714 0.11210571 1.189 0.12571518 0.11743749 -0.98509091 nan
0.24346191 0.11210571 1.189 0.1338909 0.10888857 -0.98499566 nan
0.24572666 0.11210571 1.189 0.1545545 0.082474224 -0.98453587 nan
0.24799141 0.11210571 1.189 0.15708874 0.052450325 -0.98619068 nan
0.25025621 0.11210571 1.189 0.10536918 -0.035063829 -0.99381483 nan
0.25252095 0.11210571 1.189 0.096021011 -0.095944144 -0.99074453 nan
0.25478572 0.11210571 1.189 0.035129391 -0.03507749 -0.99876696 nan
0.25705048 0.11210571 1.189 -0.1127939 -0.11272255 -0.98720372 nan
0.25931525 0.11210571 1.189 -0.10016689 -0.10005439 -0.98992711 nan
0.26157999 0.11210571 1.189 nan nan nan nan
0.26384476 0.11210571 1.189 nan nan nan nan
0.26610953 0.11210571 1.189 nan nan nan nan
0.14714286 0.11889143 1.2360001 nan nan nan nan
0.14840858 0.11802572 1.2270001 nan nan nan nan
0.15074573 0.11802572 1.2270001 nan nan nan nan
0.15208477 0.1172562 1.2190001 -0.97011703 0.15008901 -0.19064696 nan
0.15326667 0.11639048 1.21 -0.96458066 0.18803975 -0.18500069 nan
0.15454286 0.11562095 1.202 -0.96111256 0.16963278 -0.21791589 nan
0.1556581 0.11475525 1.1930001 -0.95373058 0.16515191 -0.25124267 nan
0.15740095 0.11437048 1.189 -0.9230628 0.15940052 -0.35006645 nan
0.15912858 0.11398572 1.1850001 -0.90533602 0.16079369 -0.39308026 nan
0.16084096 0.11360096 1.1810001 -0.84957248 0.15025185 -0.50561947 nan
0.16309048 0.11360096 1.1810001 -0.82696193 0.11923118 -0.54947054 nan
0.16478001 0.1132162 1.177 -0.70939881 0.11289598 -0.69570673 nan
0.1670219 0.1132162 1.177 -0.57757497 0.10960668 -0.80894595 nan
0.16926381 0.1132162 1.177 -0.47896001 0.10773514 -0.87120056 nan
0.17150572 0.1132162 1.177 -0.36869535 0.12040227 -0.92171961 nan
0.17374763 0.1132162 1.177 -0.31317264 0.12207066 -0.9418183 nan
0.17598952 0.1132162 1.177 -0.28044569 0.12280791 -0.95198131 nan
0.17823143 0.1132162 1.177 -0.19460656 0.12395725 -0.97301739 nan
0.18047334 0.1132162 1.177 -0.15009461 0.14134888 -0.97851527 nan
0.18271525 0.1132162 1.177 -0.10555176 0.15823621 -0.9817434 nan
0.18432859 0.11283144 1.1730001 -4.684797e-05 0.1814044 -0.98340857 nan
0.18656288 0.11283144 1.1730001 0.068112858 0.17905107 -0.98147917 nan
0.18944097 0.1132162 1.177 0.093225144 0.16985185 -0.98105013 nan
0.19103144 0.11283144 1.1730001 0.14198044 0.16741817 -0.97560889 nan
0.19326572 0.11283144 1.1730001 0.18122132 0.16510759 -0.96948355 nan
0.19616666 0.1132162 1.177 0.24842063 0.16053429 -0.955257 nan
0.19908287 0.11360096 1.1810001 0.30406004 0.15608908 -0.93977851 nan
0.20133239 0.11360096 1.1810001 0.29148057 0.14190087 -0.94599324 nan
0.20358191 0.11360096 1.1810001 0.35168695 0.11486235 -0.92904407 nan
0.20583144 0.11360096 1.1810001 0.43978256 0.086710684 -0.89390856 nan
0.20808096 0.11360096 1.1810001 0.40199238 0.067130268 -0.91317886 nan
0.21033049 0.11360096 1.1810001 0.34764555 0.054221477 -0.93605697 nan
0.21258001 0.11360096 1.1810001 0.34708744 0.054137427 -0.93626887 nan
0.21555714 0.11398572 1.1850001 0.32095549 0.054845076 -0.94550496 nan
0.2178143 0.11398572 1.1850001 0.30733633 0.055133529 -0.95000249 nan
0.22007143 0.11398572 1.1850001 0.29349232 0.055424314 -0.95435339 nan
0.22307904 0.11437048 1.189 0.26483968 0.072090395 -0.96159393 nan
0.22534381 0.11437048 1.189 0.26397803 0.087807141 -0.96052355 nan
0.22760856 0.11437048 1.189 0.21209618 0.10591131 -0.97149265 nan
0.22987333 0.11437048 1.189 0.13382381 0.12544547 -0.98303336 nan
0.23213808 0.11437048 1.189 0.13325392 0.1415951 -0.98091501 nan
0.23440285 0.11437048 1.189 0.11670159 0.15840563 -0.98045313 nan
0.23666762 0.11437048 1.189 0.067786597 0.152523 -0.98597246 nan
0.23893237 0.11437048 1.189 0.076202981 0.14396816 -0.98664397 nan
0.24119714 0.11437048 1.189 0.11692235 0.14213143 -0.98291802 nan
0.24346191 0.11437048 1.189 0.13378254 0.12354497 -0.98327965 nan
0.24572666 0.11437048 1.189 0.14341335 0.10433502 -0.98414779 nan
0.24799141 0.11437048 1.189 0.070182905 0.070149243 -0.99506456 nan
0.25025621 0.11437048 1.189 0.072094485 0.024020875 -0.99710852 nan
0.25337049 0.11475525 1.1930001 0.069413364 9.3074932e-06 -0.99758798 nan
0.25478572 0.11437048 1.189 0.054655608 -0.054598276 -0.99701142 nan
0.25705048 0.11437048 1.189 -0.099636793 1.8633311e-05 -0.99502385 nan
0.25931525 0.11437048 1.189 0 -0.21985942 -0.97553158 nan
0.26157999 0.11437048 1.189 nan nan nan nan
0.26384476 0.11437048 1.189 nan nan nan nan
0.26610953 0.11437048 1.189 nan nan nan nan
0.14714286 0.12124572 1.2360001 nan nan nan nan
0.14901336 0.12085334 1.2320001 nan nan nan nan
0.15074573 0.12036287 1.2270001 nan nan nan nan
0.15208477 0.1195781 1.2190001 -0.98119396 0.03024959 -0.19063939 nan
0.15326667 0.11869524 1.21 -0.97461319 0.12483617 -0.18586314 nan
0.15454286 0.11791047 1.202 -0.9648425 0.15416367 -0.21286725 nan
0.1556581 0.11702763 1.1930001 -0.95059258 0.18168302 -0.251724 nan
0.15740095 0.11663524 1.189 -0.93156034 0.14785542 -0.33216575 nan
0.15912858 0.11624286 1.1850001 -0.91116083 0.15844908 -0.38036799 nan
0.16138572 0.11624286 1.1850001 -0.859348 0.15263508 -0.48808149 nan
0.16309048 0.11585049 1.1810001 -0.83341205 0.14398804 -0.53356516 nan
0.16478001 0.11545809 1.177 -0.72599083 0.1367043 -0.67398012 nan
0.1670219 0.11545809 1.177 -0.59270257 0.13085276 -0.79472083 nan
0.16926381 0.11545809 1.177 -0.47795781 0.1157565 -0.870722 nan
0.17150572 0.11545809 1.177 -0.36067861 0.12054744 -0.92486715 nan
0.17374763 0.11545809 1.177 -0.31362358 0.113466 -0.94274372 nan
0.17598952 0.11545809 1.177 -0.27237278 0.11434486 -0.95537341 nan
0.17823143 0.11545809 1.177 -0.16810554 0.12404296 -0.97793347 nan
0.17986001 0.11506572 1.1730001 -0.1143989 0.14975277 -0.98208296 nan
0.18271525 0.11545809 1.177 -0.069870047 0.17460741 -0.98215604 nan
0.18432859 0.11506572 1.1730001 0.017083447 0.19716309 -0.98022187 nan
0.18656288 0.11506572 1.1730001 0.067766771 0.19515942 -0.97842753 nan
0.18944097 0.11545809 1.177 0.092739441 0.18597361 -0.97816831 nan
0.19103144 0.11506572 1.1730001 0.14090884 0.19120909 -0.97138238 nan
0.19326572 0.11506572 1.1730001 0.17948207 0.19634756 -0.96396774 nan
0.19616666 0.11545809 1.177 0.24619 0.19102506 -0.95021045 nan
0.19840857 0.11545809 1.177 0.28863195 0.17972052 -0.94042128 nan
0.20133239 0.11585049 1.1810001 0.26243758 0.15928282 -0.95171189 nan
0.20358191 0.11585049 1.1810001 0.32539791 0.12423564 -0.93738025 nan
0.20583144 0.11585049 1.1810001 0.41783249 0.088216156 -0.90423113 nan
0.20808096 0.11585049 1.1810001 0.38473293 0.06048651 -0.92104393 nan
0.21033049 0.11585049 1.1810001 0.33510828 0.046891797 -0.94101202 nan
0.21258001 0.11585049 1.1810001 0.34134442 0.038941219 -0.93913126 nan
0.21555714 0.11624286 1.1850001 0.32153428 0.039264139 -0.94608355 nan
0.21854952 0.11663524 1.189 0.3078945 0.039441463 -0.95060259 nan
0.22007143 0.11624286 1.1850001 0.30086842 0.039521214 -0.95284641 nan
0.22307904 0.11663524 1.189 0.27950159 0.055788256 -0.95852309 nan
0.22534381 0.11663524 1.189 0.27865562 0.071495093 -0.95772618 nan
0.22760856 0.11663524 1.189 0.22754261 0.089272551 -0.96966738 nan
0.22987333 0.11663524 1.189 0.15019414 0.10846403 -0.98268878 nan
0.23213808 0.11663524 1.189 0.14987846 0.11657003 -0.98180848 nan
0.23440285 0.11663524 1.189 0.12541613 0.13377512 -0.98304373 nan
0.23666762 0.11663524 1.189 0.067865878 0.14424708 -0.9872117 nan
0.23893237 0.11663524 1.189 0.076133177 0.1438518 -0.98666632 nan
0.24119714 0.11663524 1.189 0.10855611 0.15043034 -0.98264247 nan
0.24346191 0.11663524 1.189 0.12261561 0.16348945 -0.9788956 nan
0.24572666 0.11663524 1.189 0.13051936 0.11748186 -0.98446059 nan
0.24799141 0.11663524 1.189 0.086332493 0.12087078 -0.98890698 nan
0.25025621 0.11663524 1.189 0.048025042 0.071998909 -0.99624783 nan
0.25337049 0.11702763 1.1930001 0.13171385 0.16454937 -0.97753513 nan
0.25478572 0.11663524 1.189 0.054083448 0.05404371 -0.99707282 nan
0.25705048 0.11663524 1.189 0.086127825 0.34563091 -0.93440956 nan
0.25931525 0.11663524 1.189 0.19803494 0.19803485 -0.95998144 nan
0.26245999 0.11702763 1.1930001 nan nan nan nan
0.26473239 0.11702763 1.1930001 nan nan nan nan
0.26610953 0.11663524 1.189 nan nan nan nan
0.14714286 0.1236 1.2360001 nan nan nan nan
0.14901336 0.12320001 1.2320001 nan nan nan nan
0.15025429 0.12230001 1.223 nan nan nan nan
0.15208477 0.12190001 1.2190001 -0.98079878 0.00071566133 -0.19502105 nan
0.15326667 0.121 1.21 -0.97987145 0.070283256 -0.18684801 nan
0.15454286 0.1202 1.202 -0.96864277 0.11883225 -0.21819739 nan
0.1556581 0.11930001 1.1930001 -0.95730209 0.14598154 -0.24952373 nan
0.15740095 0.1189 1.189 -0.93405324 0.14600588 -0.32592455 nan
0.15912858 0.1185 1.1850001 -0.91630352 0.14951462 -0.37152833 nan
0.16138572 0.1185 1.1850001 -0.86848974 0.14333799 -0.47453114 nan
0.16309048 0.11810001 1.1810001 -0.83967817 0.15233435 -0.5212819 nan
0.16534001 0.11810001 1.1810001 -0.73410511 0.15425658 -0.66128254 nan
0.1670219 0.1177 1.177 -0.60552996 0.15139164 -0.78128999 nan
0.16926381 0.1177 1.177 -0.49713278 0.12254684 -0.85897684 nan
0.17092286 0.1173 1.1730001 -0.37684843 0.11154198 -0.91953444 nan
0.17315716 0.1173 1.1730001 -0.32279676 0.096041307 -0.94158286 nan
0.17598952 0.1177 1.177 -0.272726 0.1056193 -0.95627666 nan
0.17823143 0.1177 1.177 -0.15976769 0.10662306 -0.98137957 nan
0.18047334 0.1177 1.177 -0.097418651 0.11525544 -0.98854733 nan
0.18271525 0.1177 1.177 -0.052950345 0.12350114 -0.99093074 nan
0.18495715 0.1177 1.177 0.026091145 0.13059512 -0.99109238 nan
0.18719906 0.1177 1.177 0.060554337 0.12125111 -0.99077308 nan
0.18944097 0.1177 1.177 0.094260685 0.12022939 -0.98826098 nan
0.19103144 0.1173 1.1730001 0.15898137 0.13418643 -0.97812009 nan
0.19326572 0.1173 1.1730001 0.18950498 0.14863348 -0.97056478 nan
0.19616666 0.1177 1.177 0.24195065 0.14542378 -0.95932883 nan
0.19840857 0.1177 1.177 0.27860725 0.12750341 -0.95190382 nan
0.20065048 0.1177 1.177 0.24355212 0.11378326 -0.96319038 nan
0.20358191 0.11810001 1.1810001 0.30099323 0.087306991 -0.94962126 nan
0.20583144 0.11810001 1.1810001 0.39683211 0.060051206 -0.91592473 nan
0.20808096 0.11810001 1.1810001 0.3676365 0.038367257 -0.92917776 nan
0.21033049 0.11810001 1.1810001 0.32922548 0.031434156 -0.94372797 nan
0.21258001 0.11810001 1.1810001 0.34161979 0.031124214 -0.93932271 nan
0.21555714 0.1185 1.1850001 0.32142252 0.039211512 -0.94612366 nan
0.2178143 0.1185 1.1850001 0.30782956 0.039389294 -0.95062584 nan
0.22007143 0.1185 1.1850001 0.3075726 0.039368674 -0.95070982 nan
0.22307904 0.1189 1.189 0.29322901 0.055362403 -0.95443791 nan
0.22534381 0.1189 1.189 0.29233798 0.070944846 -0.95367992 nan
0.22760856 0.1189 1.189 0.24208441 0.088630043 -0.96619868 nan
0.22987333 0.1189 1.189 0.15831624 0.099969484 -0.98231465 nan
0.23213808 0.1189 1.189 0.15796934 0.10808317 -0.98151094 nan
0.23440285 0.1189 1.189 0.14154658 0.12489633 -0.98202109 nan
0.23666762 0.1189 1.189 0.076250747 0.1356312 -0.9878208 nan
0.23893237 0.1189 1.189 0.084299974 0.14339261 -0.98606902 nan
0.24119714 0.1189 1.189 0.13216402 0.15703972 -0.97870892 nan
0.24346191 0.1189 1.189 0.14115152 0.18149419 -0.9732092 nan
0.24572666 0.1189 1.189 0.12965289 0.14256704 -0.98125672 nan
0.24799141 0.1189 1.189 0.11689846 0.20035537 -0.97272426 nan
0.25025621 0.1189 1.189 0.093329325 0.13997442 -0.9857468 nan
0.25337049 0.11930001 1.1930001 0.23802416 0.29753149 -0.92456448 nan
0.25478572 0.1189 1.189 0.19156159 0.28726798 -0.93849945 nan
0.25705048 0.1189 1.189 0.32541236 0.52153176 -0.7887404 nan
0.26018763 0.11930001 1.1930001 nan nan nan nan
0.26334003 0.11970001 1.197 nan nan nan nan
0.26561999 0.11970001 1.197 nan nan nan nan
0.14714286 0.1259543 1.2360001 nan nan nan nan
0.14901336 0.12554666 1.2320001 nan nan nan nan
0.15025429 0.12462953 1.223 nan nan nan nan
0.15208477 0.12422191 1.2190001 -0.96953183 -0.077391401 -0.23241906 nan
0.15377335 0.12371239 1.2140001 -0.98063529 -0.0032935604 -0.19581515 nan
0.15454286 0.12248952 1.202 -0.96594334 0.10970513 -0.23434649 nan
0.15617999 0.12198001 1.197 -0.95985126 0.1106455 -0.25776571 nan
0.15740095 0.12116476 1.189 -0.93420821 0.14425035 -0.32626197 nan
0.15966572 0.12116476 1.189 -0.92033052 0.14690438 -0.36250633 nan
0.16138572 0.12075715 1.1850001 -0.87783712 0.12961827 -0.46108681 nan
0.16309048 0.12034953 1.1810001 -0.85071754 0.12977125 -0.50935167 nan
0.16534001 0.12034953 1.1810001 -0.75280583 0.12734307 -0.64580739 nan
0.16758953 0.12034953 1.1810001 -0.63702804 0.11196597 -0.76266569 nan
0.16926381 0.11994191 1.177 -0.52691555 0.081143439 -0.8460353 nan
0.17092286 0.11953429 1.1730001 -0.3952595 0.068775676 -0.91599119 nan
0.17315716 0.11953429 1.1730001 -0.32511061 0.052701965 -0.9442063 nan
0.17598952 0.11994191 1.177 -0.26585531 0.070876308 -0.96140391 nan
0.17823143 0.11994191 1.177 -0.16075827 0.071500406 -0.98440057 nan
0.17986001 0.11953429 1.1730001 -0.098048843 0.080277659 -0.99193847 nan
0.18271525 0.11994191 1.177 -0.053306516 0.088758342 -0.99462575 nan
0.18432859 0.11953429 1.1730001 0.017538495 0.09651345 -0.99517715 nan
0.18656288 0.11953429 1.1730001 0.060950696 0.087111056 -0.99433225 nan
0.18944097 0.11994191 1.177 0.1114578 0.094420061 -0.98927349 nan
0.19168288 0.11994191 1.177 0.17600638 0.10071101 -0.97922367 nan
0.19326572 0.11953429 1.1730001 0.1986388 0.11603358 -0.97317976 nan
0.19616666 0.11994191 1.177 0.23630995 0.11422114 -0.96494102 nan
0.19840857 0.11994191 1.177 0.26619434 0.096860588 -0.95904046 nan
0.20065048 0.11994191 1.177 0.23018855 0.082259528 -0.96966314 nan
0.20358191 0.12034953 1.1810001 0.28868866 0.056221116 -0.95577091 nan
0.20583144 0.12034953 1.1810001 0.38617969 0.037935872 -0.92164314 nan
0.20808096 0.12034953 1.1810001 0.36208224 0.023138635 -0.9318589 nan
0.21033049 0.12034953 1.1810001 0.32948008 0.023590509 -0.94386774 nan
0.21258001 0.12034953 1.1810001 0.34791085 0.030943148 -0.93701684 nan
0.21555714 0.12075715 1.1850001 0.3279008 0.039057605 -0.94390446 nan
0.2178143 0.12075715 1.1850001 0.30776262 0.039386716 -0.95064759 nan
0.22007143 0.12075715 1.1850001 0.3142094 0.039213534 -0.94854349 nan
0.22307904 0.12116476 1.189 0.30704316 0.047148332 -0.95052695 nan
0.22534381 0.12116476 1.189 0.30614302 0.06265492 -0.94992149 nan
0.22760856 0.12116476 1.189 0.24995458 0.072455123 -0.96554285 nan
0.22987333 0.12116476 1.189 0.16665459 0.083282612 -0.98249185 nan
0.23213808 0.12116476 1.189 0.17408323 0.091163591 -0.98050201 nan
0.23440285 0.12116476 1.189 0.1499107 0.10825849 -0.98275477 nan
0.23666762 0.12116476 1.189 0.084925391 0.11049142 -0.99024206 nan
0.23893237 0.12116476 1.189 0.10075873 0.13447157 -0.98578143 nan
0.24119714 0.12116476 1.189 0.15583584 0.14770296 -0.97667754 nan
0.24346191 0.12116476 1.189 0.16049404 0.17051141 -0.97219729 nan
0.24572666 0.12116476 1.189 0.1525351 0.17786586 -0.97216088 nan
0.24799141 0.12116476 1.189 0.1918339 0.28188315 -0.94007534 nan
0.25025621 0.12116476 1.189 0.1532079 0.26259151 -0.95266628 nan
0.25337049 0.12157239 1.1930001 0.29833117 0.3862654 -0.87281013 nan
0.25478572 0.12116476 1.189 0.30353975 0.34680653 -0.88746202 nan
0.25791523 0.12157239 1.1930001 0.41054341 0.52855814 -0.74302113 nan
0.26106 0.12198001 1.197 0.56282586 0.56282908 -0.60535151 nan
0.26334003 0.12198001 1.197 nan nan nan nan
0.26672953 0.12248952 1.202 nan nan nan nan
0.26901904 0.12248952 1.202 nan nan nan nan
0.27130857 0.12248952 1.202 nan nan nan nan
0.14714286 0.12830856 1.2360001 nan nan nan nan
0.14840858 0.12737429 1.2270001 nan nan nan nan
0.15025429 0.12695906 1.223 nan nan nan nan
0.15208477 0.12654382 1.2190001 -0.94728971 -0.093470365 -0.30644003 nan
0.15377335 0.12602477 1.2140001 -0.96791589 0.015888957 -0.25077152 nan
0.15505715 0.1251943 1.2060001 -0.95660615 0.14264904 -0.25407863 nan
0.15617999 0.12426001 1.197 -0.95537537 0.12253914 -0.26877883 nan
0.15793048 0.12384477 1.1930001 -0.93775839 0.12122226 -0.32544497 nan
0.15966572 0.12342952 1.189 -0.9222883 0.13431162 -0.36241505 nan
0.16138572 0.12301429 1.1850001 -0.88523775 0.11396774 -0.45096061 nan
0.16309048 0.12259907 1.1810001 -0.86038595 0.11162428 -0.49726859 nan
0.16534001 0.12259907 1.1810001 -0.76947522 0.10589891 -0.6298359 nan
0.16758953 0.12259907 1.1810001 -0.65975368 0.088311262 -0.74627489 nan
0.16926381 0.12218381 1.177 -0.54693228 0.064415522 -0.83469498 nan
0.17092286 0.12176858 1.1730001 -0.41151705 0.051476467 -0.90994722 nan
0.17374763 0.12218381 1.177 -0.32544184 0.044027321 -0.94453651 nan
0.17598952 0.12218381 1.177 -0.25754964 0.062222384 -0.96425956 nan
0.17823143 0.12218381 1.177 -0.15198337 0.062693723 -0.98639268 nan
0.18047334 0.12218381 1.177 -0.079964757 0.08893954 -0.99282193 nan
0.18271525 0.12218381 1.177 -0.035280086 0.11450063 -0.99279654 nan
0.18432859 0.12176858 1.1730001 0.026081957 0.13036971 -0.99112231 nan
0.18656288 0.12176858 1.1730001 0.060505487 0.12105392 -0.9908002 nan
0.18944097 0.12218381 1.177 0.11082674 0.11950059 -0.98662913 nan
0.19168288 0.12218381 1.177 0.18284512 0.12483222 -0.97518438 nan
0.19392475 0.12218381 1.177 0.20549819 0.13170405 -0.96975487 nan
0.19616666 0.12218381 1.177 0.22843125 0.12251028 -0.96582109 nan
0.19840857 0.12218381 1.177 0.25128287 0.10544517 -0.9621529 nan
0.20133239 0.12259907 1.1810001 0.20709565 0.091179505 -0.97406244 nan
0.20358191 0.12259907 1.1810001 0.26739025 0.056818053 -0.96191174 nan
0.20583144 0.12259907 1.1810001 0.37402099 0.038256153 -0.92663085 nan
0.20808096 0.12259907 1.1810001 0.35608637 0.015497581 -0.9343245 nan
0.21033049 0.12259907 1.1810001 0.33597186 0.02344905 -0.94158006 nan
0.21258001 0.12259907 1.1810001 0.3538298 0.0384681 -0.9345184 nan
0.21555714 0.12301429 1.1850001 0.32817227 0.03125219 -0.9441008 nan
0.2178143 0.12301429 1.1850001 0.30769554 0.039387986 -0.95066929 nan
0.22007143 0.12301429 1.1850001 0.31418702 0.039214067 -0.94855088 nan
0.22307904 0.12342952 1.189 0.31400877 0.039191861 -0.94861084 nan
0.22534381 0.12342952 1.189 0.31348613 0.046933122 -0.94843227 nan
0.22760856 0.12342952 1.189 0.25804418 0.048328217 -0.96492362 nan
0.22987333 0.12342952 1.189 0.17517255 0.058360863 -0.9828065 nan
0.23213808 0.12342952 1.189 0.1825849 0.06636174 -0.98094797 nan
0.23440285 0.12342952 1.189 0.15873402 0.075156614 -0.98445672 nan
0.23666762 0.12342952 1.189 0.10203946 0.076557219 -0.99183011 nan
0.23893237 0.12342952 1.189 0.12559876 0.10892656 -0.98608315 nan
0.24119714 0.12342952 1.189 0.17211659 0.12294754 -0.9773739 nan
0.24346191 0.12342952 1.189 0.19751994 0.16785805 -0.96582067 nan
0.24572666 0.12342952 1.189 0.19802877 0.1979553 -0.95999914 nan
0.24799141 0.12342952 1.189 0.24787402 0.27453515 -0.92907959 nan
0.2510981 0.12384477 1.1930001 0.22774038 0.3441188 -0.91088778 nan
0.25337049 0.12384477 1.1930001 0.37554935 0.44227368 -0.81446713 nan
0.25564286 0.12384477 1.1930001 0.3433412 0.46706825 -0.8148399 nan
0.25878 0.12426001 1.197 0.40317824 0.54699367 -0.733652 nan
0.26106 0.12426001 1.197 0.49246681 0.49246883 -0.71760076 nan
0.26334003 0.12426001 1.197 0.53511089 0.15323053 -0.83076876 nan
0.26672953 0.12477905 1.202 nan nan nan nan
0.26991433 0.1251943 1.2060001 nan nan nan nan
0.27221143 0.1251943 1.2060001 nan nan nan nan
0.27450857 0.1251943 1.2060001 nan nan nan nan
0.27680573 0.1251943 1.2060001 nan nan nan nan
0.14432001 0.13024001 1.2320001 nan nan nan nan
0.14607145 0.12971143 1.2270001 nan nan nan nan
0.14792477 0.12928857 1.223 nan nan nan nan
0.14976287 0.12886572 1.2190001 -0.90258509 -0.30814633 -0.3006427 nan
0.15146096 0.12833716 1.2140001 -0.93354666 0 -0.3584559 nan
0.15326667 0.12791428 1.21 -0.95791042 0.064126857 -0.27981317 nan
0.15557143 0.12791428 1.21 -0.95339978 0.1382692 -0.26816124 nan
0.15683238 0.12706856 1.202 -0.9512521 0.1361067 -0.27675685 nan
0.15793048 0.12611714 1.1930001 -0.93767256 0.12108108 -0.32574463 nan
0.15912858 0.12527142 1.1850001 -0.92313182 0.12070682 -0.36504447 nan
0.16138572 0.12527142 1.1850001 -0.89407396 0.092494905 -0.43826529 nan
0.16309048 0.12484859 1.1810001 -0.86780339 0.093195871 -0.48808992 nan
0.16534001 0.12484859 1.1810001 -0.78408152 0.091318756 -0.61390311 nan
0.1670219 0.12442572 1.177 -0.68032402 0.072386846 -0.72932804 nan
0.16926381 0.12442572 1.177 -0.56682062 0.039856907 -0.82287651 nan
0.17092286 0.12400287 1.1730001 -0.41993442 0.034295253 -0.90690625 nan
0.17374763 0.12442572 1.177 -0.31780601 0.02653501 -0.94778436 nan
0.17598952 0.12442572 1.177 -0.24951038 0.044637084 -0.96734279 nan
0.17823143 0.12442572 1.177 -0.13440943 0.044929203 -0.98990679 nan
0.18047334 0.12442572 1.177 -0.044491913 0.062355265 -0.99706185 nan
0.18271525 0.12442572 1.177 -0.0088532474 0.096884936 -0.99525619 nan
0.18432859 0.12400287 1.1730001 0.026052069 0.13032235 -0.99112934 nan
0.18719906 0.12442572 1.177 0.051822681 0.12962285 -0.99020821 nan
0.18944097 0.12442572 1.177 0.11880662 0.12742487 -0.984707 nan
0.19168288 0.12442572 1.177 0.18983135 0.14045171 -0.97171879 nan
0.19392475 0.12442572 1.177 0.19780362 0.13202658 -0.97130978 nan
0.19616666 0.12442572 1.177 0.21335882 0.12320948 -0.96917361 nan
0.19840857 0.12442572 1.177 0.23654845 0.10608687 -0.96581078 nan
0.20133239 0.12484859 1.1810001 0.18382327 0.091952115 -0.97864896 nan
0.20358191 0.12484859 1.1810001 0.24485289 0.073551908 -0.96676636 nan
0.20583144 0.12484859 1.1810001 0.35452604 0.054049388 -0.93348271 nan
0.20808096 0.12484859 1.1810001 0.3493377 0.023302943 -0.93670708 nan
0.21033049 0.12484859 1.1810001 0.34876442 0.023236899 -0.93692231 nan
0.21258001 0.12484859 1.1810001 0.35412496 0.030795092 -0.93469095 nan
0.21482953 0.12484859 1.1810001 0.32842773 0.023446098 -0.94423807 nan
0.2178143 0.12527142 1.1850001 0.31467488 0.031441461 -0.94867861 nan
0.22007143 0.12527142 1.1850001 0.31449607 0.03142361 -0.94873852 nan
0.22232857 0.12527142 1.1850001 0.31431744 0.03140578 -0.9487983 nan
0.22534381 0.12569429 1.189 0.31413892 0.03138797 -0.94885802 nan
0.22760856 0.12569429 1.189 0.25888354 0.024249971 -0.96560407 nan
0.22987333 0.12569429 1.189 0.18380328 0.025066048 -0.98264343 nan
0.23213808 0.12569429 1.189 0.19096884 0.041486323 -0.98071903 nan
0.23440285 0.12569429 1.189 0.15933226 0.050274171 -0.98594409 nan
0.23666762 0.12569429 1.189 0.11855131 0.067747958 -0.99063402 nan
0.23893237 0.12569429 1.189 0.14963837 0.099799901 -0.98369116 nan
0.24119714 0.12569429 1.189 0.19476737 0.12172843 -0.9732666 nan
0.24346191 0.12569429 1.189 0.19358842 0.14516428 -0.97028393 nan
0.24572666 0.12569429 1.189 0.2325422 0.2013656 -0.95151252 nan
0.24882574 0.12611714 1.1930001 0.23045596 0.23944892 -0.94316185 nan
0.2510981 0.12611714 1.1930001 0.33228663 0.3111864 -0.89036429 nan
0.25337049 0.12611714 1.1930001 0.3408637 0.36867279 -0.86480767 nan
0.25564286 0.12611714 1.1930001 0.30420116 0.37870541 -0.87409604 nan
0.25878 0.12654001 1.197 0.31689718 0.48016626 -0.81793433 nan
0.26106 0.12654001 1.197 0.34770721 0.27071095 -0.89767212 nan
0.26334003 0.12654001 1.197 0.42056251 0.21055672 -0.88249254 nan
0.26672953 0.12706856 1.202 nan nan nan nan
0.26901904 0.12706856 1.202 nan nan nan nan
0.27221143 0.12749144 1.2060001 nan nan nan nan
0.27450857 0.12749144 1.2060001 nan nan nan nan
0.14432001 0.13258669 1.2320001 nan nan nan nan
0.14666668 0.13258669 1.2320001 nan nan nan nan
0.14840858 0.13204859 1.2270001 nan nan nan nan
0.15025429 0.1316181 1.223 -0.89126492 0.20945232 -0.40221462 nan
0.15208477 0.13118763 1.2190001 -0.92499715 0.10163298 -0.3661297 nan
0.15377335 0.13064952 1.2140001 -0.95246279 0.00029450652 -0.30465484 nan
0.15505715 0.12978858 1.2060001 -0.95414203 0.10305437 -0.28105655 nan
0.15617999 0.12882 1.197 -0.95160723 0.11962648 -0.28307816 nan
0.15846001 0.12882 1.197 -0.94198024 0.09727037 -0.3212657 nan
0.15966572 0.12795904 1.189 -0.9248907 0.10770819 -0.36465895 nan
0.16138572 0.12752858 1.1850001 -0.90142208 0.07771422 -0.42590934 nan
0.16364287 0.12752858 1.1850001 -0.87454885 0.074096173 -0.47924322 nan
0.16534001 0.12709811 1.1810001 -0.79460311 0.076107427 -0.60234004 nan
0.16758953 0.12709811 1.1810001 -0.7031166 0.063662507 -0.70821899 nan
0.16926381 0.12666762 1.177 -0.58476907 0.031478684 -0.81058884 nan
0.17150572 0.12666762 1.177 -0.42732245 0.034215651 -0.90345162 nan
0.17374763 0.12666762 1.177 -0.31773937 0.026486024 -0.94780809 nan
0.17598952 0.12666762 1.177 -0.24104942 0.035772424 -0.96985334 nan
0.17762573 0.12623715 1.1730001 -0.13453159 0.035985149 -0.99025571 nan
0.17986001 0.12623715 1.1730001 -0.02671328 0.044546187 -0.99865013 nan
0.18209431 0.12623715 1.1730001 0.035104807 0.070243411 -0.996912 nan
0.18495715 0.12666762 1.177 0.060604624 0.11254364 -0.99179685 nan
0.18719906 0.12666762 1.177 0.06031251 0.12932523 -0.98976636 nan
