# .PCD v0.7 - Point Cloud Data file format
VERSION 0.7
FIELDS x y z normal_x normal_y normal_z curvature
SIZE 4 4 4 4 4 4 4
TYPE F F F F F F F
COUNT 1 1 1 1 1 1 1
WIDTH 698
HEIGHT 1
VIEWPOINT 0 0 0 1 0 0 0
POINTS 698
DATA ascii
0.19008479 0.064111434 1.1810001 -0.11640814 -0.10758457 -0.98735744 nan
0.19233431 0.064111434 1.1810001 0.0088582123 -0.097406231 -0.99520528 nan
0.19458382 0.064111434 1.1810001 0.16961645 -0.06804841 -0.98315799 nan
0.19683334 0.064111434 1.1810001 0.38667324 -0.04582864 -0.92107737 nan
0.19975714 0.064328574 1.1850001 0.52061087 -0.027492363 -0.85335129 nan
0.20201428 0.064328574 1.1850001 0.60319281 -0.0035295023 -0.79758757 nan
0.20496096 0.064545713 1.189 0.65019828 0.0025360065 -0.75976038 nan
0.20792288 0.064762861 1.1930001 0.667687 0.019097127 -0.74419713 nan
0.21178097 0.065251425 1.202 0.68837988 0.029049158 -0.72476846 nan
0.21407047 0.065251425 1.202 0.70045233 0.033514243 -0.71291184 nan
0.21708001 0.065468572 1.2060001 0.72032577 0.027256263 -0.69310021 nan
0.21937716 0.065468572 1.2060001 0.74955922 0.029914713 -0.66126096 nan
0.22167429 0.065468572 1.2060001 0.75290471 0.033881608 -0.65725678 nan
0.22471429 0.065685712 1.21 0.74242401 0.039057113 -0.66879082 nan
0.22701906 0.065685712 1.21 0.74463302 0.040720005 -0.66623086 nan
0.23008192 0.065902859 1.2140001 0.77079701 0.027223712 -0.63649887 nan
0.23335145 0.066174291 1.2190001 0.78818548 0.034643054 -0.61446196 nan
0.23722002 0.066608571 1.2270001 0.79607671 0.038221296 -0.60398757 nan
0.24053335 0.066880003 1.2320001 0.80550933 0.065063849 -0.58900034 nan
0.24366859 0.067097142 1.2360001 0.80599695 0.081529185 -0.58627802 nan
0.24781427 0.067585714 1.245 0.77445948 0.092676349 -0.6257984 nan
0.25018573 0.067585714 1.245 0.75356323 0.10692731 -0.64862084 nan
0.25336859 0.067802854 1.2490001 0.59096551 0.10770664 -0.79947424 nan
0.25574762 0.067802854 1.2490001 0.44511643 -0.052852605 -0.8939116 nan
0.25812668 0.067802854 1.2490001 0.30715948 0.10225292 -0.94614869 nan
0.26050571 0.067802854 1.2490001 0.051919226 0 -0.99865127 nan
0.26288477 0.067802854 1.2490001 nan nan nan nan
0.26526383 0.067802854 1.2490001 nan nan nan nan
0.26764289 0.067802854 1.2490001 nan nan nan nan
0.11653715 0.069451429 1.2360001 nan nan nan nan
0.11889143 0.069451429 1.2360001 nan nan nan nan
0.12124572 0.069451429 1.2360001 nan nan nan nan
0.12320001 0.069226667 1.2320001 -0.55894107 0.39697528 -0.72800791 nan
0.12554666 0.069226667 1.2320001 -0.61619562 0.39486787 -0.68145603 nan
0.12737429 0.068945721 1.2270001 -0.61025363 0.24688552 -0.75275367 nan
0.12971143 0.068945721 1.2270001 -0.58534467 0.18006596 -0.79053646 nan
0.13204859 0.068945721 1.2270001 -0.61805832 0.066569455 -0.78330863 nan
0.13394763 0.068720959 1.223 -0.60881674 0.068701632 -0.79033047 nan
0.13627714 0.068720959 1.223 -0.61331922 0.081397206 -0.78562975 nan
0.13815333 0.068496197 1.2190001 -0.59266388 0.082762621 -0.80118656 nan
0.14047524 0.068496197 1.2190001 -0.60359478 0.029756213 -0.79673576 nan
0.14279716 0.068496197 1.2190001 -0.60524398 0.014775272 -0.79590291 nan
0.14452383 0.068215244 1.2140001 -0.61678785 0.007093993 -0.78709745 nan
0.14683619 0.068215244 1.2140001 -0.63350898 -0.022523507 -0.7734074 nan
0.14865716 0.067990474 1.21 -0.65139818 -0.044094298 -0.75745368 nan
0.15096191 0.067990474 1.21 -0.66627318 -0.043581709 -0.7444331 nan
0.15276001 0.06776572 1.2060001 -0.6779502 -0.078739978 -0.73087859 nan
0.15505715 0.06776572 1.2060001 -0.65153307 -0.098826572 -0.75215554 nan
0.15683238 0.067540951 1.202 -0.61815214 -0.10169359 -0.77945262 nan
0.1591219 0.067540951 1.202 -0.58173108 -0.096854888 -0.807594 nan
0.16074 0.067259997 1.197 -0.56001836 -0.090523779 -0.82351983 nan
0.16302 0.067259997 1.197 -0.56722796 -0.07461907 -0.82017344 nan
0.1653 0.067259997 1.197 -0.55668974 -0.0514303 -0.82912695 nan
0.16757999 0.067259997 1.197 -0.55186695 -0.035837933 -0.83316177 nan
0.16985999 0.067259997 1.197 -0.57985795 -0.02753556 -0.81425214 nan
0.17156476 0.067035235 1.1930001 -0.57663518 -0.019665027 -0.81676507 nan
0.17383714 0.067035235 1.1930001 -0.52191889 -0.0082104579 -0.85295564 nan
0.17551905 0.066810474 1.189 -0.49764448 -0.0083126603 -0.86734128 nan
0.17778382 0.066810474 1.189 -0.51823616 -0.0082417987 -0.85519785 nan
0.17944287 0.066585712 1.1850001 -0.5632537 -0.0080554755 -0.82624477 nan
0.18170001 0.066585712 1.1850001 -0.55816561 -0.016218711 -0.82957101 nan
0.18395716 0.066585712 1.1850001 -0.50751513 -0.025022853 -0.86127943 nan
0.1862143 0.066585712 1.1850001 -0.45195755 -0.042677257 -0.89101797 nan
0.18847144 0.066585712 1.1850001 -0.30997282 -0.035481174 -0.95008314 nan
0.19008479 0.066360958 1.1810001 -0.10756307 -0.026921609 -0.99383372 nan
0.19233431 0.066360958 1.1810001 0.026478373 -0.035331354 -0.99902481 nan
0.19458382 0.066360958 1.1810001 0.18535656 -0.0084752366 -0.98263478 nan
0.19683334 0.066360958 1.1810001 0.39227939 -0.007650611 -0.91981429 nan
0.19975714 0.066585712 1.1850001 0.5300988 -0.0085015967 -0.84789324 nan
0.20201428 0.066585712 1.1850001 0.60734826 -0.00018652822 -0.79443568 nan
0.20427144 0.066585712 1.1850001 0.65313947 -9.0681606e-05 -0.75723761 nan
0.20792288 0.067035235 1.1930001 0.67330843 0.0054480135 -0.73934168 nan
0.21178097 0.067540951 1.202 0.69125569 0.015817039 -0.72243714 nan
0.21407047 0.067540951 1.202 0.70122963 0.015484068 -0.7127673 nan
0.21636 0.067540951 1.202 0.72247452 0.020830721 -0.69108367 nan
0.21937716 0.06776572 1.2060001 0.75112307 0.028385954 -0.65955162 nan
0.22167429 0.06776572 1.2060001 0.75464451 0.027805187 -0.65554446 nan
0.22471429 0.067990474 1.21 0.74443078 0.037433226 -0.66664946 nan
0.22701906 0.067990474 1.21 0.74236059 0.049825907 -0.6681453 nan
0.23102954 0.068496197 1.2190001 0.77107036 0.044869017 -0.63516712 nan
0.23411715 0.068720959 1.223 0.79178506 0.055421375 -0.60828024 nan
0.23722002 0.068945721 1.2270001 0.79867756 0.065858133 -0.59814447 nan
0.24053335 0.069226667 1.2320001 0.80842644 0.078652859 -0.58331847 nan
0.24366859 0.069451429 1.2360001 0.81145495 0.073492318 -0.57977563 nan
0.24781427 0.069957145 1.245 0.78551596 0.08826229 -0.61251485 nan
0.25018573 0.069957145 1.245 0.74275595 0.13091817 -0.65663844 nan
0.25336859 0.070181906 1.2490001 0.7107197 0.120465 -0.69308418 nan
0.25574762 0.070181906 1.2490001 0.43583357 0.36948323 -0.8206895 nan
0.25812668 0.070181906 1.2490001 0.37976804 0.29715762 -0.87605572 nan
0.26154858 0.07046286 1.2540001 0.3180666 0.54015756 -0.77914274 nan
0.26393715 0.07046286 1.2540001 nan nan nan nan
0.26632574 0.07046286 1.2540001 nan nan nan nan
0.26764289 0.070181906 1.2490001 nan nan nan nan
0.11653715 0.071805716 1.2360001 nan nan nan nan
0.11889143 0.071805716 1.2360001 nan nan nan nan
0.12124572 0.071805716 1.2360001 nan nan nan nan
0.12320001 0.071573339 1.2320001 -0.70142961 0.14363889 -0.69811487 nan
0.12554666 0.071573339 1.2320001 -0.67499977 0.25794315 -0.69126016 nan
0.12737429 0.071282864 1.2270001 -0.68008202 0.14654256 -0.71834093 nan
0.12971143 0.071282864 1.2270001 -0.62881023 0.19196147 -0.75349087 nan
0.13204859 0.071282864 1.2270001 -0.64737201 0.10724986 -0.75459057 nan
0.13394763 0.07105048 1.223 -0.61470801 0.087861106 -0.78384596 nan
0.13627714 0.07105048 1.223 -0.60640776 0.10594387 -0.78806442 nan
0.13815333 0.070818104 1.2190001 -0.61667287 0.094603203 -0.78151441 nan
0.14047524 0.070818104 1.2190001 -0.60951871 0.093573228 -0.78722996 nan
0.14221144 0.070527628 1.2140001 -0.61731505 0.071453966 -0.78346437 nan
0.14452383 0.070527628 1.2140001 -0.63453531 0.048887264 -0.77134621 nan
0.14683619 0.070527628 1.2140001 -0.65584254 0.019413769 -0.75464803 nan
0.14865716 0.070295244 1.21 -0.6601913 -0.0094218105 -0.75103843 nan
0.15096191 0.070295244 1.21 -0.67688513 -0.0093045421 -0.73602986 nan
0.15276001 0.070062861 1.2060001 -0.69413245 -0.035429809 -0.71897483 nan
0.15454286 0.069830477 1.202 -0.65837502 -0.045745637 -0.75129867 nan
0.15683238 0.069830477 1.202 -0.61922723 -0.054793078 -0.78329778 nan
0.15846001 0.069539994 1.197 -0.58247882 -0.064025342 -0.81032038 nan
0.16074 0.069539994 1.197 -0.5546295 -0.065144189 -0.82954347 nan
0.16302 0.069539994 1.197 -0.54970062 -0.049580615 -0.83388907 nan
0.1653 0.069539994 1.197 -0.53214401 -0.025986504 -0.84625494 nan
0.16757999 0.069539994 1.197 -0.5331161 -0.0099382335 -0.84598374 nan
0.16985999 0.069539994 1.197 -0.56752795 0.0060149929 -0.82333213 nan
0.17156476 0.069307618 1.1930001 -0.5622434 0.022039756 -0.82667804 nan
0.17383714 0.069307618 1.1930001 -0.51216316 0.040999226 -0.85790908 nan
0.17551905 0.069075234 1.189 -0.49601811 0.041348666 -0.86732709 nan
0.17778382 0.069075234 1.189 -0.51657885 0.04099394 -0.85525775 nan
0.17944287 0.068842858 1.1850001 -0.56113142 0.048094295 -0.82632834 nan
0.18170001 0.068842858 1.1850001 -0.55588406 0.048380475 -0.82985073 nan
0.18395716 0.068842858 1.1850001 -0.51141888 0.057785906 -0.85738647 nan
0.1862143 0.068842858 1.1850001 -0.4564769 0.059259877 -0.88775957 nan
0.18783526 0.068610482 1.1810001 -0.30763698 0.070424937 -0.94889402 nan
0.19008479 0.068610482 1.1810001 -0.11565695 0.07124988 -0.99073052 nan
0.19233431 0.068610482 1.1810001 0.02633284 0.052700773 -0.99826312 nan
0.19458382 0.068610482 1.1810001 0.19233252 0.050275356 -0.98004115 nan
0.19683334 0.068610482 1.1810001 0.38339061 0.045527026 -0.92246354 nan
0.19908287 0.068610482 1.1810001 0.52313048 0.038831763 -0.85136747 nan
0.20201428 0.068842858 1.1850001 0.60661018 0.021527912 -0.79470789 nan
0.20427144 0.068842858 1.1850001 0.65286529 0.0087457364 -0.75742352 nan
0.20722571 0.069075234 1.189 0.67585945 0.0029028207 -0.73702478 nan
0.21090001 0.069539994 1.197 0.6939562 0.00269739 -0.72001219 nan
0.21407047 0.069830477 1.202 0.70446229 -0.0025532816 -0.70973682 nan
0.21636 0.069830477 1.202 0.72707683 0.0095885638 -0.68648916 nan
0.21937716 0.070062861 1.2060001 0.75303036 0.019046769 -0.65771008 nan
0.22167429 0.070062861 1.2060001 0.75629181 0.023109315 -0.65382618 nan
0.22471429 0.070295244 1.21 0.75018322 0.032287266 -0.66044128 nan
0.22701906 0.070295244 1.21 0.748492 0.038987532 -0.66199672 nan
0.23008192 0.070527628 1.2140001 0.77357048 0.049700223 -0.63175833 nan
0.23335145 0.070818104 1.2190001 0.79439557 0.051302161 -0.60523033 nan
0.23722002 0.071282864 1.2270001 0.80039227 0.058307983 -0.59663421 nan
0.24053335 0.071573339 1.2320001 0.81052029 0.083535187 -0.579723 nan
0.24366859 0.071805716 1.2360001 0.81108522 0.09616214 -0.57696933 nan
0.24781427 0.072328568 1.245 0.78089452 0.12209874 -0.6126138 nan
0.25098953 0.072560951 1.2490001 0.75465554 0.11707326 -0.64559186 nan
0.25336859 0.072560951 1.2490001 0.65896189 0.24529769 -0.71105433 nan
0.25574762 0.072560951 1.2490001 0.44549778 0.39060417 -0.80558062 nan
0.25812668 0.072560951 1.2490001 0.40420598 0.59246153 -0.69685501 nan
0.26154858 0.072851434 1.2540001 0.57631445 0.43176848 -0.69385707 nan
0.26393715 0.072851434 1.2540001 nan nan nan nan
0.26632574 0.072851434 1.2540001 nan nan nan nan
0.26871431 0.072851434 1.2540001 nan nan nan nan
0.11691429 0.0744 1.24 nan nan nan nan
0.11889143 0.074160002 1.2360001 nan nan nan nan
0.12124572 0.074160002 1.2360001 nan nan nan nan
0.12320001 0.073920004 1.2320001 -0.7384088 0.13724573 -0.6602394 nan
0.12554666 0.073920004 1.2320001 -0.75842547 0.11353506 -0.6417948 nan
0.12737429 0.073620006 1.2270001 -0.72016257 0.02592623 -0.69332075 nan
0.12971143 0.073620006 1.2270001 -0.67574006 0.12186588 -0.7269966 nan
0.1316181 0.073380001 1.223 -0.68553448 0.10325558 -0.72068077 nan
0.13394763 0.073380001 1.223 -0.62693554 0.13027589 -0.76810157 nan
0.13627714 0.073380001 1.223 -0.62885565 0.086463735 -0.77269953 nan
0.13815333 0.073140003 1.2190001 -0.61888528 0.094293967 -0.77980101 nan
0.13989906 0.072840005 1.2140001 -0.61694407 0.07684648 -0.78324622 nan
0.14221144 0.072840005 1.2140001 -0.63300806 0.054388244 -0.77223229 nan
0.14452383 0.072840005 1.2140001 -0.6494059 0.03228477 -0.75975633 nan
0.14635238 0.0726 1.21 -0.66888654 0.02471585 -0.74295348 nan
0.14865716 0.0726 1.21 -0.6684947 0.010511676 -0.74364263 nan
0.15046287 0.072360002 1.2060001 -0.68124706 0.019290296 -0.73179936 nan
0.15276001 0.072360002 1.2060001 -0.69822323 0.010346145 -0.71580535 nan
0.15454286 0.072119996 1.202 -0.66224372 0.0017560024 -0.74928647 nan
0.15683238 0.072119996 1.202 -0.62884957 -0.0056190039 -0.77750671 nan
0.1591219 0.072119996 1.202 -0.58757329 -0.0057014916 -0.80915087 nan
0.16074 0.071820006 1.197 -0.54800576 0.0022232169 -0.83647156 nan
0.16302 0.071820006 1.197 -0.5363484 0.01815388 -0.84380144 nan
0.1653 0.071820006 1.197 -0.52452123 0.026298221 -0.85099113 nan
0.16757999 0.071820006 1.197 -0.52572358 0.026314817 -0.85024834 nan
0.16985999 0.071820006 1.197 -0.55450708 0.033835355 -0.83149087 nan
0.17156476 0.07158 1.1930001 -0.54924935 0.04010627 -0.83469552 nan
0.17383714 0.07158 1.1930001 -0.50509584 0.049284812 -0.86165494 nan
0.17610954 0.07158 1.1930001 -0.49558935 0.049550112 -0.86714244 nan
0.17778382 0.071339995 1.189 -0.50951874 0.049280513 -0.85904723 nan
0.17944287 0.071100004 1.1850001 -0.55444634 0.056316193 -0.83031183 nan
0.18170001 0.071100004 1.1850001 -0.54911131 0.05672396 -0.83382201 nan
0.18395716 0.071100004 1.1850001 -0.49689141 0.074761428 -0.86458641 nan
0.1862143 0.071100004 1.1850001 -0.43983999 0.093309335 -0.89321566 nan
0.18847144 0.071100004 1.1850001 -0.29724225 0.11394177 -0.94797909 nan
0.19008479 0.070860006 1.1810001 -0.12372456 0.11510335 -0.98561829 nan
0.19233431 0.070860006 1.1810001 0.0087552741 0.10499614 -0.99443406 nan
0.19458382 0.070860006 1.1810001 0.18324332 0.10020196 -0.97794759 nan
0.19683334 0.070860006 1.1810001 0.38716564 0.090218529 -0.91758561 nan
0.19975714 0.071100004 1.1850001 0.5147087 0.087751418 -0.8528626 nan
0.20201428 0.071100004 1.1850001 0.58945107 0.068331212 -0.80490887 nan
0.20427144 0.071100004 1.1850001 0.64259577 0.046265353 -0.76480728 nan
0.20792288 0.07158 1.1930001 0.66921902 0.038629834 -0.74206042 nan
0.21090001 0.071820006 1.197 0.68811387 0.031850751 -0.72490335 nan
0.21407047 0.072119996 1.202 0.70387441 0.02556487 -0.70986426 nan
0.21636 0.072119996 1.202 0.73009151 0.040661868 -0.68213856 nan
0.21937716 0.072360002 1.2060001 0.75476921 0.049069874 -0.65415263 nan
0.22167429 0.072360002 1.2060001 0.75717551 0.057130348 -0.65070832 nan
0.22471429 0.0726 1.21 0.7477833 0.067107223 -0.66054279 nan
0.22776954 0.072840005 1.2140001 0.74798751 0.072163329 -0.65977806 nan
0.23102954 0.073140003 1.2190001 0.77445185 0.074930161 -0.62817979 nan
0.23411715 0.073380001 1.223 0.79387927 0.074167743 -0.60353523 nan
0.23722002 0.073620006 1.2270001 0.81230718 0.088866465 -0.57641983 nan
0.24053335 0.073920004 1.2320001 0.80965585 0.095292367 -0.57911724 nan
0.24366859 0.074160002 1.2360001 0.81105494 0.084201805 -0.57887816 nan
0.24781427 0.074699998 1.245 0.79627824 0.078556255 -0.59980822 nan
0.25098953 0.074940003 1.2490001 0.77193469 0.11366535 -0.62545747 nan
0.25438288 0.075240009 1.2540001 0.69616586 0.29456943 -0.65466172 nan
0.25677145 0.075240009 1.2540001 0.58195364 0.39485994 -0.71092588 nan
0.25916001 0.075240009 1.2540001 0.43451524 0.65197271 -0.62139201 nan
0.26259142 0.075539999 1.2590001 0.46344686 0.67111468 -0.57863814 nan
0.26498953 0.075539999 1.2590001 nan nan nan nan
0.26738763 0.075539999 1.2590001 nan nan nan nan
0.26871431 0.075240009 1.2540001 nan nan nan nan
0.11691429 0.076761901 1.24 nan nan nan nan
0.11927619 0.076761901 1.24 nan nan nan nan
0.12124572 0.076514289 1.2360001 nan nan nan nan
0.1236 0.076514289 1.2360001 -0.73829383 0.13721977 -0.66037339 nan
0.12554666 0.076266676 1.2320001 -0.77938962 0.074085392 -0.62214398 nan
0.12737429 0.075957149 1.2270001 -0.74625236 0.031427138 -0.66492087 nan
0.12928857 0.075709529 1.223 -0.70263672 0.060053069 -0.70901006 nan
0.1316181 0.075709529 1.223 -0.69086587 0.034529228 -0.7221579 nan
0.13394763 0.075709529 1.223 -0.65577352 0.084502749 -0.7502135 nan
0.13583145 0.075461909 1.2190001 -0.65185201 0.039283175 -0.75732809 nan
0.13815333 0.075461909 1.2190001 -0.63780785 0.062664881 -0.76764202 nan
0.14047524 0.075461909 1.2190001 -0.63975489 0.037796192 -0.76764911 nan
0.14279716 0.075461909 1.2190001 -0.64896488 0.016080188 -0.76064843 nan
0.14452383 0.075152382 1.2140001 -0.65516138 0.0017553084 -0.75548697 nan
0.14683619 0.075152382 1.2140001 -0.66976732 0.0017322678 -0.74256903 nan
0.14865716 0.074904762 1.21 -0.6632092 0.00174617 -0.74843204 nan
0.15046287 0.07465715 1.2060001 -0.67621076 0.010681779 -0.73663074 nan
0.15276001 0.07465715 1.2060001 -0.7027936 0.019142769 -0.71113622 nan
0.15454286 0.07440953 1.202 -0.66749746 0.010927219 -0.74453193 nan
0.15683238 0.07440953 1.202 -0.62324911 0.011351099 -0.781941 nan
0.1591219 0.07440953 1.202 -0.57545257 0.019574052 -0.81760085 nan
0.16074 0.074100003 1.197 -0.53485811 0.028080577 -0.84447515 nan
0.16302 0.074100003 1.197 -0.52939558 0.036154479 -0.84760439 nan
0.1653 0.074100003 1.197 -0.52405983 0.036294874 -0.85090774 nan
0.16757999 0.074100003 1.197 -0.52525991 0.036323573 -0.8501662 nan
0.16985999 0.074100003 1.197 -0.55581784 0.035753503 -0.83053488 nan
0.17156476 0.073852383 1.1930001 -0.55056143 0.042025581 -0.83373618 nan
0.17383714 0.073852383 1.1930001 -0.50582719 0.03290217 -0.86200714 nan
0.17610954 0.073852383 1.1930001 -0.4963209 0.033079941 -0.86750865 nan
0.17778382 0.073604763 1.189 -0.51019329 0.032900114 -0.85943031 nan
0.17944287 0.073357143 1.1850001 -0.55553073 0.032253206 -0.83087027 nan
0.18170001 0.073357143 1.1850001 -0.54360014 0.040728495 -0.8383556 nan
0.18395716 0.073357143 1.1850001 -0.48402596 0.058625873 -0.87308758 nan
0.1862143 0.073357143 1.1850001 -0.42592227 0.076927669 -0.90148342 nan
0.18783526 0.07310953 1.1810001 -0.28962302 0.096809886 -0.9522323 nan
0.19008479 0.07310953 1.1810001 -0.12405201 0.09767101 -0.9874571 nan
0.19233431 0.07310953 1.1810001 0.01747481 0.096205801 -0.99520808 nan
0.19458382 0.07310953 1.1810001 0.19096799 0.099862352 -0.97650331 nan
0.19683334 0.07310953 1.1810001 0.38710961 0.090153456 -0.91761565 nan
0.19975714 0.073357143 1.1850001 0.51671326 0.072660714 -0.85306966 nan
0.20201428 0.073357143 1.1850001 0.58664501 0.068555154 -0.80693728 nan
0.20427144 0.073357143 1.1850001 0.63921928 0.052179471 -0.76725227 nan
0.20792288 0.073852383 1.1930001 0.66876417 0.044079155 -0.74216676 nan
0.21090001 0.074100003 1.197 0.68739659 0.042338137 -0.72504717 nan
0.21407047 0.07440953 1.202 0.70766026 0.040394753 -0.70539719 nan
0.21636 0.07440953 1.202 0.73490429 0.058815703 -0.67561555 nan
0.21937716 0.07465715 1.2060001 0.75670266 0.066148169 -0.65040416 nan
0.22167429 0.07465715 1.2060001 0.75822371 0.078268632 -0.64727956 nan
0.22471429 0.074904762 1.21 0.75019377 0.093488075 -0.65457565 nan
0.22701906 0.074904762 1.21 0.74674416 0.11302426 -0.65543777 nan
0.23102954 0.075461909 1.2190001 0.7723161 0.10418503 -0.62663656 nan
0.23411715 0.075709529 1.223 0.79166245 0.10507947 -0.6018545 nan
0.23722002 0.075957149 1.2270001 0.81248581 0.097882733 -0.57470495 nan
0.24053335 0.076266676 1.2320001 0.82187963 0.075213052 -0.56467414 nan
0.24366859 0.076514289 1.2360001 0.81646609 0.046164013 -0.57554495 nan
0.24681905 0.076761901 1.24 0.81980693 0.033172492 -0.57167834 nan
0.25018573 0.077071428 1.245 0.80349302 0.10487272 -0.58600396 nan
0.25438288 0.077628575 1.2540001 0.75346261 0.24977545 -0.60819924 nan
0.25677145 0.077628575 1.2540001 0.62711185 0.43244278 -0.64786106 nan
0.26019335 0.077938102 1.2590001 0.43220234 0.68496716 -0.58653319 nan
0.26342574 0.078185715 1.263 nan nan nan nan
0.26583144 0.078185715 1.263 nan nan nan nan
0.26738763 0.077938102 1.2590001 nan nan nan nan
0.11691429 0.07912381 1.24 nan nan nan nan
0.11889143 0.078868575 1.2360001 nan nan nan nan
0.12124572 0.078868575 1.2360001 nan nan nan nan
0.1236 0.078868575 1.2360001 -0.7496146 0 -0.66187459 nan
0.12554666 0.078613341 1.2320001 -0.77846402 0.08343751 -0.62211889 nan
0.12737429 0.078294292 1.2270001 -0.73925132 0.11274289 -0.66392511 nan
0.12928857 0.07803905 1.223 -0.70355058 0.046097912 -0.70914853 nan
0.1316181 0.07803905 1.223 -0.70038956 -0.0071362923 -0.71372515 nan
0.13394763 0.07803905 1.223 -0.666789 0.016212115 -0.74507022 nan
0.13583145 0.077783816 1.2190001 -0.65998948 0.010580366 -0.75120032 nan
0.13815333 0.077783816 1.2190001 -0.65505642 0.038748719 -0.75458574 nan
0.14047524 0.077783816 1.2190001 -0.65048623 0.028472258 -0.75898415 nan
0.14279716 0.077783816 1.2190001 -0.65834546 0.0053246003 -0.75269711 nan
0.14452383 0.077464767 1.2140001 -0.6600948 -0.016112331 -0.75100946 nan
0.14635238 0.077209525 1.21 -0.6702323 -0.015981896 -0.74197924 nan
0.14865716 0.077209525 1.21 -0.66351521 -0.0089730676 -0.74810898 nan
0.15046287 0.076954298 1.2060001 -0.67135429 -0.008919647 -0.74108291 nan
0.15276001 0.076954298 1.2060001 -0.69848824 0.00010717205 -0.71562153 nan
0.15505715 0.076954298 1.2060001 -0.66755909 0.0090491017 -0.74450183 nan
0.15683238 0.076699048 1.202 -0.62331057 0.0094060944 -0.78191781 nan
0.1591219 0.076699048 1.202 -0.57580942 0.0097397231 -0.81752592 nan
0.16074 0.076380007 1.197 -0.53578168 0.002037741 -0.84435409 nan
0.16302 0.076380007 1.197 -0.53088588 -0.0060417443 -0.84742182 nan
0.1653 0.076380007 1.197 -0.52533358 0.0019744742 -0.85089409 nan
0.16757999 0.076380007 1.197 -0.52676046 -0.0061672274 -0.84999138 nan
0.16985999 0.076380007 1.197 -0.55123979 -0.006097266 -0.8343246 nan
0.17214 0.076380007 1.197 -0.55336303 0.010021554 -0.8328799 nan
0.17383714 0.076124765 1.1930001 -0.51518375 5.1566138e-05 -0.85707974 nan
0.17610954 0.076124765 1.1930001 -0.49746218 4.9832011e-05 -0.86748564 nan
0.17778382 0.075869523 1.189 -0.51134974 5.1283307e-05 -0.85937274 nan
0.18004857 0.075869523 1.189 -0.55051887 5.5291097e-05 -0.83482271 nan
0.18170001 0.075614288 1.1850001 -0.53185451 0.016520388 -0.84667456 nan
0.18395716 0.075614288 1.1850001 -0.47074249 0.042220518 -0.88125986 nan
0.1862143 0.075614288 1.1850001 -0.41160128 0.060272858 -0.90936875 nan
0.18847144 0.075614288 1.1850001 -0.28149733 0.088211022 -0.95549887 nan
0.19008479 0.075359054 1.1810001 -0.12418655 0.088892207 -0.98826915 nan
0.19233431 0.075359054 1.1810001 0.017479535 0.087553516 -0.99600643 nan
0.19458382 0.075359054 1.1810001 0.19141145 0.083402216 -0.97795999 nan
0.19750001 0.075614288 1.1850001 0.3804388 0.075642698 -0.92170739 nan
0.19975714 0.075614288 1.1850001 0.51241696 0.051165164 -0.85721117 nan
0.20201428 0.075614288 1.1850001 0.58435541 0.047219601 -0.81012285 nan
0.20496096 0.075869523 1.189 0.63465852 0.026611846 -0.7723344 nan
0.20722571 0.075869523 1.189 0.66759717 0.014106084 -0.74438906 nan
0.21090001 0.076380007 1.197 0.68872154 0.013348254 -0.72490305 nan
0.21407047 0.076699048 1.202 0.71371478 0.0074877497 -0.70039642 nan
0.21636 0.076699048 1.202 0.74267268 0.027744001 -0.66907966 nan
0.21937716 0.076954298 1.2060001 0.76334536 0.036778513 -0.64494282 nan
0.22240953 0.077209525 1.21 0.76640505 0.049048565 -0.64048225 nan
0.22471429 0.077209525 1.21 0.75969678 0.059375722 -0.64756107 nan
0.22776954 0.077464767 1.2140001 0.75385213 0.075306624 -0.65271425 nan
0.23178764 0.07803905 1.223 0.77676678 0.070495315 -0.62583047 nan
0.23411715 0.07803905 1.223 0.80770838 0.072296709 -0.58513278 nan
0.23722002 0.078294292 1.2270001 0.81726182 0.074406043 -0.57144278 nan
0.24053335 0.078613341 1.2320001 0.81949586 0.097372986 -0.56475222 nan
0.24366859 0.078868575 1.2360001 0.81392813 0.084849745 -0.57473606 nan
0.24781427 0.079442859 1.245 0.82777482 0.032115847 -0.56014049 nan
0.25098953 0.079698101 1.2490001 0.83105654 0.048093572 -0.55410475 nan
0.25438288 0.080017149 1.2540001 0.81136161 0.085184418 -0.57830441 nan
0.25779527 0.080336191 1.2590001 0.76265019 0.30252069 -0.57170439 nan
0.26102 0.080591433 1.263 0.57384056 0.59474736 -0.56301212 nan
0.26342574 0.080591433 1.263 nan nan nan nan
0.26583144 0.080591433 1.263 nan nan nan nan
0.26823714 0.080591433 1.263 nan nan nan nan
0.11691429 0.081485711 1.24 nan nan nan nan
0.11889143 0.081222862 1.2360001 nan nan nan nan
0.12124572 0.081222862 1.2360001 nan nan nan nan
0.1236 0.081222862 1.2360001 -0.70260298 -0.00012623647 -0.71158206 nan
0.12554666 0.080960013 1.2320001 -0.7688207 0.1296947 -0.62617409 nan
0.12737429 0.080631435 1.2270001 -0.75658786 0.15629049 -0.63493943 nan
0.12971143 0.080631435 1.2270001 -0.73905772 0.078959294 -0.6689986 nan
0.1316181 0.080368571 1.223 -0.70607722 0.037296828 -0.70715201 nan
0.13394763 0.080368571 1.223 -0.68130648 0.018665047 -0.73176032 nan
0.13627714 0.080368571 1.223 -0.66688055 0.0041368408 -0.74515319 nan
0.13815333 0.080105722 1.2190001 -0.65749359 0.0086200591 -0.75341082 nan
0.14047524 0.080105722 1.2190001 -0.66271251 -0.0018612215 -0.74887156 nan
0.14279716 0.080105722 1.2190001 -0.67748588 -0.024616329 -0.73512375 nan
0.14452383 0.079777151 1.2140001 -0.66917771 -0.032021482 -0.74241215 nan
0.14683619 0.079777151 1.2140001 -0.66621 -0.039370429 -0.74472421 nan
0.14865716 0.079514287 1.21 -0.65949869 -0.032512162 -0.75100231 nan
0.15046287 0.079251431 1.2060001 -0.67178869 -0.032187715 -0.74004322 nan
0.15276001 0.079251431 1.2060001 -0.69413674 -0.031534236 -0.71915215 nan
0.15454286 0.078988574 1.202 -0.66269273 -0.014540433 -0.74875021 nan
0.15683238 0.078988574 1.202 -0.62403125 -0.015041728 -0.78125459 nan
0.1591219 0.078988574 1.202 -0.5821498 -0.015522767 -0.81293333 nan
0.16074 0.078660004 1.197 -0.54873598 -0.031793114 -0.83539099 nan
0.16302 0.078660004 1.197 -0.53145015 -0.032231174 -0.84647614 nan
0.1653 0.078660004 1.197 -0.52613229 -0.032451376 -0.8497833 nan
0.16757999 0.078660004 1.197 -0.53362203 -0.032453153 -0.84510016 nan
0.16985999 0.078660004 1.197 -0.54556692 -0.032279812 -0.83744538 nan
0.17214 0.078660004 1.197 -0.548078 -0.024170132 -0.83607793 nan
0.17442 0.078660004 1.197 -0.51573533 -0.024610175 -0.85639441 nan
0.17610954 0.078397147 1.1930001 -0.49800417 -0.024844214 -0.86681867 nan
0.17778382 0.078134283 1.189 -0.51189631 -0.024706312 -0.85869187 nan
0.18004857 0.078134283 1.189 -0.54479527 -0.02431225 -0.83821654 nan
0.18170001 0.077871434 1.1850001 -0.51272321 0.00016360218 -0.85855395 nan
0.18395716 0.077871434 1.1850001 -0.44981819 0.025674032 -0.89275104 nan
0.1862143 0.077871434 1.1850001 -0.38876149 0.052085489 -0.91986501 nan
0.18847144 0.077871434 1.1850001 -0.26477236 0.079675883 -0.96101373 nan
0.19072859 0.077871434 1.1850001 -0.12431423 0.080113426 -0.98900342 nan
0.19298573 0.077871434 1.1850001 0.017461929 0.087539203 -0.99600804 nan
0.19524287 0.077871434 1.1850001 0.19113043 0.091608122 -0.97728044 nan
0.19750001 0.077871434 1.1850001 0.37246597 0.083504803 -0.92428136 nan
0.19975714 0.077871434 1.1850001 0.50636882 0.058210496 -0.86035001 nan
0.20201428 0.077871434 1.1850001 0.57664526 0.05390054 -0.81521469 nan
0.20496096 0.078134283 1.189 0.62486351 0.038700264 -0.77977425 nan
0.20792288 0.078397147 1.1930001 0.66440493 0.02521445 -0.74694735 nan
0.21090001 0.078660004 1.197 0.68582147 0.024023378 -0.72737318 nan
0.21407047 0.078988574 1.202 0.71593046 0.012510528 -0.6980595 nan
0.21708001 0.079251431 1.2060001 0.74804217 0.032031864 -0.66287768 nan
0.21937716 0.079251431 1.2060001 0.76649463 0.035531063 -0.64126712 nan
0.22240953 0.079514287 1.21 0.76861751 0.035096761 -0.63874507 nan
0.22471429 0.079514287 1.21 0.76307237 0.035543345 -0.64533502 nan
0.22870764 0.080105722 1.2190001 0.75785887 0.046963822 -0.65072602 nan
0.23178764 0.080368571 1.223 0.78115875 0.043856703 -0.62279016 nan
0.23411715 0.080368571 1.223 0.81029141 0.05315613 -0.58361143 nan
0.23722002 0.080631435 1.2270001 0.82038414 0.075834036 -0.56676191 nan
0.24053335 0.080960013 1.2320001 0.81750703 0.076051205 -0.57087517 nan
0.24366859 0.081222862 1.2360001 0.82206011 0.07980416 -0.56378055 nan
0.24781427 0.081814282 1.245 0.83145767 0.083040886 -0.54934722 nan
0.25098953 0.082077146 1.2490001 0.84265631 0.04321564 -0.53671479 nan
0.25438288 0.082405716 1.2540001 0.83677679 0.077286743 -0.54206216 nan
0.25779527 0.082734287 1.2590001 0.83191687 0.096645467 -0.5464192 nan
0.26205334 0.083325714 1.268 0.75815839 0.3600648 -0.54364431 nan
0.26530287 0.083588578 1.2720001 nan nan nan nan
0.26772574 0.083588578 1.2720001 nan nan nan nan
0.27014858 0.083588578 1.2720001 nan nan nan nan
0.11691429 0.08384762 1.24 nan nan nan nan
0.11927619 0.08384762 1.24 nan nan nan nan
0.12124572 0.083577149 1.2360001 nan nan nan nan
0.12320001 0.08330667 1.2320001 -0.71944135 0.14003503 -0.68028986 nan
0.12554666 0.08330667 1.2320001 -0.74059826 0.17076696 -0.64988679 nan
0.12789334 0.08330667 1.2320001 -0.75147229 0.18528467 -0.63321322 nan
0.12971143 0.082968585 1.2270001 -0.75802165 0.13058542 -0.63902318 nan
0.13204859 0.082968585 1.2270001 -0.70097196 0.078181788 -0.70889062 nan
0.13394763 0.082698092 1.223 -0.68621743 0.042662408 -0.72614431 nan
0.13627714 0.082698092 1.223 -0.67375028 -0.0065267663 -0.73893028 nan
0.13815333 0.082427621 1.2190001 -0.66394746 -0.030176232 -0.74717009 nan
0.14047524 0.082427621 1.2190001 -0.67315793 -0.038696274 -0.73848557 nan
0.14221144 0.082089528 1.2140001 -0.67776734 -0.052760445 -0.73338103 nan
0.14452383 0.082089528 1.2140001 -0.66934836 -0.039159406 -0.741916 nan
0.14683619 0.082089528 1.2140001 -0.67069173 -0.046358451 -0.74028611 nan
0.14914858 0.082089528 1.2140001 -0.65959632 -0.039745808 -0.75056845 nan
0.15046287 0.081548579 1.2060001 -0.67179787 -0.03032548 -0.7401135 nan
0.15276001 0.081548579 1.2060001 -0.68889791 -0.021096939 -0.72455126 nan
0.15505715 0.081548579 1.2060001 -0.6569941 -0.012722488 -0.75378835 nan
0.15683238 0.081278101 1.202 -0.62399942 -0.013099913 -0.78131503 nan
0.1591219 0.081278101 1.202 -0.58773625 -0.01347384 -0.80894041 nan
0.16141143 0.081278101 1.202 -0.54880178 -0.029853653 -0.83541924 nan
0.16302 0.080940001 1.197 -0.53123617 -0.014147522 -0.84710568 nan
0.1653 0.080940001 1.197 -0.52619982 -0.030498663 -0.84981382 nan
0.16757999 0.080940001 1.197 -0.52720684 -0.022442838 -0.84944057 nan
0.16985999 0.080940001 1.197 -0.54544181 -0.022252545 -0.83785325 nan
0.17156476 0.080669522 1.1930001 -0.54822302 -0.032272749 -0.83570927 nan
0.17383714 0.080669522 1.1930001 -0.51587617 -0.032858912 -0.85603273 nan
0.17610954 0.080669522 1.1930001 -0.49814379 -0.033170633 -0.86645973 nan
0.17778382 0.080399044 1.189 -0.51203579 -0.032987151 -0.85833049 nan
0.18004857 0.080399044 1.189 -0.53210688 -0.02443878 -0.84632444 nan
0.18231334 0.080399044 1.189 -0.49241605 0.00012402095 -0.87035996 nan
0.18395716 0.080128573 1.1850001 -0.42787033 0.017324802 -0.90367407 nan
0.1862143 0.080128573 1.1850001 -0.36499333 0.052386012 -0.92953515 nan
0.18847144 0.080128573 1.1850001 -0.25645468 0.071003325 -0.96394479 nan
0.19072859 0.080128573 1.1850001 -0.1153781 0.080113068 -0.99008572 nan
0.19298573 0.080128573 1.1850001 0.034750994 0.095848538 -0.99478912 nan
0.19524287 0.080128573 1.1850001 0.19825843 0.10765522 -0.97421968 nan
0.19750001 0.080128573 1.1850001 0.36347765 0.10639954 -0.92550695 nan
0.19975714 0.080128573 1.1850001 0.49808785 0.095682718 -0.86183137 nan
0.20201428 0.080128573 1.1850001 0.57455945 0.08186055 -0.81435883 nan
0.20496096 0.080399044 1.189 0.618532 0.082832709 -0.78138143 nan
0.20792288 0.080669522 1.1930001 0.6590324 0.066763639 -0.74914545 nan
0.21090001 0.080940001 1.197 0.68083334 0.063966811 -0.72963983 nan
0.21318001 0.080940001 1.197 0.71623182 0.049694654 -0.69609082 nan
0.21636 0.081278101 1.202 0.74949992 0.061377294 -0.65915298 nan
0.21937716 0.081548579 1.2060001 0.76329756 0.059889004 -0.64326519 nan
0.22167429 0.081548579 1.2060001 0.76585209 0.054871753 -0.64067125 nan
0.22471429 0.08181905 1.21 0.7638182 0.050697152 -0.64343733 nan
0.22870764 0.082427621 1.2190001 0.75934261 0.051176157 -0.64867544 nan
0.23102954 0.082427621 1.2190001 0.77959615 0.048214059 -0.62442392 nan
0.23411715 0.082698092 1.223 0.81003112 0.039883927 -0.58502895 nan
0.23722002 0.082968585 1.2270001 0.8225953 0.047669165 -0.56662565 nan
0.24053335 0.08330667 1.2320001 0.81445801 0.038038481 -0.57897431 nan
0.24366859 0.083577149 1.2360001 0.82005477 0.082375243 -0.56632543 nan
0.24602287 0.083577149 1.2360001 0.82995564 0.068203367 -0.55364424 nan
0.25199431 0.08479429 1.2540001 0.83685315 0.10513823 -0.53723621 nan
0.25438288 0.08479429 1.2540001 0.80379313 0.00035594942 -0.59490877 nan
0.25779527 0.08513239 1.2590001 0.83742529 -0.097430617 -0.53779751 nan
0.26205334 0.085740954 1.268 nan nan nan nan
0.26446858 0.085740954 1.268 nan nan nan nan
0.26772574 0.086011432 1.2720001 nan nan nan nan
0.27014858 0.086011432 1.2720001 nan nan nan nan
0.11691429 0.086209528 1.24 nan nan nan nan
0.11927619 0.086209528 1.24 nan nan nan nan
0.1216381 0.086209528 1.24 nan nan nan nan
0.1236 0.085931435 1.2360001 -0.74540228 0.13551971 -0.65269428 nan
0.12554666 0.085653335 1.2320001 -0.74090415 0.13487844 -0.65792769 nan
0.12789334 0.085653335 1.2320001 -0.75020117 0.11722115 -0.65073609 nan
0.12971143 0.085305721 1.2270001 -0.76193905 0.097563885 -0.64025789 nan
0.13204859 0.085305721 1.2270001 -0.69488001 0.058519516 -0.71674073 nan
0.13350953 0.084749527 1.2190001 -0.67931503 0.024222778 -0.7334469 nan
0.13583145 0.084749527 1.2190001 -0.66826862 -0.00015855866 -0.74392009 nan
0.13815333 0.084749527 1.2190001 -0.6634202 -0.0052871746 -0.74822837 nan
0.14047524 0.084749527 1.2190001 -0.67685652 -0.0068532745 -0.73608303 nan
0.14279716 0.084749527 1.2190001 -0.67723322 -0.006861161 -0.73573643 nan
0.14452383 0.084401913 1.2140001 -0.66421854 0.00012074975 -0.74753845 nan
0.14683619 0.084401913 1.2140001 -0.6655246 0.00012119536 -0.74637592 nan
0.14865716 0.084123813 1.21 -0.64790714 0.014563771 -0.76158011 nan
0.15046287 0.08384572 1.2060001 -0.65941751 0.014439356 -0.75163829 nan
0.15276001 0.08384572 1.2060001 -0.68260288 0.014147298 -0.73065251 nan
0.15505715 0.08384572 1.2060001 -0.65606636 0.014527149 -0.75456339 nan
0.15683238 0.083567619 1.202 -0.62305552 0.014956377 -0.78203464 nan
0.1591219 0.083567619 1.202 -0.59263945 0.0076695466 -0.80543131 nan
0.16141143 0.083567619 1.202 -0.54862851 -0.016009279 -0.83591294 nan
0.16302 0.083220005 1.197 -0.53137273 -0.016180856 -0.84698355 nan
0.1653 0.083220005 1.197 -0.53260285 -0.032440048 -0.84574336 nan
0.16757999 0.083220005 1.197 -0.52748591 -0.040726364 -0.84858704 nan
0.16985999 0.083220005 1.197 -0.55339879 -0.048277777 -0.83151609 nan
0.17156476 0.082941905 1.1930001 -0.55600399 -0.048263565 -0.82977718 nan
0.17383714 0.082941905 1.1930001 -0.51605248 -0.049349464 -0.85513419 nan
0.17551905 0.082663804 1.189 -0.4983193 -0.049816217 -0.86556119 nan
0.17778382 0.082663804 1.189 -0.5055058 -0.049700487 -0.86139059 nan
0.18004857 0.082663804 1.189 -0.51935333 -0.041117571 -0.85356987 nan
0.18170001 0.082385719 1.1850001 -0.47910476 -0.025157429 -0.87739712 nan
0.18395716 0.082385719 1.1850001 -0.40571952 -0.008472546 -0.91395837 nan
0.1862143 0.082385719 1.1850001 -0.3416276 0.026492486 -0.93946195 nan
0.18847144 0.082385719 1.1850001 -0.23964037 0.053497665 -0.96938664 nan
0.19072859 0.082385719 1.1850001 -0.097510986 0.080028951 -0.99201161 nan
0.19298573 0.082385719 1.1850001 0.051928844 0.095484734 -0.99407548 nan
0.19524287 0.082385719 1.1850001 0.21311565 0.11501256 -0.97023392 nan
0.19750001 0.082385719 1.1850001 0.37653759 0.11277775 -0.91951108 nan
0.19975714 0.082385719 1.1850001 0.49713346 0.11882942 -0.85949862 nan
0.2026962 0.082663804 1.189 0.57255584 0.10338208 -0.81332153 nan
0.20496096 0.082663804 1.189 0.6159603 0.10891222 -0.78021216 nan
0.20792288 0.082941905 1.1930001 0.65406728 0.091820128 -0.75084293 nan
0.21090001 0.083220005 1.197 0.67623585 0.088070042 -0.73140186 nan
0.21407047 0.083567619 1.202 0.71483368 0.071866117 -0.69559187 nan
0.21636 0.083567619 1.202 0.75121713 0.066860802 -0.65666002 nan
0.21937716 0.08384572 1.2060001 0.76340646 0.061221056 -0.64301056 nan
0.22240953 0.084123813 1.21 0.76456028 0.052086346 -0.64244419 nan
0.22471429 0.084123813 1.21 0.76073879 0.048104826 -0.64727306 nan
0.22870764 0.084749527 1.2190001 0.75841254 0.037290789 -0.65070719 nan
0.23178764 0.085027628 1.223 0.78903705 0.021048013 -0.613985 nan
0.23488288 0.085305721 1.2270001 0.79503882 0.039644122 -0.60526162 nan
0.23722002 0.085305721 1.2270001 0.8257252 0.033426549 -0.56308126 nan
0.24053335 0.085653335 1.2320001 0.81738275 0.031789843 -0.57521719 nan
0.24366859 0.085931435 1.2360001 0.8355391 0.012962379 -0.54927802 nan
0.24861048 0.086835235 1.2490001 0.84248453 0.080806591 -0.53262568 nan
0.25098953 0.086835235 1.2490001 0.82400328 0.10811035 -0.55617517 nan
0.25438288 0.087182865 1.2540001 0.78878856 0 -0.61466461 nan
0.25677145 0.087182865 1.2540001 nan nan nan nan
0.25916001 0.087182865 1.2540001 nan nan nan nan
0.26259142 0.087530479 1.2590001 nan nan nan nan
0.11691429 0.088571429 1.24 nan nan nan nan
0.11927619 0.088571429 1.24 nan nan nan nan
0.1216381 0.088571429 1.24 nan nan nan nan
0.1236 0.088285714 1.2360001 -0.72246861 -0.072197378 -0.68762392 nan
0.12554666 0.088000007 1.2320001 -0.69665861 0.052164529 -0.71550375 nan
0.12789334 0.088000007 1.2320001 -0.74821067 -0.050770119 -0.66151577 nan
0.12971143 0.087642863 1.2270001 -0.75237894 0.0045455555 -0.65871483 nan
0.13204859 0.087642863 1.2270001 -0.69946522 0.017121544 -0.71446157 nan
0.13394763 0.087357149 1.223 -0.68901592 0.021211552 -0.72443569 nan
0.13583145 0.087071441 1.2190001 -0.67452449 0.0062223617 -0.73822623 nan
0.13815333 0.087071441 1.2190001 -0.65922046 0.01591453 -0.75178128 nan
0.14047524 0.087071441 1.2190001 -0.67246276 0.021169148 -0.73982817 nan
0.14221144 0.086714298 1.2140001 -0.67183608 0.021325216 -0.7403928 nan
0.14452383 0.086714298 1.2140001 -0.66331428 0.021524969 -0.74803126 nan
0.14683619 0.086714298 1.2140001 -0.66020495 0.021623157 -0.75077415 nan
0.14865716 0.086428568 1.21 -0.64842844 0.029067941 -0.76072049 nan
0.15096191 0.086428568 1.21 -0.67069465 0.010574935 -0.74165821 nan
0.15276001 0.08614286 1.2060001 -0.68829101 0.001662157 -0.72543275 nan
0.15505715 0.08614286 1.2060001 -0.65621525 0.010770272 -0.75449687 nan
0.15683238 0.085857145 1.202 -0.62820846 0.011053229 -0.77796656 nan
0.1591219 0.085857145 1.202 -0.60887057 0.0036750995 -0.79326111 nan
0.16141143 0.085857145 1.202 -0.56651145 -0.019776095 -0.82381654 nan
0.16302 0.085500002 1.197 -0.54402632 -0.028024657 -0.83859998 nan
0.1653 0.085500002 1.197 -0.54516858 -0.036111504 -0.83754832 nan
0.16757999 0.085500002 1.197 -0.54025531 -0.052465033 -0.83986408 nan
0.16985999 0.085500002 1.197 -0.55199629 -0.068328492 -0.83104229 nan
0.17156476 0.085214287 1.1930001 -0.54844171 -0.048511755 -0.8347804 nan
0.17383714 0.085214287 1.1930001 -0.5160923 -0.049386896 -0.85510796 nan
0.17551905 0.084928572 1.189 -0.49836043 -0.049852178 -0.8655355 nan
0.17778382 0.084928572 1.189 -0.50554657 -0.049737085 -0.86136454 nan
0.18004857 0.084928572 1.189 -0.51287633 -0.049622405 -0.85702711 nan
0.18170001 0.084642865 1.1850001 -0.4651745 -0.042295117 -0.88420802 nan
0.18395716 0.084642865 1.1850001 -0.38271508 -0.034748152 -0.92321271 nan
0.1862143 0.084642865 1.1850001 -0.30930281 -0.0087133171 -0.95092368 nan
0.18847144 0.084642865 1.1850001 -0.2052092 0.026938772 -0.9783473 nan
0.19072859 0.084642865 1.1850001 -0.071030959 0.053434029 -0.99604189 nan
0.19298573 0.084642865 1.1850001 0.077729389 0.069293618 -0.99456352 nan
0.19524287 0.084642865 1.1850001 0.22866397 0.098196268 -0.96854031 nan
0.19750001 0.084642865 1.1850001 0.38531175 0.090048634 -0.91838235 nan
0.19975714 0.084642865 1.1850001 0.5044468 0.098172747 -0.85784358 nan
0.2026962 0.084928572 1.189 0.57721788 0.090569682 -0.81155205 nan
0.20496096 0.084928572 1.189 0.61695504 0.097253442 -0.78096622 nan
0.20792288 0.085214287 1.1930001 0.65170211 0.086671755 -0.75350672 nan
0.21090001 0.085500002 1.197 0.67413342 0.083108753 -0.73391896 nan
0.21407047 0.085857145 1.202 0.71114445 0.067460313 -0.69980186 nan
0.21636 0.085857145 1.202 0.74841207 0.061803043 -0.66034824 nan
0.21937716 0.08614286 1.2060001 0.75977165 0.051078681 -0.64818054 nan
0.22240953 0.086428568 1.21 0.76293033 0.032954432 -0.64564025 nan
0.22471429 0.086428568 1.21 0.76011407 0.028808687 -0.64915073 nan
0.22870764 0.087071441 1.2190001 0.75761837 0.017794382 -0.65245515 nan
0.23178764 0.087357149 1.223 0.79021639 9.6011077e-05 -0.61282796 nan
0.23488288 0.087642863 1.2270001 0.79679674 0.013771745 -0.60409045 nan
0.23818669 0.088000007 1.2320001 0.82564074 -0.014251437 -0.56401616 nan
0.24131429 0.088285714 1.2360001 0.81611323 -0.010043639 -0.57780474 nan
0.24366859 0.088285714 1.2360001 0.83206147 0.01323299 -0.55452555 nan
0.24861048 0.089214288 1.2490001 0.84116542 0.03916559 -0.53935772 nan
0.25199431 0.089571431 1.2540001 0.77357173 -0.066557094 -0.6302039 nan
0.25438288 0.089571431 1.2540001 0.6510458 -0.16272111 -0.74139136 nan
0.25779527 0.089928575 1.2590001 nan nan nan nan
0.26019335 0.089928575 1.2590001 nan nan nan nan
0.26259142 0.089928575 1.2590001 nan nan nan nan
0.11653715 0.090640001 1.2360001 nan nan nan nan
0.11889143 0.090640001 1.2360001 nan nan nan nan
0.12124572 0.090640001 1.2360001 nan nan nan nan
0.1236 0.090640001 1.2360001 -0.6612587 -0.29378346 -0.69023776 nan
0.12554666 0.090346672 1.2320001 -0.69785058 -0.13553047 -0.70330364 nan
0.12789334 0.090346672 1.2320001 -0.75910789 -0.1059109 -0.64229131 nan
0.13024001 0.090346672 1.2320001 -0.75343472 -0.035023253 -0.65658933 nan
0.13204859 0.089980014 1.2270001 -0.69327372 -0.041924514 -0.71945387 nan
0.13394763 0.089686669 1.223 -0.6910252 0.013244993 -0.7227093 nan
0.13583145 0.08939334 1.2190001 -0.6698612 -0.01106367 -0.74240386 nan
0.13815333 0.08939334 1.2190001 -0.65490264 0.012321759 -0.75561279 nan
0.14047524 0.08939334 1.2190001 -0.67256176 0.017566418 -0.73983246 nan
0.14221144 0.089026667 1.2140001 -0.67681313 0.003607441 -0.73614603 nan
0.14452383 0.089026667 1.2140001 -0.66408664 0.0036540653 -0.74764669 nan
0.14683619 0.089026667 1.2140001 -0.66124022 -0.0035618851 -0.75016576 nan
0.14914858 0.089026667 1.2140001 -0.65564609 -0.003585451 -0.75505984 nan
0.15096191 0.088733338 1.21 -0.67718476 -0.021470087 -0.73549974 nan
0.15276001 0.088440008 1.2060001 -0.6837588 -0.021371769 -0.72939503 nan
0.15505715 0.088440008 1.2060001 -0.65099424 -0.0038350071 -0.75907296 nan
0.15683238 0.088146664 1.202 -0.62876171 -0.0039032125 -0.77758825 nan
0.1591219 0.088146664 1.202 -0.61457294 -0.011497508 -0.78877622 nan
0.16074 0.087779999 1.197 -0.57244831 -0.027456066 -0.81948102 nan
0.16302 0.087779999 1.197 -0.54417634 -0.036011573 -0.83819765 nan
0.1653 0.087779999 1.197 -0.55133408 -0.035903338 -0.83351165 nan
0.16757999 0.087779999 1.197 -0.55260736 -0.04406083 -0.83227628 nan
0.16985999 0.087779999 1.197 -0.55062103 -0.060329065 -0.83257246 nan
0.17156476 0.087486669 1.1930001 -0.54076612 -0.048742209 -0.83975959 nan
0.17383714 0.087486669 1.1930001 -0.51613218 -0.049410451 -0.85508257 nan
0.17551905 0.087193333 1.189 -0.49840149 -0.049874496 -0.86551052 nan
0.17778382 0.087193333 1.189 -0.50559402 -0.04975976 -0.8613354 nan
0.18004857 0.087193333 1.189 -0.51296544 -0.057977818 -0.85644907 nan
0.18170001 0.086900003 1.1850001 -0.46531838 -0.059273709 -0.88315654 nan
0.18395716 0.086900003 1.1850001 -0.37493145 -0.052389145 -0.92557102 nan
0.1862143 0.086900003 1.1850001 -0.28430003 -0.04445646 -0.95770407 nan
0.18847144 0.086900003 1.1850001 -0.17929348 -0.02693045 -0.98342699 nan
0.19072859 0.086900003 1.1850001 -0.05346689 -0.008934061 -0.99852967 nan
0.19298573 0.086900003 1.1850001 0.10357841 0.017303959 -0.99447078 nan
0.19524287 0.086900003 1.1850001 0.24531117 0.040935606 -0.96857971 nan
0.19750001 0.086900003 1.1850001 0.39495534 0.044986784 -0.91759819 nan
0.19975714 0.086900003 1.1850001 0.51286364 0.057421245 -0.85654753 nan
0.2026962 0.087193333 1.189 0.58315665 0.059216488 -0.81019861 nan
0.20496096 0.087193333 1.189 0.62251157 0.067616485 -0.77968413 nan
0.20792288 0.087486669 1.1930001 0.65347302 0.064375579 -0.75420737 nan
0.21090001 0.087779999 1.197 0.67334211 0.062020801 -0.73672503 nan
0.21407047 0.088146664 1.202 0.7118358 0.057530921 -0.69998574 nan
0.21636 0.088146664 1.202 0.74868542 0.057283867 -0.66044587 nan
0.21937716 0.088440008 1.2060001 0.75580603 0.042825326 -0.65339369 nan
0.22240953 0.088733338 1.21 0.75875974 0.02902207 -0.65072376 nan
0.22471429 0.088733338 1.21 0.75747353 0.015857743 -0.65267324 nan
0.22870764 0.08939334 1.2190001 0.75631273 0.0046384702 -0.65419382 nan
0.23178764 0.089686669 1.223 0.78936845 -0.021042397 -0.61355901 nan
0.23411715 0.089686669 1.223 0.79797304 -0.025827583 -0.60213953 nan
0.23722002 0.089980014 1.2270001 0.82614857 -0.016334282 -0.56321555 nan
0.24053335 0.090346672 1.2320001 0.81775278 0.012019535 -0.5754441 nan
0.24366859 0.090640001 1.2360001 0.82559538 -0.013482056 -0.56410146 nan
0.24861048 0.091593333 1.2490001 0.83274621 0.00010482698 -0.55365491 nan
0.25098953 0.091593333 1.2490001 0.75337511 -0.25426438 -0.60644501 nan
0.25336859 0.091593333 1.2490001 nan nan nan nan
0.25677145 0.091960005 1.2540001 nan nan nan nan
0.25916001 0.091960005 1.2540001 nan nan nan nan
0.11418286 0.092994288 1.2360001 nan nan nan nan
0.11691429 0.093295239 1.24 nan nan nan nan
0.11927619 0.093295239 1.24 nan nan nan nan
0.12124572 0.092994288 1.2360001 -0.56176132 -0.00022687713 -0.82729936 nan
0.12320001 0.092693344 1.2320001 -0.68296087 -0.22132786 -0.69611669 nan
0.12554666 0.092693344 1.2320001 -0.69683063 -0.21502902 -0.6842438 nan
0.12789334 0.092693344 1.2320001 -0.73298866 -0.1350144 -0.6667074 nan
0.12971143 0.092317149 1.2270001 -0.7618767 -0.056192122 -0.64528006 nan
0.1316181 0.09201619 1.223 -0.69333428 -0.045282118 -0.71919197 nan
0.13394763 0.09201619 1.223 -0.69403565 -0.032083299 -0.71922541 nan
0.13627714 0.09201619 1.223 -0.67688662 -0.036817644 -0.73516595 nan
0.13815333 0.091715246 1.2190001 -0.65199703 -0.0019798644 -0.75821894 nan
0.14047524 0.091715246 1.2190001 -0.678855 -0.012249842 -0.73417014 nan
0.14221144 0.091339052 1.2140001 -0.68168324 -0.019189192 -0.73139572 nan
0.14452383 0.091339052 1.2140001 -0.66923225 -0.019454824 -0.74279857 nan
0.14683619 0.091339052 1.2140001 -0.6663391 -0.026760157 -0.74516851 nan
0.14865716 0.0910381 1.21 -0.66183031 -0.01975242 -0.74939346 nan
0.15046287 0.090737149 1.2060001 -0.68284601 -0.037267923 -0.72961116 nan
0.15276001 0.090737149 1.2060001 -0.67863053 -0.028619494 -0.733922 nan
0.15454286 0.09043619 1.202 -0.64536756 -0.011208437 -0.76378995 nan
0.15683238 0.09043619 1.202 -0.63393623 -0.011327394 -0.77330238 nan
0.1591219 0.09043619 1.202 -0.62499094 -0.018918695 -0.78040272 nan
0.16074 0.090060003 1.197 -0.58385479 -0.027255174 -0.81140047 nan
0.16302 0.090060003 1.197 -0.55042452 -0.043912921 -0.83372927 nan
0.1653 0.090060003 1.197 -0.55159426 -0.051969815 -0.83249199 nan
0.16757999 0.090060003 1.197 -0.55888218 -0.059918247 -0.82707953 nan
0.16929239 0.089759052 1.1930001 -0.55534309 -0.068165086 -0.82882297 nan
0.17156476 0.089759052 1.1930001 -0.53936452 -0.065005347 -0.83955956 nan
0.1732543 0.089458093 1.189 -0.51622015 -0.065845907 -0.853921 nan
0.17551905 0.089458093 1.189 -0.49849272 -0.066465601 -0.86434215 nan
0.17778382 0.089458093 1.189 -0.5123961 -0.066101082 -0.85620141 nan
0.17944287 0.089157149 1.1850001 -0.5195784 -0.082519904 -0.85042858 nan
0.18170001 0.089157149 1.1850001 -0.45805764 -0.09337917 -0.88400424 nan
0.18395716 0.089157149 1.1850001 -0.36700937 -0.087539516 -0.92608905 nan
0.1862143 0.089157149 1.1850001 -0.28443003 -0.089084759 -0.95454884 nan
0.18847144 0.089157149 1.1850001 -0.17057103 -0.080994375 -0.9820109 nan
0.19072859 0.089157149 1.1850001 -0.026669366 -0.071418002 -0.99708986 nan
0.19298573 0.089157149 1.1850001 0.12900126 -0.034522928 -0.99104333 nan
0.19524287 0.089157149 1.1850001 0.26112232 -0.016465561 -0.96516526 nan
0.19750001 0.089157149 1.1850001 0.40956974 -0.0002205199 -0.91227877 nan
0.19975714 0.089157149 1.1850001 0.52487516 0.016467638 -0.85101986 nan
0.2026962 0.089458093 1.189 0.59180075 0.033786599 -0.80537587 nan
0.20496096 0.089458093 1.189 0.6271919 0.043796375 -0.77763242 nan
