# .PCD v0.7 - Point Cloud Data file format
VERSION 0.7
FIELDS x y z rgba
SIZE 4 4 4 4
TYPE F F F U
COUNT 1 1 1 1
WIDTH 1128
HEIGHT 1
VIEWPOINT 0 0 0 1 0 0 0
POINTS 1128
DATA ascii
-0.40078571 -0.13359524 0.90500003 8290176
-0.39906192 -0.13359524 0.90500003 8159104
-0.39865524 -0.13403811 0.90800005 8093057
-0.3978 -0.13433333 0.91000003 8093315
-0.3960667 -0.13433333 0.91000003 8158849
-0.39563334 -0.1347762 0.91300005 8092800
-0.39475712 -0.13507143 0.91500002 8092547
-0.39301428 -0.13507143 0.91500002 8092550
-0.39212668 -0.13536668 0.91700006 8092546
-0.39038002 -0.13536668 0.91700006 8092543
-0.38990474 -0.13580953 0.92000002 8092798
-0.38899621 -0.13610476 0.92200005 8224381
-0.38724002 -0.13610476 0.92200005 8420733
-0.38673812 -0.13654763 0.92500007 8289404
-0.38497621 -0.13654763 0.92500007 8158331
-0.38404289 -0.13684286 0.92700005 8158330
-0.38227716 -0.13684286 0.92700005 8158331
-0.38051143 -0.13684286 0.92700005 8158332
-0.37997144 -0.13728572 0.93000007 8158075
-0.37901336 -0.13758096 0.93200004 8092537
-0.37845242 -0.13802381 0.93500006 8092288
-0.37667146 -0.13802381 0.93500006 8157832
-0.3756924 -0.13831905 0.93700004 8225422
-0.37390766 -0.13831905 0.93700004 8421525
-0.37331429 -0.13876191 0.94000006 8683665
-0.37350002 -0.13950001 0.94500005 8814733
-0.37170002 -0.13950001 0.94500005 9012367
-0.53630954 -0.13128857 0.90100002 9607050
-0.53459334 -0.13128857 0.90100002 9607599
-0.53287715 -0.13128857 0.90100002 9542822
-0.53116095 -0.13128857 0.90100002 9210270
-0.52944475 -0.13128857 0.90100002 8880791
-0.52597141 -0.13085143 0.89800006 8750480
-0.524261 -0.13085143 0.89800006 8619659
-0.52255052 -0.13085143 0.89800006 8619399
-0.52257997 -0.13128857 0.90100002 8619399
-0.51912957 -0.13085143 0.89800006 8751240
-0.5174191 -0.13085143 0.89800006 8882823
-0.51456004 -0.13056 0.89600003 8948615
-0.51170856 -0.13026859 0.89400005 9079945
-0.51114672 -0.13056 0.89600003 9145740
-0.51057714 -0.13085143 0.89800006 9277323
-0.51056671 -0.13128857 0.90100002 9343114
-0.50715619 -0.13085143 0.89800006 9343370
-0.50544572 -0.13085143 0.89800006 9408907
-0.5037353 -0.13085143 0.89800006 9474700
-0.50370193 -0.13128857 0.90100002 9474189
-0.5003143 -0.13085143 0.89800006 9473930
-0.49749336 -0.13056 0.89600003 9276552
-0.49302003 -0.12983142 0.89100003 9079173
-0.49022001 -0.12954001 0.88900006 8816259
-0.48742762 -0.12924857 0.88700002 8619138
-0.4857381 -0.12924857 0.88700002 8487810
-0.48404858 -0.12924857 0.88700002 8356741
-0.48072764 -0.12881143 0.88400006 8422280
-0.47904384 -0.12881143 0.88400006 8553353
-0.47736001 -0.12881143 0.88400006 8619403
-0.47567621 -0.12881143 0.88400006 8751244
-0.47399241 -0.12881143 0.88400006 8882573
-0.47017145 -0.12822859 0.88000005 9013906
-0.46849528 -0.12822859 0.88000005 8948376
-0.46681908 -0.12822859 0.88000005 8817556
-0.46514288 -0.12822859 0.88000005 8752016
-0.46241331 -0.12793714 0.87800002 8752016
-0.46074095 -0.12793714 0.87800002 8752017
-0.45906857 -0.12793714 0.87800002 8817550
-0.45739621 -0.12793714 0.87800002 8817292
-0.45572382 -0.12793714 0.87800002 8751503
-0.45508572 -0.12822859 0.88000005 8817042
-0.45340952 -0.12822859 0.88000005 8816524
-0.45173335 -0.12822859 0.88000005 8816774
-0.45005718 -0.12822859 0.88000005 8751499
-0.44838098 -0.12822859 0.88000005 8751248
-0.4467048 -0.12822859 0.88000005 8751248
-0.4450286 -0.12822859 0.88000005 8751248
-0.4433524 -0.12822859 0.88000005 8751759
-0.4406724 -0.12793714 0.87800002 8750990
-0.44000003 -0.12822859 0.88000005 8751246
-0.43832383 -0.12822859 0.88000005 8750990
-0.43664765 -0.12822859 0.88000005 8750734
-0.43596002 -0.12852 0.88200003 8684943
-0.43428001 -0.12852 0.88200003 8684941
-0.43358099 -0.12881143 0.88400006 8554124
-0.43189716 -0.12881143 0.88400006 8488843
-0.43021336 -0.12881143 0.88400006 8488587
-0.42852953 -0.12881143 0.88400006 8553868
-0.4282943 -0.12924857 0.88700002 8553613
-0.42756671 -0.12954001 0.88900006 8618891
-0.42587334 -0.12954001 0.88900006 8618890
-0.42418003 -0.12954001 0.88900006 8619145
-0.42248669 -0.12954001 0.88900006 8553609
-0.42079335 -0.12954001 0.88900006 8488072
-0.42004287 -0.12983142 0.89100003 8422024
-0.41834575 -0.12983142 0.89100003 8356487
-0.41805145 -0.13026859 0.89400005 8421766
-0.41728002 -0.13056 0.89600003 8487303
-0.41557336 -0.13056 0.89600003 8421769
-0.4138667 -0.13056 0.89600003 8356489
-0.41216001 -0.13056 0.89600003 8355977
-0.41136953 -0.13085143 0.89800006 8290442
-0.41102761 -0.13128857 0.90100002 8355979
-0.40931144 -0.13128857 0.90100002 8421514
-0.40759525 -0.13128857 0.90100002 8421001
-0.40678 -0.13158001 0.90300006 8355208
-0.40506002 -0.13158001 0.90300006 8289928
-0.40423334 -0.13187143 0.90500003 8224644
-0.40250954 -0.13187143 0.90500003 8224641
-0.40078571 -0.13187143 0.90500003 8290433
-0.39906192 -0.13187143 0.90500003 8289922
-0.39865524 -0.13230859 0.90800005 8289666
-0.3978 -0.13260001 0.91000003 8224130
-0.39737239 -0.13303715 0.91300005 8158848
-0.39563334 -0.13303715 0.91300005 8093311
-0.39475712 -0.13332859 0.91500002 8093315
-0.39301428 -0.13332859 0.91500002 8158600
-0.39212668 -0.13362001 0.91700006 8158595
-0.39038002 -0.13362001 0.91700006 8093055
-0.38990474 -0.13405715 0.92000002 8093054
-0.38899621 -0.13434859 0.92200005 8158590
-0.38724002 -0.13434859 0.92200005 8224381
-0.38548383 -0.13434859 0.92200005 8158589
-0.38497621 -0.13478573 0.92500007 8093308
-0.38404289 -0.13507715 0.92700005 8093308
-0.38227716 -0.13507715 0.92700005 8093309
-0.38051143 -0.13507715 0.92700005 8092798
-0.37874573 -0.13507715 0.92700005 8158589
-0.37820002 -0.13551429 0.93000007 8158589
-0.37845242 -0.13624287 0.93500006 8158590
-0.37667146 -0.13624287 0.93500006 8224640
-0.37489051 -0.13624287 0.93500006 8290690
-0.37390766 -0.13653429 0.93700004 8487044
-0.37331429 -0.13697143 0.94000006 8749189
-0.37350002 -0.13770001 0.94500005 8880775
-0.37288001 -0.13813715 0.94800007 9012364
-0.37107429 -0.13813715 0.94800007 8947857
-0.36270002 -0.13770001 0.94500005 8092567
-0.36090001 -0.13770001 0.94500005 7892627
-0.53922004 -0.12986001 0.90300006 8885893
-0.53630954 -0.12957239 0.90100002 10196628
-0.53459334 -0.12957239 0.90100002 9672356
-0.53406006 -0.12986001 0.90300006 9148063
-0.53116095 -0.12957239 0.90100002 8947611
-0.52944475 -0.12957239 0.90100002 8750227
-0.52772856 -0.12957239 0.90100002 8684940
-0.524261 -0.12914096 0.89800006 8619144
-0.52255052 -0.12914096 0.89800006 8619140
-0.52257997 -0.12957239 0.90100002 8619397
-0.51912957 -0.12914096 0.89800006 8751239
-0.5174191 -0.12914096 0.89800006 8948103
-0.51341146 -0.12856571 0.89400005 9014407
-0.51170856 -0.12856571 0.89400005 9145736
-0.51228768 -0.12914096 0.89800006 9212041
-0.51057714 -0.12914096 0.89800006 9343115
-0.51056671 -0.12957239 0.90100002 9408909
-0.50715619 -0.12914096 0.89800006 9474701
-0.50544572 -0.12914096 0.89800006 9540494
-0.5037353 -0.12914096 0.89800006 9671825
-0.50370193 -0.12957239 0.90100002 9672085
-0.50198573 -0.12957239 0.90100002 9737360
-0.49860385 -0.12914096 0.89800006 9474955
-0.49467999 -0.12856571 0.89400005 9276810
-0.49132288 -0.12813428 0.89100003 8882312
-0.48852673 -0.12784667 0.88900006 8554116
-0.48683333 -0.12784667 0.88900006 8488319
-0.48404858 -0.12755904 0.88700002 8488066
-0.48235905 -0.12755904 0.88700002 8553349
-0.47904384 -0.12712763 0.88400006 8618632
-0.47736001 -0.12712763 0.88400006 8685194
-0.47567621 -0.12712763 0.88400006 8750988
-0.47292 -0.12684001 0.88200003 8817294
-0.47017145 -0.12655239 0.88000005 8882834
-0.46849528 -0.12655239 0.88000005 8817558
-0.46681908 -0.12655239 0.88000005 8817556
-0.46408573 -0.12626477 0.87800002 8817810
-0.46241331 -0.12626477 0.87800002 8883346
-0.46074095 -0.12626477 0.87800002 8817810
-0.45906857 -0.12626477 0.87800002 8817809
-0.45739621 -0.12626477 0.87800002 8752272
-0.45572382 -0.12626477 0.87800002 8751761
-0.45508572 -0.12655239 0.88000005 8817043
-0.45340952 -0.12655239 0.88000005 8882319
-0.45173335 -0.12655239 0.88000005 8816779
-0.45005718 -0.12655239 0.88000005 8817037
-0.44838098 -0.12655239 0.88000005 8817294
-0.4467048 -0.12655239 0.88000005 8817036
-0.4450286 -0.12655239 0.88000005 8817035
-0.44234475 -0.12626477 0.87800002 8882316
-0.4406724 -0.12626477 0.87800002 8816526
-0.43900001 -0.12626477 0.87800002 8816525
-0.43732762 -0.12626477 0.87800002 8750988
-0.43664765 -0.12655239 0.88000005 8750733
-0.43596002 -0.12684001 0.88200003 8750991
-0.4352648 -0.12712763 0.88400006 8750734
-0.43358099 -0.12712763 0.88400006 8554382
-0.43189716 -0.12712763 0.88400006 8357517
-0.43021336 -0.12712763 0.88400006 8423052
-0.42998379 -0.12755904 0.88700002 8553869
-0.4282943 -0.12755904 0.88700002 8619406
-0.42660475 -0.12755904 0.88700002 8684684
-0.42587334 -0.12784667 0.88900006 8619659
-0.42418003 -0.12784667 0.88900006 8553867
-0.42248669 -0.12784667 0.88900006 8488587
-0.42079335 -0.12784667 0.88900006 8487815
-0.42004287 -0.12813428 0.89100003 8422019
-0.41975433 -0.12856571 0.89400005 8356485
-0.41805145 -0.12856571 0.89400005 8487560
-0.41728002 -0.12885334 0.89600003 8618376
-0.41557336 -0.12885334 0.89600003 8487304
-0.4138667 -0.12885334 0.89600003 8421767
-0.41216001 -0.12885334 0.89600003 8356231
-0.41136953 -0.12914096 0.89800006 8356231
-0.40965906 -0.12914096 0.89800006 8356488
-0.40931144 -0.12957239 0.90100002 8355978
-0.40759525 -0.12957239 0.90100002 8355724
-0.40587905 -0.12957239 0.90100002 8355721
-0.40416285 -0.12957239 0.90100002 8355974
-0.40334001 -0.12986001 0.90300006 8355716
-0.40162 -0.12986001 0.90300006 8290179
-0.40078571 -0.13014762 0.90500003 8290180
-0.39906192 -0.13014762 0.90500003 8420997
-0.39865524 -0.13057905 0.90800005 8551554
-0.39911145 -0.13129809 0.91300005 8354944
-0.39737239 -0.13129809 0.91300005 8158590
-0.39650002 -0.13158572 0.91500002 8159101
-0.39475712 -0.13158572 0.91500002 8158848
-0.39387333 -0.13187334 0.91700006 8224387
-0.39212668 -0.13187334 0.91700006 8289664
-0.39165714 -0.13230476 0.92000002 8158334
-0.38990474 -0.13230476 0.92000002 8092797
-0.38899621 -0.13259238 0.92200005 8093053
-0.38724002 -0.13259238 0.92200005 8092796
-0.38548383 -0.13259238 0.92200005 8027259
-0.38497621 -0.13302383 0.92500007 8027259
-0.38321432 -0.13302383 0.92500007 8027515
-0.38227716 -0.13331144 0.92700005 8092796
-0.38051143 -0.13331144 0.92700005 8092797
-0.37874573 -0.13331144 0.92700005 8158333
-0.37820002 -0.13374287 0.93000007 8158333
-0.37845242 -0.13446191 0.93500006 8223615
-0.37667146 -0.13446191 0.93500006 8290432
-0.3756924 -0.13474952 0.93700004 8421761
-0.37390766 -0.13474952 0.93700004 8618627
-0.37331429 -0.13518095 0.94000006 8814979
-0.3723143 -0.13546857 0.94200003 8882052
-0.37170002 -0.13590001 0.94500005 9013128
-0.36990002 -0.13590001 0.94500005 8947852
-0.36810002 -0.13590001 0.94500005 8947849
-0.36746287 -0.13633144 0.94800007 9144711
-0.36450002 -0.13590001 0.94500005 9341579
-0.36270002 -0.13590001 0.94500005 9342608
-0.36204574 -0.13633144 0.94800007 9342098
-0.35910001 -0.13590001 0.94500005 9014164
-0.35730001 -0.13590001 0.94500005 8683926
-0.53802574 -0.12785619 0.90100002 9018533
-0.53630954 -0.12785619 0.90100002 9804959
-0.53459334 -0.12785619 0.90100002 9408921
-0.53287715 -0.12785619 0.90100002 9081240
-0.53116095 -0.12785619 0.90100002 8881816
-0.52944475 -0.12785619 0.90100002 8750224
-0.52772856 -0.12785619 0.90100002 8619144
-0.52601236 -0.12785619 0.90100002 8553604
-0.52429616 -0.12785619 0.90100002 8553601
-0.52257997 -0.12785619 0.90100002 8619651
-0.52086383 -0.12785619 0.90100002 8685446
-0.5174191 -0.12743048 0.89800006 8816775
-0.51456004 -0.12714666 0.89600003 8948872
-0.51170856 -0.12686287 0.89400005 9080711
-0.51114672 -0.12714666 0.89600003 9212039
-0.51228291 -0.12785619 0.90100002 9278091
-0.51056671 -0.12785619 0.90100002 9409168
-0.50715619 -0.12743048 0.89800006 9540496
-0.50544572 -0.12743048 0.89800006 9606545
-0.50541812 -0.12785619 0.90100002 9738647
-0.50370193 -0.12785619 0.90100002 9869981
-0.50198573 -0.12785619 0.90100002 10001558
-0.49860385 -0.12743048 0.89800006 9671823
-0.49578664 -0.12714666 0.89600003 9410190
-0.49297717 -0.12686287 0.89400005 8684174
-0.48962569 -0.12643714 0.89100003 7962501
-0.48792857 -0.12643714 0.89100003 8094333
-0.48514003 -0.12615335 0.88900006 8160640
-0.48235905 -0.12586953 0.88700002 8356739
-0.48066953 -0.12586953 0.88700002 8487558
-0.47736001 -0.12544382 0.88400006 8619658
-0.47567621 -0.12544382 0.88400006 8750988
-0.47399241 -0.12544382 0.88400006 8816783
-0.47017145 -0.1248762 0.88000005 8816786
-0.46849528 -0.1248762 0.88000005 8816789
-0.46575812 -0.12459239 0.87800002 8817044
-0.46408573 -0.12459239 0.87800002 8883092
-0.46241331 -0.12459239 0.87800002 8948883
-0.46074095 -0.12459239 0.87800002 8883091
-0.45906857 -0.12459239 0.87800002 8882835
-0.45739621 -0.12459239 0.87800002 8817300
-0.45676193 -0.1248762 0.88000005 8752020
-0.45508572 -0.1248762 0.88000005 8817044
-0.45340952 -0.1248762 0.88000005 8882322
-0.45173335 -0.1248762 0.88000005 8816785
-0.45005718 -0.1248762 0.88000005 8817295
-0.44838098 -0.1248762 0.88000005 8751757
-0.4467048 -0.1248762 0.88000005 8751753
-0.44401714 -0.12459239 0.87800002 8817030
-0.44234475 -0.12459239 0.87800002 8882314
-0.4406724 -0.12459239 0.87800002 8882062
-0.43900001 -0.12459239 0.87800002 8816780
-0.43832383 -0.1248762 0.88000005 8750986
-0.43664765 -0.1248762 0.88000005 8619661
-0.43596002 -0.12515999 0.88200003 8685200
-0.4352648 -0.12544382 0.88400006 8750480
-0.43358099 -0.12544382 0.88400006 8619408
-0.43189716 -0.12544382 0.88400006 8488591
-0.43167335 -0.12586953 0.88700002 8554126
-0.42998379 -0.12586953 0.88700002 8619662
-0.4282943 -0.12586953 0.88700002 8619151
-0.42756671 -0.12615335 0.88900006 8619149
-0.42587334 -0.12615335 0.88900006 8619148
-0.42418003 -0.12615335 0.88900006 8553612
-0.42248669 -0.12615335 0.88900006 8487821
-0.42079335 -0.12615335 0.88900006 8487558
-0.42004287 -0.12643714 0.89100003 8422015
-0.41975433 -0.12686287 0.89400005 8422020
-0.41805145 -0.12686287 0.89400005 8487562
-0.41728002 -0.12714666 0.89600003 8552840
-0.41557336 -0.12714666 0.89600003 8421767
-0.4138667 -0.12714666 0.89600003 8355974
-0.41216001 -0.12714666 0.89600003 8356229
-0.41136953 -0.12743048 0.89800006 8356485
-0.40965906 -0.12743048 0.89800006 8421766
-0.40931144 -0.12785619 0.90100002 8487050
-0.40759525 -0.12785619 0.90100002 8421263
-0.40587905 -0.12785619 0.90100002 8355722
-0.40506002 -0.12814002 0.90300006 8289925
-0.40334001 -0.12814002 0.90300006 8224389
-0.40162 -0.12814002 0.90300006 8093317
-0.40078571 -0.12842381 0.90500003 8028038
-0.40038478 -0.12884954 0.90800005 8158600
-0.39953333 -0.12913333 0.91000003 8289411
-0.39911145 -0.12955905 0.91300005 8158335
-0.39737239 -0.12955905 0.91300005 8027517
-0.39650002 -0.12984286 0.91500002 8027259
-0.39562002 -0.13012667 0.91700006 8027004
-0.39387333 -0.13012667 0.91700006 8026750
-0.39212668 -0.13012667 0.91700006 8092030
-0.39165714 -0.13055238 0.92000002 8026494
-0.38990474 -0.13055238 0.92000002 8026749
-0.38899621 -0.13083619 0.92200005 8026748
-0.38724002 -0.13083619 0.92200005 7961467
-0.38548383 -0.13083619 0.92200005 7961210
-0.38497621 -0.13126191 0.92500007 8026746
-0.38321432 -0.13126191 0.92500007 8026746
-0.38227716 -0.13154571 0.92700005 8026747
-0.38051143 -0.13154571 0.92700005 8026492
-0.37997144 -0.13197143 0.93000007 8026493
-0.37820002 -0.13197143 0.93000007 8026494
-0.37845242 -0.13268095 0.93500006 8092287
-0.37667146 -0.13268095 0.93500006 8158337
-0.3756924 -0.13296476 0.93700004 8224385
-0.37390766 -0.13296476 0.93700004 8355970
-0.37331429 -0.13339049 0.94000006 8553090
-0.37152383 -0.13339049 0.94000006 8684674
-0.37052003 -0.13367428 0.94200003 8817028
-0.36990002 -0.13410001 0.94500005 8882311
-0.3692686 -0.13452573 0.94800007 8947846
-0.36746287 -0.13452573 0.94800007 9144709
-0.36565718 -0.13452573 0.94800007 9342087
-0.36385146 -0.13452573 0.94800007 9342601
-0.36204574 -0.13452573 0.94800007 9408913
-0.35910001 -0.13410001 0.94500005 9278105
-0.35730001 -0.13410001 0.94500005 9147289
-0.35550001 -0.13410001 0.94500005 9013657
-0.53623432 -0.12572001 0.89800006 9151402
-0.53452384 -0.12572001 0.89800006 9411490
-0.53459334 -0.12614 0.90100002 9211290
-0.53287715 -0.12614 0.90100002 9013655
-0.53116095 -0.12614 0.90100002 8881812
-0.52944475 -0.12614 0.90100002 8750477
-0.52772856 -0.12614 0.90100002 8619399
-0.524261 -0.12572001 0.89800006 8553605
-0.52255052 -0.12572001 0.89800006 8553603
-0.52083999 -0.12572001 0.89800006 8619398
-0.51912957 -0.12572001 0.89800006 8685449
-0.5162667 -0.12544 0.89600003 8751496
-0.51456004 -0.12544 0.89600003 8883591
-0.51170856 -0.12516001 0.89400005 9080200
-0.51114672 -0.12544 0.89600003 9146761
-0.51341999 -0.12642001 0.90300006 9277836
-0.51170003 -0.12642001 0.90300006 9409167
-0.50885051 -0.12614 0.90100002 9606287
-0.50713432 -0.12614 0.90100002 9738384
-0.50541812 -0.12614 0.90100002 9869716
-0.50482005 -0.12642001 0.90300006 10067353
-0.50309998 -0.12642001 0.90300006 10263703
-0.49860385 -0.12572001 0.89800006 9868949
-0.49578664 -0.12544 0.89600003 9540491
-0.49407998 -0.12544 0.89600003 8486017
-0.4912743 -0.12516001 0.89400005 7436159
-0.48792857 -0.12474 0.89100003 7631742
-0.48514003 -0.12446001 0.88900006 7895937
-0.48235905 -0.12418 0.88700002 8160388
-0.47904384 -0.12376001 0.88400006 8422790
-0.47736001 -0.12376001 0.88400006 8619657
-0.47460002 -0.12348001 0.88200003 8816525
-0.47184765 -0.1232 0.88000005 8817042
-0.47017145 -0.1232 0.88000005 8817044
-0.46849528 -0.1232 0.88000005 8817047
-0.46681908 -0.1232 0.88000005 8882837
-0.46408573 -0.12292001 0.87800002 8948628
-0.4634667 -0.1232 0.88000005 9079699
-0.4617905 -0.1232 0.88000005 9013907
-0.4601143 -0.1232 0.88000005 8948372
-0.4584381 -0.1232 0.88000005 8882837
-0.45676193 -0.1232 0.88000005 8817301
-0.45508572 -0.1232 0.88000005 8882838
-0.45444 -0.12348001 0.88200003 8947860
-0.45276001 -0.12348001 0.88200003 8882321
-0.45107999 -0.12348001 0.88200003 8817040
-0.44940001 -0.12348001 0.88200003 8751504
-0.44772002 -0.12348001 0.88200003 8751501
-0.4450286 -0.1232 0.88000005 8817034
-0.4433524 -0.1232 0.88000005 8947853
-0.44167623 -0.1232 0.88000005 8882064
-0.44100001 -0.12348001 0.88200003 8882321
-0.43832383 -0.1232 0.88000005 8685714
-0.43764001 -0.12348001 0.88200003 8554385
-0.43596002 -0.12348001 0.88200003 8619664
-0.4352648 -0.12376001 0.88400006 8750480
-0.43358099 -0.12376001 0.88400006 8684944
-0.43189716 -0.12376001 0.88400006 8684943
-0.43021336 -0.12376001 0.88400006 8684943
-0.42998379 -0.12418 0.88700002 8685198
-0.4282943 -0.12418 0.88700002 8619150
-0.42660475 -0.12418 0.88700002 8619149
-0.42587334 -0.12446001 0.88900006 8618893
-0.42418003 -0.12446001 0.88900006 8618894
-0.42248669 -0.12446001 0.88900006 8553360
-0.42079335 -0.12446001 0.88900006 8487818
-0.42004287 -0.12474 0.89100003 8487812
-0.41975433 -0.12516001 0.89400005 8553094
-0.41805145 -0.12516001 0.89400005 8487561
-0.41728002 -0.12544 0.89600003 8487560
-0.41557336 -0.12544 0.89600003 8422023
-0.4138667 -0.12544 0.89600003 8356486
-0.41216001 -0.12544 0.89600003 8356485
-0.41136953 -0.12572001 0.89800006 8356230
-0.40965906 -0.12572001 0.89800006 8487047
-0.40931144 -0.12614 0.90100002 8618120
-0.40759525 -0.12614 0.90100002 8487049
-0.40678 -0.12642001 0.90300006 8355460
-0.40506002 -0.12642001 0.90300006 8224383
-0.40334001 -0.12642001 0.90300006 8092800
-0.40162 -0.12642001 0.90300006 7961474
-0.40078571 -0.1267 0.90500003 7830400
-0.40038478 -0.12712002 0.90800005 7961470
-0.39953333 -0.1274 0.91000003 8092541
-0.39911145 -0.12782001 0.91300005 8027005
-0.39737239 -0.12782001 0.91300005 7961212
-0.39650002 -0.12810001 0.91500002 7961212
-0.39562002 -0.12838002 0.91700006 7961212
-0.39387333 -0.12838002 0.91700006 7895421
-0.39212668 -0.12838002 0.91700006 7895422
-0.39165714 -0.1288 0.92000002 7961215
-0.38990474 -0.1288 0.92000002 8026748
-0.38899621 -0.12908001 0.92200005 7960954
-0.38724002 -0.12908001 0.92200005 7895417
-0.38548383 -0.12908001 0.92200005 7961208
-0.38497621 -0.1295 0.92500007 8026489
-0.38321432 -0.1295 0.92500007 7960954
-0.38227716 -0.12978001 0.92700005 7960698
-0.38051143 -0.12978001 0.92700005 7960699
-0.37997144 -0.1302 0.93000007 7960699
-0.37901336 -0.13048001 0.93200004 7960956
-0.37845242 -0.13090001 0.93500006 7960957
-0.37667146 -0.13090001 0.93500006 7961214
-0.3756924 -0.13118 0.93700004 8027262
-0.37390766 -0.13118 0.93700004 8158846
-0.37331429 -0.13160001 0.94000006 8355711
-0.37152383 -0.13160001 0.94000006 8487296
-0.37052003 -0.13188 0.94200003 8684419
-0.36990002 -0.1323 0.94500005 8816261
-0.37004763 -0.133 0.95000005 8947590
-0.36823812 -0.133 0.95000005 9144966
-0.36835715 -0.13370001 0.95500004 9341832
-0.36653811 -0.13370001 0.95500004 9408138
-0.36395526 -0.13342001 0.95300007 9474448
-0.36214003 -0.13342001 0.95300007 9540501
-0.35919049 -0.133 0.95000005 9606292
-0.35437146 -0.13188 0.94200003 9868947
-0.35182858 -0.13160001 0.94000006 10128788
-0.35003811 -0.13160001 0.94000006 8750486
-0.34824765 -0.13160001 0.94000006 7438997
-0.53623432 -0.12400953 0.89800006 9149871
-0.53452384 -0.12400953 0.89800006 9214885
-0.53459334 -0.12442381 0.90100002 9014428
-0.53287715 -0.12442381 0.90100002 8816278
-0.53116095 -0.12442381 0.90100002 8750736
-0.52944475 -0.12442381 0.90100002 8619659
-0.52772856 -0.12442381 0.90100002 8619399
-0.52601236 -0.12442381 0.90100002 8553862
-0.52429616 -0.12442381 0.90100002 8553606
-0.52257997 -0.12442381 0.90100002 8619401
-0.52086383 -0.12442381 0.90100002 8619916
-0.5174191 -0.12400953 0.89800006 8686217
-0.51570857 -0.12400953 0.89800006 8817542
-0.51399815 -0.12400953 0.89800006 9014409
-0.51514 -0.12470001 0.90300006 9080204
-0.51341999 -0.12470001 0.90300006 9211789
-0.51170003 -0.12470001 0.90300006 9343887
-0.50998002 -0.12470001 0.90300006 9409935
-0.50826001 -0.12470001 0.90300006 9542031
-0.50654 -0.12470001 0.90300006 9738898
-0.50482005 -0.12470001 0.90300006 9608085
-0.50309998 -0.12470001 0.90300006 9477528
-0.50026953 -0.12442381 0.90100002 8951451
-0.49689338 -0.12400953 0.89800006 8491143
-0.49518287 -0.12400953 0.89800006 7828596
-0.49621999 -0.12470001 0.90300006 7237497
-0.48792857 -0.12304286 0.89100003 7302527
-0.48623145 -0.12304286 0.89100003 7433090
-0.48344669 -0.12276668 0.88900006 7764102
-0.48066953 -0.12249048 0.88700002 8160647
-0.47736001 -0.1220762 0.88400006 8423048
-0.47567621 -0.1220762 0.88400006 8751246
-0.47292 -0.12180001 0.88200003 8751509
-0.47017145 -0.12152381 0.88000005 8817047
-0.46849528 -0.12152381 0.88000005 8817050
-0.46681908 -0.12152381 0.88000005 8883351
-0.46408573 -0.12124762 0.87800002 8948628
-0.46241331 -0.12124762 0.87800002 9014164
-0.4617905 -0.12152381 0.88000005 8948628
-0.4601143 -0.12152381 0.88000005 8948885
-0.4584381 -0.12152381 0.88000005 8817558
-0.45676193 -0.12152381 0.88000005 8752023
-0.45508572 -0.12152381 0.88000005 8882841
-0.45444 -0.12180001 0.88200003 8948117
-0.45276001 -0.12180001 0.88200003 8948114
-0.45107999 -0.12180001 0.88200003 8882578
-0.44940001 -0.12180001 0.88200003 8882579
-0.4467048 -0.12152381 0.88000005 8816785
-0.4450286 -0.12152381 0.88000005 8882319
-0.4433524 -0.12152381 0.88000005 8947856
-0.44167623 -0.12152381 0.88000005 8882066
-0.44000003 -0.12152381 0.88000005 8816790
-0.43832383 -0.12152381 0.88000005 8816794
-0.43664765 -0.12152381 0.88000005 8751509
-0.43596002 -0.12180001 0.88200003 8750737
-0.4352648 -0.1220762 0.88400006 8750992
-0.43358099 -0.1220762 0.88400006 8685200
-0.43189716 -0.1220762 0.88400006 8684944
-0.43167335 -0.12249048 0.88700002 8684944
-0.42998379 -0.12249048 0.88700002 8685199
-0.4282943 -0.12249048 0.88700002 8684942
-0.42756671 -0.12276668 0.88900006 8619406
-0.42587334 -0.12276668 0.88900006 8619406
-0.42418003 -0.12276668 0.88900006 8619408
-0.42248669 -0.12276668 0.88900006 8619155
-0.42079335 -0.12276668 0.88900006 8619150
-0.42004287 -0.12304286 0.89100003 8553353
-0.41834575 -0.12304286 0.89100003 8487560
-0.41805145 -0.12345715 0.89400005 8487560
-0.41634858 -0.12345715 0.89400005 8487816
-0.41464573 -0.12345715 0.89400005 8422024
-0.4138667 -0.12373333 0.89600003 8356486
-0.41308004 -0.12400953 0.89800006 8290949
-0.41136953 -0.12400953 0.89800006 8290438
-0.40965906 -0.12400953 0.89800006 8290184
-0.40931144 -0.12442381 0.90100002 8355461
-0.40759525 -0.12442381 0.90100002 8289923
-0.40678 -0.12470001 0.90300006 8158846
-0.40506002 -0.12470001 0.90300006 8158585
-0.40423334 -0.1249762 0.90500003 8092540
-0.40250954 -0.1249762 0.90500003 8027008
-0.40078571 -0.1249762 0.90500003 7961466
-0.40038478 -0.12539048 0.90800005 7961460
-0.39865524 -0.12539048 0.90800005 8026999
-0.3978 -0.12566666 0.91000003 8027003
-0.39737239 -0.12608096 0.91300005 8027004
-0.39650002 -0.12635714 0.91500002 7961213
-0.39562002 -0.12663335 0.91700006 7895677
-0.39387333 -0.12663335 0.91700006 7830141
-0.39212668 -0.12663335 0.91700006 7830142
-0.39038002 -0.12663335 0.91700006 7895680
-0.38863337 -0.12663335 0.91700006 7961212
-0.38815236 -0.12704763 0.92000002 7960953
-0.38724002 -0.12732381 0.92200005 7895416
-0.38548383 -0.12732381 0.92200005 7895159
-0.38372764 -0.12732381 0.92200005 7960696
-0.38321432 -0.1277381 0.92500007 7960698
-0.38227716 -0.1280143 0.92700005 7960442
-0.38051143 -0.1280143 0.92700005 7960698
-0.37997144 -0.12842858 0.93000007 7960186
-0.37901336 -0.12870476 0.93200004 7894907
-0.37845242 -0.12911905 0.93500006 7895163
-0.37667146 -0.12911905 0.93500006 7895164
-0.3756924 -0.12939525 0.93700004 7895419
-0.37390766 -0.12939525 0.93700004 8027003
-0.37331429 -0.12980953 0.94000006 8158589
-0.37152383 -0.12980953 0.94000006 8290175
-0.37052003 -0.13008572 0.94200003 8487297
-0.37107429 -0.13091429 0.94800007 8684676
-0.37316382 -0.13229524 0.95800006 8881798
-0.37133908 -0.13229524 0.95800006 9013384
-0.36951432 -0.13229524 0.95800006 9210762
-0.36653811 -0.13188095 0.95500004 9276812
-0.36471906 -0.13188095 0.95500004 9408911
-0.36290002 -0.13188095 0.95500004 9540242
-0.36108094 -0.13188095 0.95500004 9672079
-0.3592619 -0.13188095 0.95500004 9869453
-0.35744286 -0.13188095 0.95500004 10132620
-0.35674098 -0.13229524 0.95800006 9607052
-0.35491621 -0.13229524 0.95800006 9147272
-0.53922004 -0.12298001 0.90300006 9213859
-0.53630954 -0.12270762 0.90100002 9081759
-0.53459334 -0.12270762 0.90100002 8883098
-0.53287715 -0.12270762 0.90100002 8685204
-0.53116095 -0.12270762 0.90100002 8619661
-0.52944475 -0.12270762 0.90100002 8553866
-0.52772856 -0.12270762 0.90100002 8553606
-0.52601236 -0.12270762 0.90100002 8619142
-0.52429616 -0.12270762 0.90100002 8619142
-0.52257997 -0.12270762 0.90100002 8619144
-0.52086383 -0.12270762 0.90100002 8619915
-0.51914763 -0.12270762 0.90100002 8685704
-0.51570857 -0.12229905 0.89800006 8817542
-0.51399815 -0.12229905 0.89800006 8948616
-0.51514 -0.12298001 0.90300006 9079946
-0.51455718 -0.12325238 0.90500003 9211529
-0.51170003 -0.12298001 0.90300006 9213064
-0.50998002 -0.12298001 0.90300006 9279114
-0.50826001 -0.12298001 0.90300006 9411212
-0.50766194 -0.12325238 0.90500003 9606280
-0.50593811 -0.12325238 0.90500003 9145733
-0.50309998 -0.12298001 0.90300006 8684930
-0.50138003 -0.12298001 0.90300006 8093312
-0.49855334 -0.12270762 0.90100002 7501176
-0.49794003 -0.12298001 0.90300006 7236720
-0.49621999 -0.12298001 0.90300006 7039857
-0.49066669 -0.12202667 0.89600003 6974067
-0.48623145 -0.12134571 0.89100003 6973556
-0.48344669 -0.12107334 0.88900006 7431796
-0.48066953 -0.12080096 0.88700002 7895168
-0.47898 -0.12080096 0.88700002 8293004
-0.47567621 -0.12039239 0.88400006 8685967
-0.47399241 -0.12039239 0.88400006 8751506
-0.47123998 -0.12012 0.88200003 8817045
-0.46849528 -0.11984763 0.88000005 8882841
-0.46681908 -0.11984763 0.88000005 8948374
-0.46408573 -0.11957524 0.87800002 8948628
-0.4634667 -0.11984763 0.88000005 9014164
-0.4617905 -0.11984763 0.88000005 8948885
-0.4601143 -0.11984763 0.88000005 8948885
-0.4584381 -0.11984763 0.88000005 8818069
-0.45676193 -0.11984763 0.88000005 8751765
-0.45508572 -0.11984763 0.88000005 8882838
-0.45444 -0.12012 0.88200003 9013652
-0.45276001 -0.12012 0.88200003 9013650
-0.45107999 -0.12012 0.88200003 9013652
-0.44940001 -0.12012 0.88200003 8948118
-0.44772002 -0.12012 0.88200003 8948116
-0.44604 -0.12012 0.88200003 8948114
-0.44435999 -0.12012 0.88200003 8947858
-0.44167623 -0.11984763 0.88000005 8882066
-0.44100001 -0.12012 0.88200003 8816788
-0.43932 -0.12012 0.88200003 8882582
-0.43764001 -0.12012 0.88200003 9013651
-0.43596002 -0.12012 0.88200003 8882063
-0.4352648 -0.12039239 0.88400006 8750990
-0.43358099 -0.12039239 0.88400006 8750989
-0.43189716 -0.12039239 0.88400006 8750733
-0.43021336 -0.12039239 0.88400006 8750732
-0.42852953 -0.12039239 0.88400006 8750732
-0.4282943 -0.12080096 0.88700002 8685196
-0.42756671 -0.12107334 0.88900006 8684940
-0.42587334 -0.12107334 0.88900006 8619404
-0.42418003 -0.12107334 0.88900006 8619405
-0.42248669 -0.12107334 0.88900006 8684943
-0.42079335 -0.12107334 0.88900006 8750220
-0.42004287 -0.12134571 0.89100003 8553353
-0.41834575 -0.12134571 0.89100003 8422282
-0.41805145 -0.1217543 0.89400005 8422283
-0.41634858 -0.1217543 0.89400005 8487560
-0.41464573 -0.1217543 0.89400005 8422022
-0.4138667 -0.12202667 0.89600003 8356484
-0.41216001 -0.12202667 0.89600003 8290947
-0.41136953 -0.12229905 0.89800006 8224644
-0.40965906 -0.12229905 0.89800006 8158853
-0.40794861 -0.12229905 0.89800006 8158595
-0.40759525 -0.12270762 0.90100002 8093058
-0.40678 -0.12298001 0.90300006 8027775
-0.40506002 -0.12298001 0.90300006 8092796
-0.40423334 -0.12325238 0.90500003 8158334
-0.40250954 -0.12325238 0.90500003 8092800
-0.40078571 -0.12325238 0.90500003 8092797
-0.40038478 -0.12366096 0.90800005 8027514
-0.39865524 -0.12366096 0.90800005 8027515
-0.3978 -0.12393334 0.91000003 8027517
-0.39737239 -0.12434191 0.91300005 8092540
-0.39650002 -0.12461428 0.91500002 7961468
-0.39562002 -0.12488668 0.91700006 7895675
-0.39387333 -0.12488668 0.91700006 7830137
-0.39212668 -0.12488668 0.91700006 7764604
-0.39038002 -0.12488668 0.91700006 7830143
-0.38863337 -0.12488668 0.91700006 7960957
-0.38815236 -0.12529524 0.92000002 7960955
-0.38724002 -0.12556763 0.92200005 7960698
-0.38548383 -0.12556763 0.92200005 7895161
-0.38372764 -0.12556763 0.92200005 7895162
-0.38321432 -0.1259762 0.92500007 7895163
-0.38227716 -0.12624857 0.92700005 7960443
-0.38051143 -0.12624857 0.92700005 7960698
-0.37997144 -0.12665714 0.93000007 7960186
-0.37901336 -0.12692952 0.93200004 7894651
-0.37845242 -0.1273381 0.93500006 7829370
-0.37667146 -0.1273381 0.93500006 7764089
-0.3756924 -0.12761049 0.93700004 7764090
-0.37510478 -0.12801906 0.94000006 7829883
-0.37331429 -0.12801906 0.94000006 7961469
-0.3723143 -0.12829144 0.94200003 8158846
-0.37288001 -0.12910858 0.94800007 8355712
-0.37185714 -0.12938096 0.95000005 8553346
-0.37316382 -0.13047048 0.95800006 8815748
-0.37133908 -0.13047048 0.95800006 8947590
-0.36951432 -0.13047048 0.95800006 9079175
-0.36653811 -0.13006191 0.95500004 9211272
-0.36471906 -0.13006191 0.95500004 9408395
-0.36290002 -0.13006191 0.95500004 9605518
-0.36221525 -0.13047048 0.95800006 9803406
-0.36039051 -0.13047048 0.95800006 9935757
-0.35856572 -0.13047048 0.95800006 10132370
-0.35674098 -0.13047048 0.95800006 10526614
-0.35788003 -0.13156 0.96600002 10919058
-0.35604 -0.13156 0.96600002 10328717
-0.53922004 -0.12126 0.90300006 9147032
-0.53630954 -0.12099143 0.90100002 9015192
-0.53459334 -0.12099143 0.90100002 8817305
-0.53287715 -0.12099143 0.90100002 8685202
-0.53116095 -0.12099143 0.90100002 8553867
-0.52944475 -0.12099143 0.90100002 8487560
-0.52772856 -0.12099143 0.90100002 8487558
-0.52601236 -0.12099143 0.90100002 8553350
-0.52429616 -0.12099143 0.90100002 8553094
-0.52257997 -0.12099143 0.90100002 8553096
-0.52086383 -0.12099143 0.90100002 8619146
-0.51914763 -0.12099143 0.90100002 8685192
-0.51743144 -0.12099143 0.90100002 8751239
-0.51571524 -0.12099143 0.90100002 8882823
-0.51514 -0.12126 0.90300006 8948616
-0.51455718 -0.12152857 0.90500003 9014661
-0.51283336 -0.12152857 0.90500003 8949890
-0.50998002 -0.12126 0.90300006 8951686
-0.50826001 -0.12126 0.90300006 8622986
-0.50654 -0.12126 0.90300006 8228735
-0.50593811 -0.12152857 0.90500003 7897461
-0.50309998 -0.12126 0.90300006 7566445
-0.50138003 -0.12126 0.90300006 7302246
-0.49855334 -0.12099143 0.90100002 7103593
-0.49904284 -0.12152857 0.90500003 6906988
-0.49731904 -0.12152857 0.90500003 6710378
-0.48957148 -0.12005144 0.89400005 6775656
-0.48786858 -0.12005144 0.89400005 6906725
-0.48344669 -0.11938 0.88900006 7300195
-0.48066953 -0.11911143 0.88700002 7761017
-0.47898 -0.11911143 0.88700002 8160400
-0.47567621 -0.11870858 0.88400006 8621199
-0.47399241 -0.11870858 0.88400006 8751503
-0.47230861 -0.11870858 0.88400006 8882835
-0.46849528 -0.11817144 0.88000005 8882840
-0.46681908 -0.11817144 0.88000005 8948374
-0.46408573 -0.11790286 0.87800002 8948628
-0.4634667 -0.11817144 0.88000005 9014421
-0.4617905 -0.11817144 0.88000005 8948886
-0.4601143 -0.11817144 0.88000005 8949141
-0.4584381 -0.11817144 0.88000005 8883349
-0.4578 -0.11844 0.88200003 8817300
-0.45612001 -0.11844 0.88200003 8882835
-0.45444 -0.11844 0.88200003 9014163
-0.45276001 -0.11844 0.88200003 8948371
-0.45107999 -0.11844 0.88200003 8948374
-0.44940001 -0.11844 0.88200003 8882586
-0.44772002 -0.11844 0.88200003 8882584
-0.44604 -0.11844 0.88200003 8882582
-0.44435999 -0.11844 0.88200003 8816788
-0.44268003 -0.11844 0.88200003 8816786
-0.44100001 -0.11844 0.88200003 8816786
-0.43932 -0.11844 0.88200003 8817043
-0.43764001 -0.11844 0.88200003 8882576
-0.4369486 -0.11870858 0.88400006 8751246
-0.4352648 -0.11870858 0.88400006 8685708
-0.43358099 -0.11870858 0.88400006 8685451
-0.43189716 -0.11870858 0.88400006 8750986
-0.43167335 -0.11911143 0.88700002 8750985
-0.42998379 -0.11911143 0.88700002 8685450
-0.4282943 -0.11911143 0.88700002 8685195
-0.42756671 -0.11938 0.88900006 8619659
-0.42587334 -0.11938 0.88900006 8619403
-0.42418003 -0.11938 0.88900006 8553867
-0.42248669 -0.11938 0.88900006 8553867
-0.42079335 -0.11938 0.88900006 8619146
-0.41910002 -0.11938 0.88900006 8488074
-0.41834575 -0.11964858 0.89100003 8422796
-0.41805145 -0.12005144 0.89400005 8422542
-0.41728002 -0.12032001 0.89600003 8422025
-0.41557336 -0.12032001 0.89600003 8356485
-0.4138667 -0.12032001 0.89600003 8290947
-0.41308004 -0.12058858 0.89800006 8159361
-0.41136953 -0.12058858 0.89800006 8028033
-0.40965906 -0.12058858 0.89800006 8093314
-0.40931144 -0.12099143 0.90100002 8158594
-0.40850002 -0.12126 0.90300006 8093058
-0.40678 -0.12126 0.90300006 8093313
-0.40506002 -0.12126 0.90300006 8092800
-0.40423334 -0.12152857 0.90500003 8158336
-0.40250954 -0.12152857 0.90500003 8092801
-0.40078571 -0.12152857 0.90500003 8093056
-0.39906192 -0.12152857 0.90500003 8027264
-0.39865524 -0.12193143 0.90800005 8027263
-0.3978 -0.1222 0.91000003 8027007
-0.39737239 -0.12260286 0.91300005 8027005
-0.39650002 -0.12287143 0.91500002 7961468
-0.39475712 -0.12287143 0.91500002 7960953
-0.39387333 -0.12314001 0.91700006 7960950
-0.39212668 -0.12314001 0.91700006 7960954
-0.39038002 -0.12314001 0.91700006 7895422
-0.38863337 -0.12314001 0.91700006 7895165
-0.38815236 -0.12354286 0.92000002 7895165
-0.38724002 -0.12381144 0.92200005 7960700
-0.38548383 -0.12381144 0.92200005 7894908
-0.38372764 -0.12381144 0.92200005 7894908
-0.38321432 -0.12421428 0.92500007 7829373
-0.38227716 -0.12448286 0.92700005 7829372
-0.38051143 -0.12448286 0.92700005 7829115
-0.37997144 -0.12488572 0.93000007 7829115
-0.38023335 -0.12555715 0.93500006 7763579
-0.37845242 -0.12555715 0.93500006 7698040
-0.37667146 -0.12555715 0.93500006 7698294
-0.3756924 -0.12582572 0.93700004 7763833
-0.37510478 -0.12622857 0.94000006 7829372
-0.37410858 -0.12649715 0.94200003 7960701
-0.3723143 -0.12649715 0.94200003 8092286
-0.37170002 -0.1269 0.94500005 8289663
-0.37185714 -0.12757143 0.95000005 8486784
-0.37199527 -0.12824285 0.95500004 8684162
-0.37133908 -0.12864572 0.95800006 8816004
-0.36951432 -0.12864572 0.95800006 9013380
-0.36768955 -0.12864572 0.95800006 9144709
-0.36586478 -0.12864572 0.95800006 9276296
-0.36404002 -0.12864572 0.95800006 9408139
-0.36334953 -0.12904857 0.96100003 9541516
-0.36151904 -0.12904857 0.96100003 9673102
-0.35968858 -0.12904857 0.96100003 9870231
-0.35971999 -0.12972 0.96600002 9673633
-0.35788003 -0.12972 0.96600002 9542812
-0.35604 -0.12972 0.96600002 9082775
-0.53623432 -0.1188781 0.89800006 9146517
-0.53452384 -0.1188781 0.89800006 8949140
-0.53281337 -0.1188781 0.89800006 8817043
-0.5311029 -0.1188781 0.89800006 8685197
-0.52939242 -0.1188781 0.89800006 8553864
-0.52944475 -0.11927524 0.90100002 8422022
-0.52772856 -0.11927524 0.90100002 8421765
-0.52601236 -0.11927524 0.90100002 8487813
-0.52429616 -0.11927524 0.90100002 8487557
-0.52257997 -0.11927524 0.90100002 8487558
-0.52202004 -0.11954001 0.90300006 8553351
-0.51914763 -0.11927524 0.90100002 8684678
-0.51743144 -0.11927524 0.90100002 8750724
-0.51686007 -0.11954001 0.90300006 8816772
-0.51628095 -0.11980477 0.90500003 8817540
-0.51626289 -0.12020191 0.90800005 8817281
-0.51283336 -0.11980477 0.90500003 8751743
-0.51110953 -0.11980477 0.90500003 8683645
-0.50938576 -0.11980477 0.90500003 7763835
-0.50934476 -0.12020191 0.90800005 6909040
-0.50593811 -0.11980477 0.90500003 6644325
-0.50421429 -0.11980477 0.90500003 6446691
-0.50138003 -0.11954001 0.90300006 6576993
-0.49965999 -0.11954001 0.90300006 6709859
-0.49794003 -0.11954001 0.90300006 6513509
-0.49896762 -0.12020191 0.90800005 6382693
-0.49833333 -0.12046667 0.91000003 6644326
-0.4966 -0.12046667 0.91000003 6906723
-0.48616573 -0.11834858 0.89400005 7234401
-0.48066953 -0.11742191 0.88700002 7629175
-0.47898 -0.11742191 0.88700002 8093582
-0.47567621 -0.11702476 0.88400006 8555149
-0.47399241 -0.11702476 0.88400006 8751757
-0.47123998 -0.11676001 0.88200003 9014164
-0.46849528 -0.11649524 0.88000005 8948891
-0.46681908 -0.11649524 0.88000005 8948630
-0.46408573 -0.11623047 0.87800002 8948626
-0.4634667 -0.11649524 0.88000005 9014163
-0.4617905 -0.11649524 0.88000005 9014421
-0.4601143 -0.11649524 0.88000005 9014420
-0.4584381 -0.11649524 0.88000005 8948628
-0.45676193 -0.11649524 0.88000005 8948626
-0.45508572 -0.11649524 0.88000005 8948624
-0.45444 -0.11676001 0.88200003 9014162
-0.45276001 -0.11676001 0.88200003 8948628
-0.45107999 -0.11676001 0.88200003 8883093
-0.44940001 -0.11676001 0.88200003 8883095
-0.44772002 -0.11676001 0.88200003 8882582
-0.44604 -0.11676001 0.88200003 8817045
-0.44536766 -0.11702476 0.88400006 8751252
-0.44268003 -0.11676001 0.88200003 8751251
-0.44200003 -0.11702476 0.88400006 8816786
-0.43932 -0.11676001 0.88200003 8751505
-0.4386324 -0.11702476 0.88400006 8751503
-0.4369486 -0.11702476 0.88400006 8685710
-0.4352648 -0.11702476 0.88400006 8619917
-0.43505239 -0.11742191 0.88700002 8685453
-0.43336287 -0.11742191 0.88700002 8816524
-0.43167335 -0.11742191 0.88700002 8751244
-0.42998379 -0.11742191 0.88700002 8685452
-0.4282943 -0.11742191 0.88700002 8619916
-0.42756671 -0.11768667 0.88900006 8619403
-0.42587334 -0.11768667 0.88900006 8553867
-0.42418003 -0.11768667 0.88900006 8553867
-0.42248669 -0.11768667 0.88900006 8488587
-0.42079335 -0.11768667 0.88900006 8487818
-0.42004287 -0.11795143 0.89100003 8488074
-0.41834575 -0.11795143 0.89100003 8488075
-0.41805145 -0.11834858 0.89400005 8422797
-0.41728002 -0.11861334 0.89600003 8356233
-0.41557336 -0.11861334 0.89600003 8290437
-0.41479051 -0.1188781 0.89800006 8290180
-0.41308004 -0.1188781 0.89800006 8093315
-0.41136953 -0.1188781 0.89800006 7896706
-0.40965906 -0.1188781 0.89800006 8027777
-0.40931144 -0.11927524 0.90100002 8224385
-0.40759525 -0.11927524 0.90100002 8158849
-0.40678 -0.11954001 0.90300006 8158593
-0.40506002 -0.11954001 0.90300006 8158593
-0.40423334 -0.11980477 0.90500003 8223873
-0.40250954 -0.11980477 0.90500003 8158338
-0.40078571 -0.11980477 0.90500003 8092801
-0.40038478 -0.12020191 0.90800005 8092800
-0.39865524 -0.12020191 0.90800005 8092543
-0.3978 -0.12046667 0.91000003 8027006
-0.39737239 -0.12086381 0.91300005 7961469
-0.39650002 -0.12112857 0.91500002 7961468
-0.39475712 -0.12112857 0.91500002 8026749
-0.39387333 -0.12139334 0.91700006 8092030
-0.39212668 -0.12139334 0.91700006 8157565
-0.39038002 -0.12139334 0.91700006 8026493
-0.38863337 -0.12139334 0.91700006 7895420
-0.38815236 -0.12179048 0.92000002 7895420
-0.38639998 -0.12179048 0.92000002 7960444
-0.38548383 -0.12205524 0.92200005 7894652
-0.38372764 -0.12205524 0.92200005 7894908
-0.38404289 -0.12271715 0.92700005 7829628
-0.38227716 -0.12271715 0.92700005 7763835
-0.38051143 -0.12271715 0.92700005 7763323
-0.37997144 -0.12311429 0.93000007 7763324
-0.38023335 -0.1237762 0.93500006 7698045
-0.37845242 -0.1237762 0.93500006 7632506
-0.37667146 -0.1237762 0.93500006 7698296
-0.3756924 -0.12404096 0.93700004 7763834
-0.37510478 -0.1244381 0.94000006 7894908
-0.37410858 -0.12470286 0.94200003 8025979
-0.37350002 -0.1251 0.94500005 8091771
-0.37170002 -0.1251 0.94500005 8223613
-0.37107429 -0.12549715 0.94800007 8355198
-0.37199527 -0.12642382 0.95500004 8552576
-0.37133908 -0.12682095 0.95800006 8750209
-0.36951432 -0.12682095 0.95800006 8947330
-0.36768955 -0.12682095 0.95800006 9013380
-0.36586478 -0.12682095 0.95800006 9144709
-0.36404002 -0.12682095 0.95800006 9210759
-0.36334953 -0.1272181 0.96100003 9342345
-0.36151904 -0.1272181 0.96100003 9474188
-0.35968858 -0.1272181 0.96100003 9603988
-0.35785809 -0.1272181 0.96100003 8882076
-0.35676858 -0.12748286 0.96300006 8160155
-0.3549343 -0.12748286 0.96300006 7896985
-0.35310003 -0.12748286 0.96300006 7634853
-0.53503996 -0.11690667 0.89600003 9211282
-0.5333333 -0.11690667 0.89600003 8883087
-0.53162664 -0.11690667 0.89600003 8751245
-0.52991998 -0.11690667 0.89600003 8619913
-0.52821332 -0.11690667 0.89600003 8553861
-0.52768195 -0.11716763 0.89800006 8487556
-0.52772856 -0.11755905 0.90100002 8422020
-0.52601236 -0.11755905 0.90100002 8422276
-0.52546 -0.11782 0.90300006 8421764
-0.52374005 -0.11782 0.90300006 8421764
-0.52202004 -0.11782 0.90300006 8487557
-0.52030003 -0.11782 0.90300006 8618883
-0.51858002 -0.11782 0.90300006 8619138
-0.51686007 -0.11782 0.90300006 8619393
-0.51628095 -0.11808095 0.90500003 8685696
-0.51626289 -0.11847238 0.90800005 8751486
-0.51283336 -0.11808095 0.90500003 8094845
-0.51280385 -0.11847238 0.90800005 7503988
-0.5110743 -0.11847238 0.90800005 7105132
-0.51046664 -0.11873334 0.91000003 6707553
-0.50761527 -0.11847238 0.90800005 6642262
-0.50421429 -0.11808095 0.90500003 6577241
-0.50249046 -0.11808095 0.90500003 6643292
-0.49965999 -0.11782 0.90300006 6709341
-0.50345427 -0.11912477 0.91300005 6644318
-0.50171524 -0.11912477 0.91300005 6513761
-0.49833333 -0.11873334 0.91000003 6710116
-0.4966 -0.11873334 0.91000003 6906721
-0.48616573 -0.11664572 0.89400005 7234143
-0.48066953 -0.11573239 0.88700002 7628661
-0.47898 -0.11573239 0.88700002 8094092
-0.47567621 -0.11534096 0.88400006 8554636
-0.47292 -0.11508001 0.88200003 8751756
-0.47123998 -0.11508001 0.88200003 8948885
-0.46849528 -0.11481905 0.88000005 8948894
-0.46681908 -0.11481905 0.88000005 9014423
-0.46408573 -0.1145581 0.87800002 9079697
-0.46241331 -0.1145581 0.87800002 9145234
-0.4617905 -0.11481905 0.88000005 9079956
-0.4601143 -0.11481905 0.88000005 9014420
-0.4584381 -0.11481905 0.88000005 9014164
-0.45676193 -0.11481905 0.88000005 8948624
-0.45508572 -0.11481905 0.88000005 9013901
-0.45444 -0.11508001 0.88200003 9013649
-0.45276001 -0.11508001 0.88200003 8948373
-0.45107999 -0.11508001 0.88200003 8883093
-0.44940001 -0.11508001 0.88200003 8883093
-0.44772002 -0.11508001 0.88200003 8882836
-0.44604 -0.11508001 0.88200003 8817044
-0.44435999 -0.11508001 0.88200003 8817044
-0.44268003 -0.11508001 0.88200003 8817044
-0.44200003 -0.11534096 0.88400006 8817042
-0.44031623 -0.11534096 0.88400006 8751504
-0.4386324 -0.11534096 0.88400006 8751503
-0.4369486 -0.11534096 0.88400006 8685710
-0.4352648 -0.11534096 0.88400006 8685454
-0.43505239 -0.11573239 0.88700002 8750991
-0.43336287 -0.11573239 0.88700002 8881807
-0.43167335 -0.11573239 0.88700002 8816272
-0.42998379 -0.11573239 0.88700002 8685199
-0.4282943 -0.11573239 0.88700002 8619406
-0.42756671 -0.11599334 0.88900006 8619404
-0.42587334 -0.11599334 0.88900006 8619403
-0.42418003 -0.11599334 0.88900006 8619147
-0.42248669 -0.11599334 0.88900006 8553356
-0.42174003 -0.11625428 0.89100003 8553355
-0.42004287 -0.11625428 0.89100003 8553610
-0.41834575 -0.11625428 0.89100003 8553611
-0.41805145 -0.11664572 0.89400005 8422028
-0.41728002 -0.11690667 0.89600003 8355977
-0.41557336 -0.11690667 0.89600003 8289926
-0.41479051 -0.11716763 0.89800006 8289413
-0.41308004 -0.11716763 0.89800006 8158597
-0.41136953 -0.11716763 0.89800006 8027267
-0.40965906 -0.11716763 0.89800006 8158849
-0.40931144 -0.11755905 0.90100002 8224385
-0.40759525 -0.11755905 0.90100002 8224385
-0.40678 -0.11782 0.90300006 8224897
-0.40506002 -0.11782 0.90300006 8224130
-0.40423334 -0.11808095 0.90500003 8224130
-0.40250954 -0.11808095 0.90500003 8158339
-0.40078571 -0.11808095 0.90500003 8092802
-0.40038478 -0.11847238 0.90800005 8092801
-0.39865524 -0.11847238 0.90800005 8158079
-0.3978 -0.11873334 0.91000003 8092541
-0.39737239 -0.11912477 0.91300005 8027261
-0.39650002 -0.11938572 0.91500002 8027005
-0.39562002 -0.11964667 0.91700006 8027009
-0.39387333 -0.11964667 0.91700006 8026758
-0.39212668 -0.11964667 0.91700006 8026753
-0.39038002 -0.11964667 0.91700006 7960956
-0.38990474 -0.12003809 0.92000002 7895419
-0.38815236 -0.12003809 0.92000002 7829883
-0.38724002 -0.12029906 0.92200005 7829371
-0.38548383 -0.12029906 0.92200005 7829116
-0.38497621 -0.12069048 0.92500007 7894907
-0.38321432 -0.12069048 0.92500007 7829371
-0.38227716 -0.12095144 0.92700005 7764091
-0.38051143 -0.12095144 0.92700005 7763323
-0.37997144 -0.12134287 0.93000007 7763325
-0.37901336 -0.12160382 0.93200004 7698048
-0.37723809 -0.12160382 0.93200004 7632509
-0.37667146 -0.12199524 0.93500006 7632250
-0.3756924 -0.12225619 0.93700004 7697787
-0.37390766 -0.12225619 0.93700004 7829116
-0.37410858 -0.12290857 0.94200003 7894650
-0.37350002 -0.12330001 0.94500005 7960441
-0.37288001 -0.12369143 0.94800007 8092027
-0.37185714 -0.12395239 0.95000005 8223869
-0.37199527 -0.12460477 0.95500004 8421246
-0.37133908 -0.12499619 0.95800006 8618623
-0.36951432 -0.12499619 0.95800006 8815745
-0.36768955 -0.12499619 0.95800006 8881283
-0.36586478 -0.12499619 0.95800006 8947075
-0.36517999 -0.12538761 0.96100003 8882307
-0.36334953 -0.12538761 0.96100003 8883590
-0.36151904 -0.12538761 0.96100003 8685962
-0.36043715 -0.12564859 0.96300006 8488593
-0.35971999 -0.12604 0.96600002 8159896
-0.35899144 -0.12643144 0.96900004 7896730
-0.35714573 -0.12643144 0.96900004 7830684
-0.35530001 -0.12643144 0.96900004 7830438
-0.53623432 -0.11545715 0.89800006 9276051
-0.53452384 -0.11545715 0.89800006 8882576
-0.53162664 -0.11520001 0.89600003 8751246
-0.5311029 -0.11545715 0.89800006 8619657
-0.52939242 -0.11545715 0.89800006 8553861
-0.52768195 -0.11545715 0.89800006 8552836
-0.52772856 -0.11584286 0.90100002 8487555
-0.52718008 -0.11610001 0.90300006 8421763
-0.52546 -0.11610001 0.90300006 8421764
-0.52374005 -0.11610001 0.90300006 8421763
-0.52202004 -0.11610001 0.90300006 8487555
-0.52030003 -0.11610001 0.90300006 8553089
-0.51858002 -0.11610001 0.90300006 8488064
-0.51800478 -0.11635715 0.90500003 8488569
-0.51628095 -0.11635715 0.90500003 8619890
-0.51626289 -0.11674286 0.90800005 8749942
-0.51283336 -0.11635715 0.90500003 7499130
-0.51110953 -0.11635715 0.90500003 6317425
-0.50938576 -0.11635715 0.90500003 6446441
-0.50934476 -0.11674286 0.90800005 6577504
-0.50761527 -0.11674286 0.90800005 6643287
-0.50421429 -0.11635715 0.90500003 6709079
-0.50249046 -0.11635715 0.90500003 6709335
-0.50731426 -0.11828572 0.92000002 6709854
-0.50556195 -0.11828572 0.92000002 6709856
-0.50380951 -0.11828572 0.92000002 6775650
-0.4966 -0.11700001 0.91000003 6906719
-0.47898 -0.11404286 0.88700002 8094602
-0.47567621 -0.11365715 0.88400006 8553867
-0.47292 -0.1134 0.88200003 8686219
-0.47123998 -0.1134 0.88200003 8883347
-0.46849528 -0.11314286 0.88000005 9014683
