# .PCD v0.7 - Point Cloud Data file format
VERSION 0.7
FIELDS x y z rgba
SIZE 4 4 4 4
TYPE F F F U
COUNT 1 1 1 1
WIDTH 1100
HEIGHT 1
VIEWPOINT 0 0 0 1 0 0 0
POINTS 1100
DATA ascii
-0.5311029 -0.028222859 0.89800006 7893879
-0.52939242 -0.028222859 0.89800006 8291455
-0.52768195 -0.028222859 0.89800006 8686728
-0.52597141 -0.028222859 0.89800006 8883857
-0.524261 -0.028222859 0.89800006 9080470
-0.52546 -0.028380001 0.90300006 9277340
-0.52374005 -0.028380001 0.90300006 9539998
-0.52202004 -0.028380001 0.90300006 9606049
-0.52030003 -0.028380001 0.90300006 9741235
-0.51858002 -0.028380001 0.90300006 10792646
-0.51800478 -0.028442858 0.90500003 11912906
-0.51514 -0.028380001 0.90300006 12370895
-0.51341999 -0.028380001 0.90300006 12894672
-0.51170003 -0.028380001 0.90300006 12896977
-0.50885051 -0.028317144 0.90100002 12896975
-0.50826001 -0.028380001 0.90300006 12437709
-0.50541812 -0.028317144 0.90100002 11978445
-0.50370193 -0.028317144 0.90100002 11844302
-0.5003143 -0.028222859 0.89800006 11713995
-0.49860385 -0.028222859 0.89800006 11382985
-0.49467999 -0.028097145 0.89400005 11056579
-0.49518287 -0.028222859 0.89800006 10726077
-0.48962569 -0.028002858 0.89100003 10463924
-0.4857381 -0.027877143 0.88700002 10198956
-0.48241147 -0.027782859 0.88400006 9870760
-0.48072764 -0.027782859 0.88400006 9738404
-0.47795999 -0.027720001 0.88200003 9606305
-0.47628 -0.027720001 0.88200003 9474975
-0.47460002 -0.027720001 0.88200003 9343388
-0.47292 -0.027720001 0.88200003 9277850
-0.47123998 -0.027720001 0.88200003 9212313
-0.46956003 -0.027720001 0.88200003 9146776
-0.46788001 -0.027720001 0.88200003 9146518
-0.46619999 -0.027720001 0.88200003 9146517
-0.46557334 -0.027782859 0.88400006 9146261
-0.46388957 -0.027782859 0.88400006 9146262
-0.46116 -0.027720001 0.88200003 9211543
-0.46052194 -0.027782859 0.88400006 9146008
-0.4578 -0.027720001 0.88200003 9080472
-0.45612001 -0.027720001 0.88200003 9080472
-0.45444 -0.027720001 0.88200003 9014680
-0.45276001 -0.027720001 0.88200003 9014680
-0.4521029 -0.027782859 0.88400006 9080216
-0.44940001 -0.027720001 0.88200003 9080472
-0.44873527 -0.027782859 0.88400006 9146263
-0.44705144 -0.027782859 0.88400006 9080726
-0.44536766 -0.027782859 0.88400006 9080470
-0.44368383 -0.027782859 0.88400006 9080214
-0.44200003 -0.027782859 0.88400006 9079956
-0.44031623 -0.027782859 0.88400006 8883090
-0.4386324 -0.027782859 0.88400006 8686222
-0.4369486 -0.027782859 0.88400006 8751755
-0.4352648 -0.027782859 0.88400006 8882831
-0.43358099 -0.027782859 0.88400006 8882836
-0.43336287 -0.027877143 0.88700002 8882836
-0.43167335 -0.027877143 0.88700002 8817045
-0.42998379 -0.027877143 0.88700002 8816783
-0.4282943 -0.027877143 0.88700002 8817034
-0.42660475 -0.027877143 0.88700002 8818314
-0.42491525 -0.027877143 0.88700002 7307403
-0.42322573 -0.027877143 0.88700002 5731187
-0.42248669 -0.027940001 0.88900006 5461084
-0.42079335 -0.027940001 0.88900006 5264473
-0.41910002 -0.027940001 0.88900006 5199447
-0.41834575 -0.028002858 0.89100003 5200218
-0.4166486 -0.028002858 0.89100003 5462878
-0.41728002 -0.02816 0.89600003 5725282
-0.41557336 -0.02816 0.89600003 5659750
-0.4138667 -0.02816 0.89600003 5660002
-0.41216001 -0.02816 0.89600003 5529183
-0.41136953 -0.028222859 0.89800006 5398368
-0.41102761 -0.028317144 0.90100002 5398113
-0.40931144 -0.028317144 0.90100002 5463652
-0.40623811 -0.028222859 0.89800006 5529447
-0.40587905 -0.028317144 0.90100002 5529701
-0.40416285 -0.028317144 0.90100002 5463908
-0.40110669 -0.028222859 0.89800006 5398114
-0.39939621 -0.028222859 0.89800006 5397601
-0.39901426 -0.028317144 0.90100002 5397604
-0.39818001 -0.028380001 0.90300006 5265768
-0.39953333 -0.0286 0.91000003 5133674
-0.40086001 -0.028820001 0.91700006 6648940
-0.39824286 -0.028757144 0.91500002 8157808
-0.39736667 -0.028820001 0.91700006 8093044
-0.39562002 -0.028820001 0.91700006 8093302
-0.39387333 -0.028820001 0.91700006 8093049
-0.39340955 -0.028914286 0.92000002 8158330
-0.39165714 -0.028914286 0.92000002 8092540
-0.39075238 -0.028977145 0.92200005 8026748
-0.39026192 -0.02907143 0.92500007 7961212
-0.38934001 -0.029134287 0.92700005 7961470
-0.38757432 -0.029134287 0.92700005 7961473
-0.38580859 -0.029134287 0.92700005 7961470
-0.3861143 -0.029291429 0.93200004 8026748
-0.38557622 -0.029385716 0.93500006 8092026
-0.3846162 -0.029448573 0.93700004 7960953
-0.38405713 -0.02954286 0.94000006 7895415
-0.38430002 -0.029700002 0.94500005 7829878
-0.38371432 -0.029794287 0.94800007 7699060
-0.3827143 -0.029857146 0.95000005 7764339
-0.38210765 -0.029951429 0.95300007 7895410
-0.38109049 -0.030014286 0.95500004 7894898
-0.37927145 -0.030014286 0.95500004 7895157
-0.3774524 -0.030014286 0.95500004 8091769
-0.37681335 -0.030108573 0.95800006 8288383
-0.37498862 -0.030108573 0.95800006 8550789
-0.3743324 -0.030202858 0.96100003 8878726
-0.53281337 -0.026512383 0.89800006 7367533
-0.5311029 -0.026512383 0.89800006 7696245
-0.52939242 -0.026512383 0.89800006 8093310
-0.52768195 -0.026512383 0.89800006 8555142
-0.52597141 -0.026512383 0.89800006 8752783
-0.524261 -0.026512383 0.89800006 9014932
-0.52429616 -0.026600951 0.90100002 9212057
-0.52374005 -0.026660001 0.90300006 9408669
-0.52202004 -0.026660001 0.90300006 9408929
-0.52030003 -0.026660001 0.90300006 9410982
-0.51858002 -0.026660001 0.90300006 10594476
-0.51686007 -0.026660001 0.90300006 11778240
-0.51514 -0.026660001 0.90300006 12437972
-0.51228291 -0.026600951 0.90100002 13158870
-0.51056671 -0.026600951 0.90100002 12896727
-0.50885051 -0.026600951 0.90100002 12699856
-0.50713432 -0.026600951 0.90100002 12238025
-0.50541812 -0.026600951 0.90100002 11778760
-0.50202477 -0.026512383 0.89800006 11647432
-0.49920002 -0.026453335 0.89600003 11516355
-0.49638286 -0.026394285 0.89400005 11120575
-0.49578664 -0.026453335 0.89600003 10726329
-0.49407998 -0.026453335 0.89600003 10463412
-0.48852673 -0.026246669 0.88900006 10265262
-0.48409528 -0.026099049 0.88400006 10001832
-0.48241147 -0.026099049 0.88400006 9738661
-0.48072764 -0.026099049 0.88400006 9606562
-0.47904384 -0.026099049 0.88400006 9540768
-0.47628 -0.026040001 0.88200003 9409438
-0.47460002 -0.026040001 0.88200003 9277852
-0.47292 -0.026040001 0.88200003 9212571
-0.47123998 -0.026040001 0.88200003 9146778
-0.46956003 -0.026040001 0.88200003 9146777
-0.46788001 -0.026040001 0.88200003 9146775
-0.46619999 -0.026040001 0.88200003 9146774
-0.46557334 -0.026099049 0.88400006 9212053
-0.46388957 -0.026099049 0.88400006 9212052
-0.46220574 -0.026099049 0.88400006 9277333
-0.46052194 -0.026099049 0.88400006 9146263
-0.4578 -0.026040001 0.88200003 9080471
-0.45612001 -0.026040001 0.88200003 9014936
-0.45444 -0.026040001 0.88200003 8949400
-0.45276001 -0.026040001 0.88200003 9015192
-0.4521029 -0.026099049 0.88400006 9080728
-0.44940001 -0.026040001 0.88200003 9080729
-0.44873527 -0.026099049 0.88400006 9146264
-0.44705144 -0.026099049 0.88400006 9080727
-0.44536766 -0.026099049 0.88400006 9080729
-0.44368383 -0.026099049 0.88400006 9015452
-0.44200003 -0.026099049 0.88400006 9014423
-0.44031623 -0.026099049 0.88400006 8752019
-0.4386324 -0.026099049 0.88400006 8555409
-0.4369486 -0.026099049 0.88400006 8686479
-0.4352648 -0.026099049 0.88400006 8817555
-0.43358099 -0.026099049 0.88400006 8817559
-0.43336287 -0.026187621 0.88700002 8882838
-0.43167335 -0.026187621 0.88700002 8817300
-0.42998379 -0.026187621 0.88700002 8817294
-0.4282943 -0.026187621 0.88700002 8751752
-0.42660475 -0.026187621 0.88700002 8752780
-0.42587334 -0.026246669 0.88900006 7175313
-0.42418003 -0.026246669 0.88900006 5599094
-0.42248669 -0.026246669 0.88900006 5396060
-0.42079335 -0.026246669 0.88900006 5264987
-0.42004287 -0.026305715 0.89100003 5264986
-0.41834575 -0.026305715 0.89100003 5265756
-0.4166486 -0.026305715 0.89100003 5528670
-0.41634858 -0.026394285 0.89400005 5856866
-0.41464573 -0.026394285 0.89400005 5791846
-0.41294289 -0.026394285 0.89400005 5726052
-0.41216001 -0.026453335 0.89600003 5594978
-0.41045335 -0.026453335 0.89600003 5529442
-0.40965906 -0.026512383 0.89800006 5463906
-0.40794861 -0.026512383 0.89800006 5463654
-0.40759525 -0.026600951 0.90100002 5463658
-0.40587905 -0.026600951 0.90100002 5463654
-0.40416285 -0.026600951 0.90100002 5398115
-0.40244666 -0.026600951 0.90100002 5398113
-0.40162 -0.026660001 0.90300006 5332064
-0.39990002 -0.026660001 0.90300006 5332062
-0.40038478 -0.026807619 0.90800005 5200220
-0.39865524 -0.026807619 0.90800005 5133927
-0.40086001 -0.027073335 0.91700006 6650226
-0.39911336 -0.027073335 0.91700006 8223863
-0.39736667 -0.027073335 0.91700006 8158844
-0.39562002 -0.027073335 0.91700006 8158843
-0.39387333 -0.027073335 0.91700006 8158842
-0.39340955 -0.027161906 0.92000002 8158331
-0.3925086 -0.027220953 0.92200005 8092796
-0.39075238 -0.027220953 0.92200005 8026748
-0.39026192 -0.027309526 0.92500007 8026749
-0.38934001 -0.027368572 0.92700005 8026493
-0.38757432 -0.027368572 0.92700005 8026494
-0.38705719 -0.027457144 0.93000007 8026491
-0.3861143 -0.027516192 0.93200004 8026745
-0.38557622 -0.027604764 0.93500006 8026488
-0.3846162 -0.02766381 0.93700004 7960950
-0.38283145 -0.02766381 0.93700004 7895158
-0.38308001 -0.02781143 0.94200003 7698550
-0.38250002 -0.027900001 0.94500005 7502195
-0.3819086 -0.027988574 0.94800007 7699057
-0.38090476 -0.028047619 0.95000005 7895406
-0.38109049 -0.02819524 0.95500004 7894891
-0.37927145 -0.02819524 0.95500004 7895155
-0.3774524 -0.02819524 0.95500004 8157307
-0.37681335 -0.02828381 0.95800006 8420479
-0.37498862 -0.02828381 0.95800006 8685188
-0.53281337 -0.024801906 0.89800006 7301483
-0.5311029 -0.024801906 0.89800006 7629940
-0.52939242 -0.024801906 0.89800006 7960701
-0.52768195 -0.024801906 0.89800006 8292741
-0.52597141 -0.024801906 0.89800006 8555149
-0.524261 -0.024801906 0.89800006 8883346
-0.52429616 -0.024884764 0.90100002 9080471
-0.52257997 -0.024884764 0.90100002 9343132
-0.52202004 -0.024940003 0.90300006 9343137
-0.51914763 -0.024884764 0.90100002 9408666
-0.51743144 -0.024884764 0.90100002 10000531
-0.51686007 -0.024940003 0.90300006 10592694
-0.5139991 -0.024884764 0.90100002 11187418
-0.51057714 -0.024801906 0.89800006 11850972
-0.50886673 -0.024801906 0.89800006 11783646
-0.50715619 -0.024801906 0.89800006 11782097
-0.50544572 -0.024801906 0.89800006 11515333
-0.5037353 -0.024801906 0.89800006 11318980
-0.50090671 -0.024746668 0.89600003 11187907
-0.49808577 -0.024691431 0.89400005 11056828
-0.49471715 -0.024608571 0.89100003 10727605
-0.49302003 -0.024608571 0.89100003 10464176
-0.49022001 -0.024553334 0.88900006 10199980
-0.48742762 -0.024498096 0.88700002 10002088
-0.48409528 -0.02441524 0.88400006 9804196
-0.48241147 -0.02441524 0.88400006 9606562
-0.48072764 -0.02441524 0.88400006 9474977
-0.47904384 -0.02441524 0.88400006 9408927
-0.47736001 -0.02441524 0.88400006 9343134
-0.47460002 -0.024360001 0.88200003 9277597
-0.47292 -0.024360001 0.88200003 9146524
-0.47123998 -0.024360001 0.88200003 9080987
-0.46956003 -0.024360001 0.88200003 9080987
-0.46788001 -0.024360001 0.88200003 9081241
-0.46619999 -0.024360001 0.88200003 9146519
-0.46557334 -0.02441524 0.88400006 9146517
-0.46388957 -0.02441524 0.88400006 9146515
-0.46220574 -0.02441524 0.88400006 9212052
-0.46052194 -0.02441524 0.88400006 9146262
-0.4578 -0.024360001 0.88200003 9080727
-0.45612001 -0.024360001 0.88200003 9080472
-0.45547053 -0.02441524 0.88400006 9080472
-0.45276001 -0.024360001 0.88200003 9080472
-0.4521029 -0.02441524 0.88400006 9080473
-0.45041907 -0.02441524 0.88400006 9080474
-0.44873527 -0.02441524 0.88400006 9146009
-0.44705144 -0.02441524 0.88400006 9080472
-0.44687906 -0.024498096 0.88700002 9080733
-0.44368383 -0.02441524 0.88400006 9014947
-0.44200003 -0.02441524 0.88400006 9014683
-0.44031623 -0.02441524 0.88400006 8817812
-0.44012097 -0.024498096 0.88700002 8686739
-0.4369486 -0.02441524 0.88400006 8752275
-0.4352648 -0.02441524 0.88400006 8818071
-0.43505239 -0.024498096 0.88700002 8883355
-0.43336287 -0.024498096 0.88700002 8948887
-0.43167335 -0.024498096 0.88700002 8817300
-0.42998379 -0.024498096 0.88700002 8751501
-0.4282943 -0.024498096 0.88700002 8752006
-0.42660475 -0.024498096 0.88700002 8687247
-0.42587334 -0.024553334 0.88900006 7042456
-0.42418003 -0.024553334 0.88900006 5401466
-0.42248669 -0.024553334 0.88900006 5264732
-0.42079335 -0.024553334 0.88900006 5199197
-0.42004287 -0.024608571 0.89100003 5199454
-0.41834575 -0.024608571 0.89100003 5266014
-0.41805145 -0.024691431 0.89400005 5659743
-0.41728002 -0.024746668 0.89600003 6053987
-0.41557336 -0.024746668 0.89600003 5857383
-0.4138667 -0.024746668 0.89600003 5726310
-0.41216001 -0.024746668 0.89600003 5594982
-0.41136953 -0.024801906 0.89800006 5463653
-0.40965906 -0.024801906 0.89800006 5397860
-0.40931144 -0.024884764 0.90100002 5397609
-0.40623811 -0.024801906 0.89800006 5397614
-0.40587905 -0.024884764 0.90100002 5397864
-0.40416285 -0.024884764 0.90100002 5332322
-0.40334001 -0.024940003 0.90300006 5267040
-0.40162 -0.024940003 0.90300006 5332319
-0.40078571 -0.024995239 0.90500003 5397847
-0.40038478 -0.025078095 0.90800005 5331280
-0.4008505 -0.025216192 0.91300005 5265252
-0.39911145 -0.025216192 0.91300005 6781561
-0.39824286 -0.025271429 0.91500002 8290175
-0.39736667 -0.025326669 0.91700006 8289925
-0.39562002 -0.025326669 0.91700006 8290176
-0.39387333 -0.025326669 0.91700006 8224379
-0.39340955 -0.025409523 0.92000002 8158588
-0.39165714 -0.025409523 0.92000002 8092797
-0.39075238 -0.025464762 0.92200005 8027005
-0.39026192 -0.025547622 0.92500007 8026494
-0.38850001 -0.025547622 0.92500007 8026236
-0.38757432 -0.025602859 0.92700005 8026235
-0.38705719 -0.025685715 0.93000007 8092025
-0.38528574 -0.025685715 0.93000007 8026487
-0.38557622 -0.025823811 0.93500006 7961205
-0.38379526 -0.025823811 0.93500006 7960948
-0.38283145 -0.025879048 0.93700004 7895157
-0.38308001 -0.026017142 0.94200003 7764086
-0.38128573 -0.026017142 0.94200003 7698803
-0.38070002 -0.0261 0.94500005 7829872
-0.38090476 -0.026238097 0.95000005 8026730
-0.38029242 -0.026320953 0.95300007 7829349
-0.37927145 -0.026376192 0.95500004 7633009
-0.3774524 -0.026376192 0.95500004 8026749
-0.37563333 -0.026376192 0.95500004 8487040
-0.37498862 -0.026459049 0.95800006 8685699
-0.37316382 -0.026459049 0.95800006 8949389
-0.53281337 -0.02309143 0.89800006 7300965
-0.52991998 -0.02304 0.89600003 7563884
-0.52939242 -0.02309143 0.89800006 7828084
-0.52768195 -0.02309143 0.89800006 8093568
-0.52597141 -0.02309143 0.89800006 8424077
-0.524261 -0.02309143 0.89800006 8752016
-0.52255052 -0.02309143 0.89800006 9014420
-0.52257997 -0.023168571 0.90100002 9277081
-0.51912957 -0.02309143 0.89800006 9344159
-0.5174191 -0.02309143 0.89800006 9474460
-0.51743144 -0.023168571 0.90100002 9408665
-0.51571524 -0.023168571 0.90100002 9410474
-0.51114672 -0.02304 0.89600003 9936827
-0.50944 -0.02304 0.89600003 10528960
-0.50773335 -0.02304 0.89600003 10662596
-0.50602669 -0.02304 0.89600003 10858688
-0.50544572 -0.02309143 0.89800006 10858171
-0.50261337 -0.02304 0.89600003 10857145
-0.50090671 -0.02304 0.89600003 10725047
-0.49641433 -0.022911429 0.89100003 10658995
-0.49360672 -0.022860002 0.88900006 10396591
-0.49191335 -0.022860002 0.88900006 10199211
-0.48911715 -0.022808572 0.88700002 10002088
-0.48742762 -0.022808572 0.88700002 9804197
-0.48409528 -0.022731431 0.88400006 9606562
-0.48241147 -0.022731431 0.88400006 9474976
-0.48072764 -0.022731431 0.88400006 9409182
-0.47904384 -0.022731431 0.88400006 9343133
-0.47736001 -0.022731431 0.88400006 9277340
-0.47567621 -0.022731431 0.88400006 9277595
-0.47399241 -0.022731431 0.88400006 9146778
-0.47123998 -0.022680001 0.88200003 9080986
-0.46956003 -0.022680001 0.88200003 9080730
-0.46788001 -0.022680001 0.88200003 9080727
-0.46619999 -0.022680001 0.88200003 9080981
-0.46557334 -0.022731431 0.88400006 9146513
-0.46388957 -0.022731431 0.88400006 9146509
-0.46220574 -0.022731431 0.88400006 9146256
-0.46052194 -0.022731431 0.88400006 9146259
-0.45883811 -0.022731431 0.88400006 9146262
-0.4571543 -0.022731431 0.88400006 9211802
-0.45547053 -0.022731431 0.88400006 9277081
-0.4537867 -0.022731431 0.88400006 9211288
-0.4521029 -0.022731431 0.88400006 9145753
-0.45041907 -0.022731431 0.88400006 9145755
-0.45025811 -0.022808572 0.88700002 9145753
-0.44856858 -0.022808572 0.88700002 9080215
-0.44687906 -0.022808572 0.88700002 9080217
-0.44368383 -0.022731431 0.88400006 9014940
-0.44200003 -0.022731431 0.88400006 9014422
-0.44031623 -0.022731431 0.88400006 8883344
-0.44012097 -0.022808572 0.88700002 8817809
-0.4369486 -0.022731431 0.88400006 8817810
-0.43674192 -0.022808572 0.88700002 8883349
-0.43505239 -0.022808572 0.88700002 8948887
-0.43336287 -0.022808572 0.88700002 9014165
-0.43167335 -0.022808572 0.88700002 8882834
-0.42998379 -0.022808572 0.88700002 8751502
-0.4282943 -0.022808572 0.88700002 8686730
-0.42660475 -0.022808572 0.88700002 8686989
-0.42587334 -0.022860002 0.88900006 6909839
-0.42418003 -0.022860002 0.88900006 5203829
-0.42248669 -0.022860002 0.88900006 5198938
-0.42079335 -0.022860002 0.88900006 5199196
-0.41910002 -0.022860002 0.88900006 5199455
-0.41834575 -0.022911429 0.89100003 5265760
-0.41805145 -0.022988571 0.89400005 5725281
-0.41728002 -0.02304 0.89600003 6250599
-0.41557336 -0.02304 0.89600003 5989230
-0.4138667 -0.02304 0.89600003 5792107
-0.41216001 -0.02304 0.89600003 5595240
-0.41045335 -0.02304 0.89600003 5463396
-0.40965906 -0.02309143 0.89800006 5397857
-0.40794861 -0.02309143 0.89800006 5332069
-0.40623811 -0.02309143 0.89800006 5332073
-0.40587905 -0.023168571 0.90100002 5397606
-0.40416285 -0.023168571 0.90100002 5266531
-0.40334001 -0.023220003 0.90300006 5201250
-0.40162 -0.023220003 0.90300006 5332577
-0.40078571 -0.02327143 0.90500003 5528923
-0.40126666 -0.023400001 0.91000003 5462358
-0.40172857 -0.02352857 0.91500002 5396840
-0.39998573 -0.02352857 0.91500002 6847611
-0.39911336 -0.02358 0.91700006 8355709
-0.39736667 -0.02358 0.91700006 8355456
-0.39562002 -0.02358 0.91700006 8420990
-0.39387333 -0.02358 0.91700006 8289916
-0.39340955 -0.023657143 0.92000002 8158588
-0.3925086 -0.023708573 0.92200005 8092796
-0.39075238 -0.023708573 0.92200005 8092284
-0.39026192 -0.023785716 0.92500007 8026493
-0.38934001 -0.023837144 0.92700005 8026235
-0.38757432 -0.023837144 0.92700005 8091770
-0.38705719 -0.023914289 0.93000007 8157560
-0.3861143 -0.023965714 0.93200004 8026487
-0.38557622 -0.024042858 0.93500006 7960949
-0.38379526 -0.024042858 0.93500006 7960948
-0.38283145 -0.024094287 0.93700004 7960948
-0.38104668 -0.024094287 0.93700004 7895413
-0.38128573 -0.024222856 0.94200003 7895411
-0.38070002 -0.024300002 0.94500005 8026481
-0.38010287 -0.024377145 0.94800007 8157551
-0.37909526 -0.024428573 0.95000005 7764076
-0.37728572 -0.024428573 0.95000005 7436149
-0.37666193 -0.024505716 0.95300007 7961982
-0.37484667 -0.024505716 0.95300007 8552833
-0.37303144 -0.024505716 0.95300007 8752004
-0.37121624 -0.024505716 0.95300007 8949130
-0.53281337 -0.021380953 0.89800006 7235423
-0.52991998 -0.021333335 0.89600003 7367013
-0.52821332 -0.021333335 0.89600003 7368555
-0.52650666 -0.021333335 0.89600003 7435644
-0.5248 -0.021333335 0.89600003 8161421
-0.52309334 -0.021333335 0.89600003 8817295
-0.52255052 -0.021380953 0.89800006 8948881
-0.52083999 -0.021380953 0.89800006 9080215
-0.51797336 -0.021333335 0.89600003 9212317
-0.5162667 -0.021333335 0.89600003 9409438
-0.51456004 -0.021333335 0.89600003 9408928
-0.51285338 -0.021333335 0.89600003 9408670
-0.51000577 -0.021285716 0.89400005 9671325
-0.50830287 -0.021285716 0.89400005 9868452
-0.50490004 -0.021214288 0.89100003 10067371
-0.50320292 -0.021214288 0.89100003 10266286
-0.50150573 -0.021214288 0.89100003 10332082
-0.49980858 -0.021214288 0.89100003 10463407
-0.49811146 -0.021214288 0.89100003 10397356
-0.49418572 -0.021119049 0.88700002 10331307
-0.49083048 -0.02104762 0.88400006 10134186
-0.49080664 -0.021119049 0.88700002 9937319
-0.48911715 -0.021119049 0.88700002 9804196
-0.48577908 -0.02104762 0.88400006 9672098
-0.48409528 -0.02104762 0.88400006 9475488
-0.48241147 -0.02104762 0.88400006 9343390
-0.48072764 -0.02104762 0.88400006 9343388
-0.47904384 -0.02104762 0.88400006 9277595
-0.47736001 -0.02104762 0.88400006 9212058
-0.47460002 -0.021000002 0.88200003 9212313
-0.47292 -0.021000002 0.88200003 9146521
-0.47123998 -0.021000002 0.88200003 9080985
-0.46956003 -0.021000002 0.88200003 9080729
-0.46788001 -0.021000002 0.88200003 9080726
-0.46619999 -0.021000002 0.88200003 9080724
-0.46557334 -0.02104762 0.88400006 9146510
-0.46546382 -0.021119049 0.88700002 9146248
-0.46220574 -0.02104762 0.88400006 9145996
-0.46052194 -0.02104762 0.88400006 9146000
-0.45883811 -0.02104762 0.88400006 9146518
-0.4571543 -0.02104762 0.88400006 9146269
-0.45547053 -0.02104762 0.88400006 9211547
-0.4537867 -0.02104762 0.88400006 9145753
-0.4521029 -0.02104762 0.88400006 9145754
-0.45041907 -0.02104762 0.88400006 9145756
-0.44873527 -0.02104762 0.88400006 9146009
-0.44705144 -0.02104762 0.88400006 9079958
-0.44687906 -0.021119049 0.88700002 9079958
-0.44368383 -0.02104762 0.88400006 9014422
-0.44200003 -0.02104762 0.88400006 9014417
-0.44031623 -0.02104762 0.88400006 8948876
-0.44012097 -0.021119049 0.88700002 8882831
-0.4369486 -0.02104762 0.88400006 8882834
-0.43674192 -0.021119049 0.88700002 8948627
-0.43505239 -0.021119049 0.88700002 9013908
-0.43434003 -0.021166669 0.88900006 9079186
-0.43264669 -0.021166669 0.88900006 8882577
-0.43095335 -0.021166669 0.88900006 8751504
-0.4282943 -0.021119049 0.88700002 8686479
-0.42756671 -0.021166669 0.88900006 8686987
-0.42587334 -0.021166669 0.88900006 6779015
-0.42322573 -0.021119049 0.88700002 4940912
-0.42248669 -0.021166669 0.88900006 5002073
-0.42079335 -0.021166669 0.88900006 5133660
-0.41910002 -0.021166669 0.88900006 5199456
-0.41740671 -0.021166669 0.88900006 5265761
-0.41805145 -0.021285716 0.89400005 5593955
-0.41634858 -0.021285716 0.89400005 5922924
-0.41557336 -0.021333335 0.89600003 5792118
-0.4138667 -0.021333335 0.89600003 5661296
-0.41216001 -0.021333335 0.89600003 5529451
-0.41045335 -0.021333335 0.89600003 5463396
-0.40965906 -0.021380953 0.89800006 5397598
-0.40794861 -0.021380953 0.89800006 5331553
-0.40623811 -0.021380953 0.89800006 5332069
-0.40587905 -0.021452382 0.90100002 5398117
-0.40416285 -0.021452382 0.90100002 5332069
-0.40334001 -0.021500001 0.90300006 5332068
-0.40250954 -0.021547619 0.90500003 5397859
-0.40078571 -0.021547619 0.90500003 5529183
-0.40258953 -0.021738095 0.91300005 5594460
-0.40172857 -0.021785714 0.91500002 5659757
-0.39998573 -0.021785714 0.91500002 6978942
-0.39911336 -0.021833334 0.91700006 8355964
-0.39736667 -0.021833334 0.91700006 8355195
-0.39562002 -0.021833334 0.91700006 8289916
-0.39387333 -0.021833334 0.91700006 8224381
-0.39212668 -0.021833334 0.91700006 8158588
-0.39165714 -0.021904761 0.92000002 8092795
-0.39075238 -0.021952381 0.92200005 8026491
-0.39026192 -0.022023812 0.92500007 8026492
-0.38850001 -0.022023812 0.92500007 7961211
-0.38757432 -0.022071429 0.92700005 8026490
-0.38580859 -0.022071429 0.92700005 8092024
-0.3861143 -0.022190478 0.93200004 8026487
-0.38557622 -0.022261906 0.93500006 7961205
-0.3846162 -0.022309525 0.93700004 7960948
-0.38405713 -0.022380954 0.94000006 7960948
-0.38308001 -0.022428572 0.94200003 7960693
-0.38128573 -0.022428572 0.94200003 7960436
-0.38070002 -0.022500001 0.94500005 7960947
-0.38010287 -0.022571431 0.94800007 8026483
-0.37829718 -0.022571431 0.94800007 7829364
-0.37728572 -0.02261905 0.95000005 7698298
-0.37547621 -0.02261905 0.95000005 8093056
-0.37366667 -0.02261905 0.95000005 8487810
-0.37303144 -0.022690477 0.95300007 8554885
-0.37121624 -0.022690477 0.95300007 8687750
-0.53281337 -0.019670477 0.89800006 7170138
-0.52991998 -0.019626666 0.89600003 7170139
-0.52821332 -0.019626666 0.89600003 6971740
-0.52650666 -0.019626666 0.89600003 6843250
-0.5248 -0.019626666 0.89600003 7898760
-0.52309334 -0.019626666 0.89600003 8948363
-0.52138668 -0.019626666 0.89600003 8948878
-0.51968002 -0.019626666 0.89600003 8949140
-0.51797336 -0.019626666 0.89600003 9146266
-0.51511431 -0.019582856 0.89400005 9343643
-0.51341146 -0.019582856 0.89400005 9409692
-0.51285338 -0.019626666 0.89600003 9475486
-0.51000577 -0.019582856 0.89400005 9344927
-0.50830287 -0.019582856 0.89400005 9278628
-0.50490004 -0.019517142 0.89100003 9475241
-0.50320292 -0.019517142 0.89100003 9672874
-0.49925432 -0.019429525 0.88700002 9870507
-0.49756476 -0.019429525 0.88700002 10066857
-0.49699333 -0.019473333 0.88900006 10066599
-0.49418572 -0.019429525 0.88700002 10066854
-0.49249622 -0.019429525 0.88700002 9870501
-0.49080664 -0.019429525 0.88700002 9738403
-0.48911715 -0.019429525 0.88700002 9606561
-0.48577908 -0.019363809 0.88400006 9541023
-0.48409528 -0.019363809 0.88400006 9409950
-0.48241147 -0.019363809 0.88400006 9277851
-0.48072764 -0.019363809 0.88400006 9277849
-0.47904384 -0.019363809 0.88400006 9277847
-0.47736001 -0.019363809 0.88400006 9212309
-0.47460002 -0.019320002 0.88200003 9146518
-0.47292 -0.019320002 0.88200003 9146264
-0.47123998 -0.019320002 0.88200003 9146520
-0.46956003 -0.019320002 0.88200003 9146776
-0.46788001 -0.019320002 0.88200003 9146262
-0.46619999 -0.019320002 0.88200003 9146261
-0.46557334 -0.019363809 0.88400006 9146256
-0.46546382 -0.019429525 0.88700002 9146252
-0.46220574 -0.019363809 0.88400006 9211535
-0.46052194 -0.019363809 0.88400006 9146001
-0.45883811 -0.019363809 0.88400006 9146005
-0.4571543 -0.019363809 0.88400006 9146265
-0.45547053 -0.019363809 0.88400006 9145753
-0.4537867 -0.019363809 0.88400006 9145753
-0.4521029 -0.019363809 0.88400006 9211289
-0.45041907 -0.019363809 0.88400006 9146010
-0.45025811 -0.019429525 0.88700002 9146006
-0.44856858 -0.019429525 0.88700002 9145491
-0.44687906 -0.019429525 0.88700002 9145491
-0.44518954 -0.019429525 0.88700002 9079955
-0.44350001 -0.019429525 0.88700002 9014416
-0.44181046 -0.019429525 0.88700002 8948878
-0.44012097 -0.019429525 0.88700002 8948112
-0.43843144 -0.019429525 0.88700002 8948370
-0.43674192 -0.019429525 0.88700002 9013906
-0.43505239 -0.019429525 0.88700002 9079442
-0.43434003 -0.019473333 0.88900006 9144721
-0.43264669 -0.019473333 0.88900006 8948112
-0.43095335 -0.019473333 0.88900006 8751249
-0.42926002 -0.019473333 0.88900006 8752017
-0.42756671 -0.019473333 0.88900006 8752006
-0.42587334 -0.019473333 0.88900006 6713723
-0.42322573 -0.019429525 0.88700002 4676459
-0.42248669 -0.019473333 0.88900006 4871003
-0.41984668 -0.019429525 0.88700002 5068380
-0.41910002 -0.019473333 0.88900006 5199709
-0.41740671 -0.019473333 0.88900006 5331295
-0.41805145 -0.019582856 0.89400005 5462882
-0.41634858 -0.019582856 0.89400005 5594473
-0.41464573 -0.019582856 0.89400005 5529457
-0.41294289 -0.019582856 0.89400005 5529197
-0.41216001 -0.019626666 0.89600003 5463657
-0.41045335 -0.019626666 0.89600003 5463141
-0.40965906 -0.019670477 0.89800006 5397601
-0.40794861 -0.019670477 0.89800006 5397603
-0.40623811 -0.019670477 0.89800006 5397862
-0.40587905 -0.019736189 0.90100002 5397864
-0.40416285 -0.019736189 0.90100002 5397866
-0.40334001 -0.019780001 0.90300006 5463398
-0.40250954 -0.01982381 0.90500003 5528931
-0.40078571 -0.01982381 0.90500003 5594464
-0.40258953 -0.019999048 0.91300005 5725277
-0.40172857 -0.020042857 0.91500002 5922671
-0.40086001 -0.020086668 0.91700006 7176064
-0.39911336 -0.020086668 0.91700006 8420990
-0.39736667 -0.020086668 0.91700006 8289660
-0.39562002 -0.020086668 0.91700006 8224380
-0.39387333 -0.020086668 0.91700006 8158844
-0.39340955 -0.020152381 0.92000002 8158588
-0.3925086 -0.020196192 0.92200005 8093051
-0.39075238 -0.020196192 0.92200005 8027258
-0.39026192 -0.020261906 0.92500007 7961466
-0.38850001 -0.020261906 0.92500007 7961466
-0.38673812 -0.020261906 0.92500007 7961467
-0.38580859 -0.020305716 0.92700005 8026745
-0.38528574 -0.02037143 0.93000007 7961207
-0.38433906 -0.020415239 0.93200004 7961206
-0.3846162 -0.020524763 0.93700004 7961205
-0.38283145 -0.020524763 0.93700004 7960948
-0.38308001 -0.020634286 0.94200003 7960436
-0.38128573 -0.020634286 0.94200003 8026229
-0.38070002 -0.0207 0.94500005 7961206
-0.37890002 -0.0207 0.94500005 7960949
-0.37829718 -0.020765714 0.94800007 7960436
-0.37728572 -0.020809524 0.95000005 7960697
-0.37547621 -0.020809524 0.95000005 8224382
-0.37366667 -0.020809524 0.95000005 8487298
-0.37185714 -0.020809524 0.95000005 8423302
-0.37004763 -0.020809524 0.95000005 8422023
-0.52991998 -0.01792 0.89600003 7170129
-0.52821332 -0.01792 0.89600003 6709582
-0.52650666 -0.01792 0.89600003 6251113
-0.5248 -0.01792 0.89600003 7569540
-0.52309334 -0.01792 0.89600003 8883080
-0.52138668 -0.01792 0.89600003 8883340
-0.51968002 -0.01792 0.89600003 8949138
-0.51681715 -0.017880002 0.89400005 9080472
-0.51511431 -0.017880002 0.89400005 9212312
-0.51341146 -0.017880002 0.89400005 9278105
-0.51170856 -0.017880002 0.89400005 9344157
-0.51000577 -0.017880002 0.89400005 9278626
-0.50659716 -0.017820001 0.89100003 9278628
-0.50376666 -0.01778 0.88900006 9344167
-0.50207341 -0.01778 0.88900006 9474469
-0.49756575 -0.017680001 0.88400006 9606564
-0.49588192 -0.017680001 0.88400006 9738659
-0.49587524 -0.01774 0.88700002 9739170
-0.49251428 -0.017680001 0.88400006 9805217
-0.49083048 -0.017680001 0.88400006 9673121
-0.49080664 -0.01774 0.88700002 9606560
-0.48746288 -0.017680001 0.88400006 9541023
-0.48577908 -0.017680001 0.88400006 9474973
-0.48409528 -0.017680001 0.88400006 9343644
-0.48241147 -0.017680001 0.88400006 9212569
-0.48072764 -0.017680001 0.88400006 9212055
-0.47904384 -0.017680001 0.88400006 9211540
-0.47736001 -0.017680001 0.88400006 9145745
-0.47567621 -0.017680001 0.88400006 9080212
-0.47399241 -0.017680001 0.88400006 9080471
-0.47123998 -0.01764 0.88200003 9146519
-0.46956003 -0.01764 0.88200003 9146263
-0.46788001 -0.01764 0.88200003 9211798
-0.46619999 -0.01764 0.88200003 9146262
-0.46557334 -0.017680001 0.88400006 9080723
-0.46388957 -0.017680001 0.88400006 9146001
-0.46220574 -0.017680001 0.88400006 9145746
-0.46052194 -0.017680001 0.88400006 9146003
-0.45883811 -0.017680001 0.88400006 9080468
-0.4571543 -0.017680001 0.88400006 9080470
-0.45547053 -0.017680001 0.88400006 9145751
-0.4537867 -0.017680001 0.88400006 9145753
-0.4521029 -0.017680001 0.88400006 9211544
-0.45041907 -0.017680001 0.88400006 9146008
-0.44873527 -0.017680001 0.88400006 9080468
-0.44856858 -0.01774 0.88700002 9080209
-0.44687906 -0.01774 0.88700002 9080209
-0.44518954 -0.01774 0.88700002 9014417
-0.44350001 -0.01774 0.88700002 8948624
-0.44181046 -0.01774 0.88700002 8882832
-0.44012097 -0.01774 0.88700002 8817041
-0.43843144 -0.01774 0.88700002 8882835
-0.43674192 -0.01774 0.88700002 8948369
-0.43603334 -0.01778 0.88900006 8948368
-0.43434003 -0.01778 0.88900006 9013904
-0.43264669 -0.01778 0.88900006 8882576
-0.43095335 -0.01778 0.88900006 8685714
-0.42926002 -0.01778 0.88900006 8620436
-0.42756671 -0.01778 0.88900006 8555137
-0.42491525 -0.01774 0.88700002 6515311
-0.42322573 -0.01774 0.88700002 4543078
-0.42153618 -0.01774 0.88700002 4805726
-0.41984668 -0.01774 0.88700002 5068892
-0.41815713 -0.01774 0.88700002 5134171
-0.41740671 -0.01778 0.88900006 5200222
-0.4166486 -0.017820001 0.89100003 5331553
-0.41634858 -0.017880002 0.89400005 5463142
-0.41464573 -0.017880002 0.89400005 5463148
-0.41294289 -0.017880002 0.89400005 5463401
-0.41216001 -0.01792 0.89600003 5397607
-0.41045335 -0.01792 0.89600003 5331813
-0.40965906 -0.017960001 0.89800006 5397604
-0.40794861 -0.017960001 0.89800006 5397605
-0.40623811 -0.017960001 0.89800006 5397607
-0.40587905 -0.01802 0.90100002 5397611
-0.40506002 -0.018060001 0.90300006 5397871
-0.40423334 -0.018100001 0.90500003 5463657
-0.40250954 -0.018100001 0.90500003 5529187
-0.4021143 -0.01816 0.90800005 5594977
-0.40258953 -0.01826 0.91300005 5922655
-0.40172857 -0.018300001 0.91500002 6316657
-0.40086001 -0.018340001 0.91700006 7306883
-0.39911336 -0.018340001 0.91700006 8289920
-0.39736667 -0.018340001 0.91700006 8289661
-0.39562002 -0.018340001 0.91700006 8289916
-0.39387333 -0.018340001 0.91700006 8224380
-0.39340955 -0.0184 0.92000002 8158844
-0.3925086 -0.018440001 0.92200005 8093052
-0.39075238 -0.018440001 0.92200005 8027258
-0.38899621 -0.018440001 0.92200005 7961464
-0.38850001 -0.0185 0.92500007 7961466
-0.38673812 -0.0185 0.92500007 7961469
-0.38580859 -0.018540001 0.92700005 8026746
-0.3861143 -0.01864 0.93200004 7961207
-0.38557622 -0.018700002 0.93500006 7961207
-0.38379526 -0.018700002 0.93500006 7895671
-0.38283145 -0.01874 0.93700004 7895413
-0.3822667 -0.018800002 0.94000006 7895411
-0.38128573 -0.018840002 0.94200003 7960950
-0.37949142 -0.018840002 0.94200003 7960954
-0.37890002 -0.018900001 0.94500005 7960951
-0.37829718 -0.018960001 0.94800007 7895157
-0.37649146 -0.018960001 0.94800007 7895416
-0.37468576 -0.018960001 0.94800007 8027260
-0.37288001 -0.018960001 0.94800007 8224641
-0.37107429 -0.018960001 0.94800007 8158855
-0.3692686 -0.018960001 0.94800007 8158600
-0.52873713 -0.016177142 0.89400005 7170134
-0.52703434 -0.016177142 0.89400005 6381915
-0.52533144 -0.016177142 0.89400005 5658217
-0.52362859 -0.016177142 0.89400005 7240311
-0.52192575 -0.016177142 0.89400005 8816513
-0.52138668 -0.016213333 0.89600003 8883851
-0.51852006 -0.016177142 0.89400005 8949136
-0.51681715 -0.016177142 0.89400005 9014677
-0.51511431 -0.016177142 0.89400005 9146007
-0.51341146 -0.016177142 0.89400005 9212057
-0.51170856 -0.016177142 0.89400005 9277851
-0.50829434 -0.016122857 0.89100003 9278110
-0.50659716 -0.016122857 0.89100003 9278367
-0.50376666 -0.016086668 0.88900006 9278625
-0.50207341 -0.016086668 0.88900006 9343136
-0.49756575 -0.015996192 0.88400006 9343135
-0.49588192 -0.015996192 0.88400006 9409183
-0.49587524 -0.016050477 0.88700002 9475232
-0.49418572 -0.016050477 0.88700002 9541023
-0.49083048 -0.015996192 0.88400006 9475998
-0.48914671 -0.015996192 0.88400006 9475485
-0.48746288 -0.015996192 0.88400006 9409949
-0.48577908 -0.015996192 0.88400006 9409179
-0.48409528 -0.015996192 0.88400006 9278105
-0.48241147 -0.015996192 0.88400006 9212056
-0.48072764 -0.015996192 0.88400006 9146263
-0.47904384 -0.015996192 0.88400006 9146006
-0.47736001 -0.015996192 0.88400006 9080469
-0.47567621 -0.015996192 0.88400006 9080470
-0.47292 -0.01596 0.88200003 9080471
-0.47123998 -0.01596 0.88200003 9146263
-0.46956003 -0.01596 0.88200003 9211799
-0.46788001 -0.01596 0.88200003 9277334
-0.46619999 -0.01596 0.88200003 9146006
-0.46557334 -0.015996192 0.88400006 9080468
-0.46388957 -0.015996192 0.88400006 9080210
-0.46220574 -0.015996192 0.88400006 9145746
-0.46052194 -0.015996192 0.88400006 9080467
-0.45883811 -0.015996192 0.88400006 9080468
-0.4571543 -0.015996192 0.88400006 9080470
-0.45547053 -0.015996192 0.88400006 9146007
-0.4537867 -0.015996192 0.88400006 9211545
-0.4521029 -0.015996192 0.88400006 9277080
-0.45041907 -0.015996192 0.88400006 9146008
-0.44873527 -0.015996192 0.88400006 9080469
-0.44705144 -0.015996192 0.88400006 9080466
-0.44687906 -0.016050477 0.88700002 9080212
-0.44518954 -0.016050477 0.88700002 9014422
-0.44350001 -0.016050477 0.88700002 8948371
-0.44181046 -0.016050477 0.88700002 8817040
-0.44012097 -0.016050477 0.88700002 8751504
-0.43843144 -0.016050477 0.88700002 8817297
-0.43674192 -0.016050477 0.88700002 8882832
-0.43505239 -0.016050477 0.88700002 8883086
-0.43434003 -0.016086668 0.88900006 8948625
-0.43264669 -0.016086668 0.88900006 8817555
-0.43095335 -0.016086668 0.88900006 8685973
-0.42926002 -0.016086668 0.88900006 8489111
-0.42756671 -0.016086668 0.88900006 8357762
-0.42587334 -0.016086668 0.88900006 6382701
-0.42322573 -0.016050477 0.88700002 4411489
-0.42248669 -0.016086668 0.88900006 4740693
-0.41984668 -0.016050477 0.88700002 5133912
-0.41815713 -0.016050477 0.88700002 5134171
-0.41740671 -0.016086668 0.88900006 5134430
-0.4166486 -0.016122857 0.89100003 5200224
-0.41634858 -0.016177142 0.89400005 5331812
-0.41464573 -0.016177142 0.89400005 5397608
-0.41294289 -0.016177142 0.89400005 5463142
-0.41216001 -0.016213333 0.89600003 5332068
-0.41045335 -0.016213333 0.89600003 5266532
-0.40874669 -0.016213333 0.89600003 5332068
-0.40794861 -0.016249524 0.89800006 5463140
-0.40623811 -0.016249524 0.89800006 5397604
-0.40587905 -0.016303809 0.90100002 5397607
-0.40416285 -0.016303809 0.90100002 5397866
-0.40423334 -0.01637619 0.90500003 5463397
-0.40250954 -0.01637619 0.90500003 5529184
-0.4021143 -0.016430477 0.90800005 5594718
-0.40258953 -0.016520953 0.91300005 6184797
-0.40172857 -0.016557142 0.91500002 6776944
-0.40086001 -0.016593333 0.91700006 7437956
-0.39911336 -0.016593333 0.91700006 8158593
-0.39736667 -0.016593333 0.91700006 8289662
-0.39562002 -0.016593333 0.91700006 8420733
-0.39387333 -0.016593333 0.91700006 8289916
-0.39340955 -0.016647618 0.92000002 8158843
-0.3925086 -0.016683811 0.92200005 8093051
-0.39075238 -0.016683811 0.92200005 8027255
-0.38899621 -0.016683811 0.92200005 8026996
-0.38724002 -0.016683811 0.92200005 8027001
-0.38673812 -0.016738096 0.92500007 8027006
-0.38580859 -0.016774286 0.92700005 8026745
-0.38528574 -0.016828572 0.93000007 7961204
-0.38433906 -0.016864762 0.93200004 7961204
-0.38379526 -0.016919049 0.93500006 7895669
-0.38283145 -0.01695524 0.93700004 7830132
-0.3822667 -0.017009525 0.94000006 7895667
-0.38128573 -0.017045714 0.94200003 7960949
-0.38070002 -0.017100001 0.94500005 7961207
-0.37890002 -0.017100001 0.94500005 7960694
-0.37829718 -0.017154286 0.94800007 7894901
-0.37649146 -0.017154286 0.94800007 7894905
-0.37547621 -0.017190477 0.95000005 7895933
-0.37288001 -0.017154286 0.94800007 7961469
-0.37185714 -0.017190477 0.95000005 7896190
-0.37004763 -0.017190477 0.95000005 7896451
-0.52873713 -0.014474287 0.89400005 7235932
-0.52821332 -0.014506667 0.89600003 6117481
-0.52533144 -0.014474287 0.89400005 5065577
-0.52362859 -0.014474287 0.89400005 6712938
-0.52309334 -0.014506667 0.89600003 8422522
-0.52138668 -0.014506667 0.89600003 8621194
-0.51968002 -0.014506667 0.89600003 8817550
-0.51681715 -0.014474287 0.89400005 8948883
-0.51511431 -0.014474287 0.89400005 9079958
-0.51341146 -0.014474287 0.89400005 9145754
-0.51170856 -0.014474287 0.89400005 9211546
-0.50829434 -0.014425715 0.89100003 9212058
-0.50659716 -0.014425715 0.89100003 9212315
-0.50263333 -0.014360953 0.88700002 9212060
-0.50094384 -0.014360953 0.88700002 9277595
-0.49756575 -0.014312382 0.88400006 9277595
-0.49588192 -0.014312382 0.88400006 9342620
-0.49419811 -0.014312382 0.88400006 9277854
-0.49251428 -0.014312382 0.88400006 9277853
-0.49083048 -0.014312382 0.88400006 9278108
-0.48914671 -0.014312382 0.88400006 9278363
-0.48746288 -0.014312382 0.88400006 9278107
-0.48577908 -0.014312382 0.88400006 9277849
-0.48409528 -0.014312382 0.88400006 9212055
-0.48132002 -0.014280001 0.88200003 9146007
-0.48072764 -0.014312382 0.88400006 9146007
-0.47904384 -0.014312382 0.88400006 9146008
-0.47628 -0.014280001 0.88200003 9146010
-0.47567621 -0.014312382 0.88400006 9146008
-0.47292 -0.014280001 0.88200003 9146007
-0.47123998 -0.014280001 0.88200003 9146263
-0.46956003 -0.014280001 0.88200003 9146263
-0.46788001 -0.014280001 0.88200003 9146519
-0.46619999 -0.014280001 0.88200003 9146263
-0.46557334 -0.014312382 0.88400006 9080469
-0.46388957 -0.014312382 0.88400006 9080468
-0.46220574 -0.014312382 0.88400006 9146003
-0.46052194 -0.014312382 0.88400006 9080467
-0.45883811 -0.014312382 0.88400006 9014932
-0.4571543 -0.014312382 0.88400006 9080470
-0.45547053 -0.014312382 0.88400006 9080472
-0.4537867 -0.014312382 0.88400006 9146010
-0.4521029 -0.014312382 0.88400006 9211801
-0.45041907 -0.014312382 0.88400006 9145752
-0.44873527 -0.014312382 0.88400006 9080213
-0.44856858 -0.014360953 0.88700002 9080211
-0.44687906 -0.014360953 0.88700002 9145751
-0.44518954 -0.014360953 0.88700002 9014427
-0.44350001 -0.014360953 0.88700002 8882837
-0.44181046 -0.014360953 0.88700002 8817040
-0.44012097 -0.014360953 0.88700002 8817296
-0.43843144 -0.014360953 0.88700002 8817552
-0.43674192 -0.014360953 0.88700002 8883598
-0.43505239 -0.014360953 0.88700002 8883085
-0.43336287 -0.014360953 0.88700002 8883090
-0.43264669 -0.014393334 0.88900006 8817559
-0.43095335 -0.014393334 0.88900006 8818584
-0.42926002 -0.014393334 0.88900006 8292506
-0.42756671 -0.014393334 0.88900006 7832706
-0.42491525 -0.014360953 0.88700002 6052715
-0.42418003 -0.014393334 0.88900006 4345692
-0.42248669 -0.014393334 0.88900006 4674637
-0.42079335 -0.014393334 0.88900006 5002836
-0.41910002 -0.014393334 0.88900006 5133916
-0.41834575 -0.014425715 0.89100003 5264990
-0.41805145 -0.014474287 0.89400005 5331040
-0.41634858 -0.014474287 0.89400005 5462882
-0.41557336 -0.014506667 0.89600003 5397348
-0.4138667 -0.014506667 0.89600003 5397602
-0.41216001 -0.014506667 0.89600003 5332065
-0.41045335 -0.014506667 0.89600003 5332066
-0.40965906 -0.014539048 0.89800006 5397348
-0.40794861 -0.014539048 0.89800006 5462883
-0.40623811 -0.014539048 0.89800006 5397602
-0.40587905 -0.014587619 0.90100002 5397859
-0.40416285 -0.014587619 0.90100002 5397605
-0.40334001 -0.01462 0.90300006 5397601
-0.40162 -0.01462 0.90300006 5331805
-0.4021143 -0.014700953 0.90800005 5331804
-0.40347144 -0.014814286 0.91500002 6317403
-0.40172857 -0.014814286 0.91500002 7302768
-0.40086001 -0.014846667 0.91700006 7700614
-0.39911336 -0.014846667 0.91700006 8159619
-0.39736667 -0.014846667 0.91700006 8224128
-0.39562002 -0.014846667 0.91700006 8355198
-0.39387333 -0.014846667 0.91700006 8224125
-0.39212668 -0.014846667 0.91700006 8093307
-0.39165714 -0.014895238 0.92000002 8093050
-0.38990474 -0.014895238 0.92000002 8092789
-0.38899621 -0.014927619 0.92200005 8026992
-0.38724002 -0.014927619 0.92200005 8026743
-0.38673812 -0.014976191 0.92500007 8026751
-0.38497621 -0.014976191 0.92500007 8026744
-0.38528574 -0.015057144 0.93000007 7961201
-0.38351431 -0.015057144 0.93000007 7961202
-0.38379526 -0.015138096 0.93500006 7895668
-0.38283145 -0.015170476 0.93700004 7895668
-0.38308001 -0.015251428 0.94200003 7895668
-0.38128573 -0.015251428 0.94200003 7895412
-0.38070002 -0.0153 0.94500005 7961204
-0.37890002 -0.0153 0.94500005 8026229
-0.37829718 -0.015348572 0.94800007 7894902
-0.37649146 -0.015348572 0.94800007 7829114
-0.37547621 -0.015380953 0.95000005 7894654
-0.37366667 -0.015380953 0.95000005 7960442
-0.37185714 -0.015380953 0.95000005 7896438
-0.37004763 -0.015380953 0.95000005 7831167
-0.52703434 -0.012771429 0.89400005 5853286
-0.52533144 -0.012771429 0.89400005 4475236
-0.52362859 -0.012771429 0.89400005 6251363
-0.52309334 -0.012800001 0.89600003 8092533
-0.52138668 -0.012800001 0.89600003 8358791
-0.51852006 -0.012771429 0.89400005 8686476
-0.51681715 -0.012771429 0.89400005 8817808
-0.51511431 -0.012771429 0.89400005 9014418
-0.51168859 -0.012728572 0.89100003 9080213
-0.50999147 -0.012728572 0.89100003 9146006
-0.50829434 -0.012728572 0.89100003 9146263
-0.50546002 -0.012700001 0.88900006 9211800
-0.50263333 -0.012671429 0.88700002 9212057
-0.50094384 -0.012671429 0.88700002 9212057
-0.49756575 -0.012628572 0.88400006 9212057
-0.49588192 -0.012628572 0.88400006 9277081
-0.49419811 -0.012628572 0.88400006 9146778
-0.49418572 -0.012671429 0.88700002 9080986
-0.49249622 -0.012671429 0.88700002 9080730
-0.48914671 -0.012628572 0.88400006 9146521
-0.48746288 -0.012628572 0.88400006 9146777
-0.48577908 -0.012628572 0.88400006 9212312
-0.48409528 -0.012628572 0.88400006 9146262
-0.48132002 -0.0126 0.88200003 9146262
-0.47964001 -0.0126 0.88200003 9146262
-0.47795999 -0.0126 0.88200003 9211543
-0.47628 -0.0126 0.88200003 9211288
-0.47460002 -0.0126 0.88200003 9211542
-0.47292 -0.0126 0.88200003 9146261
-0.47123998 -0.0126 0.88200003 9146262
-0.46956003 -0.0126 0.88200003 9080728
-0.46788001 -0.0126 0.88200003 9080726
-0.46619999 -0.0126 0.88200003 9080981
-0.46452001 -0.0126 0.88200003 9146002
-0.46388957 -0.012628572 0.88400006 9146256
-0.46220574 -0.012628572 0.88400006 9146000
-0.46052194 -0.012628572 0.88400006 9080977
-0.45883811 -0.012628572 0.88400006 9015186
-0.4571543 -0.012628572 0.88400006 9015187
-0.45547053 -0.012628572 0.88400006 9080724
-0.4537867 -0.012628572 0.88400006 9080982
-0.4521029 -0.012628572 0.88400006 9146006
-0.45041907 -0.012628572 0.88400006 9080214
-0.44873527 -0.012628572 0.88400006 9080212
-0.44856858 -0.012671429 0.88700002 9145746
-0.44687906 -0.012671429 0.88700002 9276565
-0.44518954 -0.012671429 0.88700002 9014424
-0.44350001 -0.012671429 0.88700002 8817043
-0.44181046 -0.012671429 0.88700002 8882574
-0.44012097 -0.012671429 0.88700002 8948369
-0.43843144 -0.012671429 0.88700002 8883349
-0.43674192 -0.012671429 0.88700002 8883345
-0.43505239 -0.012671429 0.88700002 8883341
-0.43434003 -0.012700001 0.88900006 8883087
-0.43264669 -0.012700001 0.88900006 8883345
-0.43095335 -0.012700001 0.88900006 8948884
-0.42926002 -0.012700001 0.88900006 8096151
-0.42756671 -0.012700001 0.88900006 7307132
-0.42587334 -0.012700001 0.88900006 5788513
-0.42418003 -0.012700001 0.88900006 4280666
-0.42248669 -0.012700001 0.88900006 4608852
-0.42174003 -0.012728572 0.89100003 4936534
-0.42004287 -0.012728572 0.89100003 5133144
-0.41975433 -0.012771429 0.89400005 5395804
-0.41805145 -0.012771429 0.89400005 5462113
-0.41634858 -0.012771429 0.89400005 5593952
-0.41557336 -0.012800001 0.89600003 5462880
-0.4138667 -0.012800001 0.89600003 5331807
-0.41216001 -0.012800001 0.89600003 5397086
-0.41045335 -0.012800001 0.89600003 5463135
-0.40965906 -0.012828573 0.89800006 5462881
-0.40794861 -0.012828573 0.89800006 5528674
-0.40623811 -0.012828573 0.89800006 5463395
-0.40587905 -0.012871428 0.90100002 5397861
-0.40281719 -0.012828573 0.89800006 5397606
-0.40423334 -0.012928572 0.90500003 5397604
-0.40162 -0.0129 0.90300006 5200481
-0.40078571 -0.012928572 0.90500003 5069153
-0.40347144 -0.013071429 0.91500002 6450018
-0.4026067 -0.013100001 0.91700006 7827828
-0.40086001 -0.013100001 0.91700006 7963271
-0.39911336 -0.013100001 0.91700006 8159363
-0.39736667 -0.013100001 0.91700006 8224384
-0.39562002 -0.013100001 0.91700006 8289663
-0.39387333 -0.013100001 0.91700006 8158590
-0.39212668 -0.013100001 0.91700006 8093052
-0.39165714 -0.013142857 0.92000002 8093051
-0.39075238 -0.013171429 0.92200005 8158327
-0.38899621 -0.013171429 0.92200005 8092786
-0.38724002 -0.013171429 0.92200005 8026743
-0.38673812 -0.013214286 0.92500007 8026748
-0.38580859 -0.013242858 0.92700005 8092279
-0.38528574 -0.013285715 0.93000007 8026739
-0.38433906 -0.013314286 0.93200004 7961204
-0.38379526 -0.013357143 0.93500006 7961206
-0.38283145 -0.013385714 0.93700004 7961205
-0.38430002 -0.013500001 0.94500005 7895669
-0.38128573 -0.013457143 0.94200003 7895412
-0.38070002 -0.013500001 0.94500005 8026739
-0.38010287 -0.013542858 0.94800007 8157299
-0.37829718 -0.013542858 0.94800007 7960436
-0.37649146 -0.013542858 0.94800007 7763830
-0.37547621 -0.013571429 0.95000005 7894904
-0.37366667 -0.013571429 0.95000005 8026996
-0.37303144 -0.013614287 0.95300007 7896944
-0.37121624 -0.013614287 0.95300007 7828849
-0.52703434 -0.011068572 0.89400005 5919331
-0.52533144 -0.011068572 0.89400005 4606047
-0.5248 -0.011093334 0.89600003 5790044
-0.52309334 -0.011093334 0.89600003 7041648
-0.52138668 -0.011093334 0.89600003 7898501
-0.51852006 -0.011068572 0.89400005 8818313
-0.51681715 -0.011068572 0.89400005 8883342
-0.51511431 -0.011068572 0.89400005 8948623
-0.51341146 -0.011068572 0.89400005 9014160
-0.50999147 -0.011031428 0.89100003 9079698
-0.50829434 -0.011031428 0.89100003 9079956
-0.50659716 -0.011031428 0.89100003 9145749
-0.50263333 -0.010981904 0.88700002 9146007
-0.50094384 -0.010981904 0.88700002 9146263
-0.49756575 -0.010944762 0.88400006 9211543
-0.49588192 -0.010944762 0.88400006 9277078
-0.49587524 -0.010981904 0.88700002 9146006
-0.49418572 -0.010981904 0.88700002 9014935
-0.49249622 -0.010981904 0.88700002 9014936
-0.48914671 -0.010944762 0.88400006 9080728
-0.48746288 -0.010944762 0.88400006 9146520
-0.48577908 -0.010944762 0.88400006 9146775
-0.48409528 -0.010944762 0.88400006 9212054
-0.48132002 -0.01092 0.88200003 9277589
-0.47964001 -0.01092 0.88200003 9211797
-0.47795999 -0.01092 0.88200003 9146261
-0.47628 -0.01092 0.88200003 9146262
