# .PCD v0.7 - Point Cloud Data file format
VERSION 0.7
FIELDS x y z normal_x normal_y normal_z curvature
SIZE 4 4 4 4 4 4 4
TYPE F F F F F F F
COUNT 1 1 1 1 1 1 1
WIDTH 728
HEIGHT 1
VIEWPOINT 0 0 0 1 0 0 0
POINTS 728
DATA ascii
0.057517145 0.063128576 1.473 -0.60673034 0.25313222 -0.75352663 nan
0.060077146 0.062871434 1.4670001 -0.5379563 0.24963443 -0.80516189 nan
0.062871434 0.062871434 1.4670001 -0.45409906 0.2713865 -0.84861261 nan
0.065665722 0.062871434 1.4670001 -0.44722697 0.25060865 -0.85859382 nan
0.068460003 0.062871434 1.4670001 -0.40596688 0.23558743 -0.88300025 nan
0.071254291 0.062871434 1.4670001 -0.39788353 0.21590658 -0.89166868 nan
0.074048579 0.062871434 1.4670001 -0.32509744 0.20008099 -0.9242723 nan
0.076842859 0.062871434 1.4670001 -0.2160024 0.20553491 -0.95451474 nan
0.079637155 0.062871434 1.4670001 -0.20624362 0.20603159 -0.95656395 nan
0.082094289 0.062614284 1.4610001 -0.22675581 0.19570248 -0.9540872 nan
0.084877141 0.062614284 1.4610001 -0.21746379 0.18631764 -0.9581207 nan
0.087660007 0.062614284 1.4610001 -0.19745384 0.18702108 -0.96230716 nan
0.090442859 0.062614284 1.4610001 -0.15778582 0.15781192 -0.97478151 nan
0.093225725 0.062614284 1.4610001 -0.17941953 0.13703939 -0.97418112 nan
0.096008576 0.062614284 1.4610001 -0.23118457 0.1258375 -0.96473759 nan
0.098791428 0.062614284 1.4610001 -0.23143615 0.12597528 -0.96465927 nan
0.10157429 0.062614284 1.4610001 -0.26182875 0.12539428 -0.95693362 nan
0.10435715 0.062614284 1.4610001 -0.32879725 0.14361885 -0.93341631 nan
0.1067 0.062357143 1.455 -0.36471194 0.16192427 -0.91693276 nan
0.10947143 0.062357143 1.455 -0.33677521 0.17335744 -0.92548889 nan
0.11224286 0.062357143 1.455 -0.28734031 0.20524777 -0.93557942 nan
0.11501429 0.062357143 1.455 -0.22774458 0.21752281 -0.94911337 nan
0.1173 0.062100001 1.4490001 -0.12479257 0.23943162 -0.96285999 nan
0.12006001 0.062100001 1.4490001 0.13454072 0.30636233 -0.94235921 nan
0.12282001 0.062100001 1.4490001 0.18445177 0.29250064 -0.93830746 nan
0.12558001 0.062100001 1.4490001 0.50250399 0.28528655 -0.81615031 nan
0.12887143 0.062357143 1.455 0.62827617 0.16775838 -0.75968826 nan
0.13164286 0.062357143 1.455 0.759009 0.22916025 -0.60941851 nan
0.13496858 0.062614284 1.4610001 0.78389215 0.20457949 -0.58622545 nan
0.13831715 0.062871434 1.4670001 0.80753291 0.18022352 -0.5616138 nan
0.14168859 0.063128576 1.473 0.81287634 0 -0.58243626 nan
0.1444943 0.063128576 1.473 nan nan nan nan
0.148 0.063428566 1.48 nan nan nan nan
0.15081905 0.063428566 1.48 nan nan nan nan
0.038365718 0.066784769 1.4920001 nan nan nan nan
0.041041907 0.066516191 1.4860001 nan nan nan nan
0.043872382 0.066516191 1.4860001 nan nan nan nan
0.046702858 0.066516191 1.4860001 -0.48693711 0.29214483 -0.82313043 nan
0.04933333 0.06624762 1.48 -0.5673399 0.36178726 -0.7397536 nan
0.052152384 0.06624762 1.48 -0.61309409 0.36170992 -0.70234007 nan
0.05497143 0.06624762 1.48 -0.66406614 0.29025719 -0.68903333 nan
0.057517145 0.065934286 1.473 -0.59761125 0.29602396 -0.74513799 nan
0.060322858 0.065934286 1.473 -0.55233496 0.28058007 -0.78498465 nan
0.062871434 0.065665722 1.4670001 -0.46213663 0.29143885 -0.83755189 nan
0.065665722 0.065665722 1.4670001 -0.45891747 0.28325093 -0.84211856 nan
0.068460003 0.065665722 1.4670001 -0.41948292 0.26983312 -0.86673188 nan
0.071254291 0.065665722 1.4670001 -0.41216555 0.25121871 -0.87579036 nan
0.074048579 0.065665722 1.4670001 -0.33183175 0.23825121 -0.91275626 nan
0.076842859 0.065665722 1.4670001 -0.21411553 0.2343629 -0.94827664 nan
0.079637155 0.065665722 1.4670001 -0.2044294 0.23490824 -0.95027721 nan
0.082431436 0.065665722 1.4670001 -0.22422032 0.2342945 -0.94595528 nan
0.084877141 0.065397151 1.4610001 -0.21450545 0.23486276 -0.9480648 nan
0.087660007 0.065397151 1.4610001 -0.21518853 0.22544193 -0.95019466 nan
0.090442859 0.065397151 1.4610001 -0.18729463 0.18732557 -0.96427685 nan
0.093225725 0.065397151 1.4610001 -0.18886985 0.15723971 -0.96933168 nan
0.096008576 0.065397151 1.4610001 -0.22971639 0.15639484 -0.96060973 nan
0.098791428 0.065397151 1.4610001 -0.22996974 0.15654129 -0.96052521 nan
0.10157429 0.065397151 1.4610001 -0.24972276 0.16621052 -0.95394582 nan
0.10435715 0.065397151 1.4610001 -0.30702859 0.18398811 -0.9337461 nan
0.1067 0.065128572 1.455 -0.35222489 0.20106249 -0.91406322 nan
0.10947143 0.065128572 1.455 -0.32491964 0.20298404 -0.92370164 nan
0.11224286 0.065128572 1.455 -0.27601415 0.22501497 -0.93444341 nan
0.11501429 0.065128572 1.455 -0.21640787 0.23720405 -0.94704902 nan
0.1173 0.064860001 1.4490001 -0.10346098 0.25879735 -0.96037477 nan
0.12006001 0.064860001 1.4490001 0.13256642 0.33848396 -0.93158722 nan
0.12332858 0.065128572 1.455 0.16277094 0.38564995 -0.90817386 nan
0.1261 0.065128572 1.455 0.47219941 0.37546238 -0.79753101 nan
0.12887143 0.065128572 1.455 0.61164695 0.31611732 -0.72522956 nan
0.13218573 0.065397151 1.4610001 0.7505309 0.27065137 -0.60286915 nan
0.13552287 0.065665722 1.4670001 0.79655176 0.1977822 -0.57130337 nan
0.13831715 0.065665722 1.4670001 0.82040203 0.26487729 -0.50673515 nan
0.14168859 0.065934286 1.473 0.78185898 0.27425924 -0.5598914 nan
0.14518096 0.06624762 1.48 nan nan nan nan
0.1486 0.066516191 1.4860001 nan nan nan nan
0.15143049 0.066516191 1.4860001 nan nan nan nan
0.038365718 0.069626667 1.4920001 nan nan nan nan
0.041041907 0.069346666 1.4860001 nan nan nan nan
0.043872382 0.069346666 1.4860001 nan nan nan nan
0.046702858 0.069346666 1.4860001 -0.40599096 0.30412313 -0.86178911 nan
0.049533334 0.069346666 1.4860001 -0.49118111 0.33024973 -0.80602497 nan
0.052152384 0.069066674 1.48 -0.61046189 0.35828498 -0.70637679 nan
0.05497143 0.069066674 1.48 -0.66610068 0.32279953 -0.67239153 nan
0.057790477 0.069066674 1.48 -0.58641696 0.3416011 -0.73445481 nan
0.060322858 0.068740003 1.473 -0.54720604 0.30424976 -0.779742 nan
0.062871434 0.068460003 1.4670001 -0.45913061 0.3140859 -0.83099288 nan
0.065665722 0.068460003 1.4670001 -0.46634695 0.29242599 -0.8348698 nan
0.068460003 0.068460003 1.4670001 -0.43549272 0.27857947 -0.85600209 nan
0.071254291 0.068460003 1.4670001 -0.42866215 0.26043135 -0.86511517 nan
0.074048579 0.068460003 1.4670001 -0.35075891 0.24854912 -0.90287954 nan
0.076842859 0.068460003 1.4670001 -0.22521791 0.2353123 -0.94546551 nan
0.079637155 0.068460003 1.4670001 -0.20483387 0.22522125 -0.95253265 nan
0.082431436 0.068460003 1.4670001 -0.22467157 0.22463459 -0.94818878 nan
0.084877141 0.068180002 1.4610001 -0.22479337 0.22480255 -0.94812012 nan
0.087660007 0.068180002 1.4610001 -0.24510908 0.21452932 -0.94546217 nan
0.090442859 0.068180002 1.4610001 -0.22680262 0.1959634 -0.95402247 nan
0.093225725 0.068180002 1.4610001 -0.2086506 0.16682222 -0.96365726 nan
0.096008576 0.068180002 1.4610001 -0.22956824 0.15630913 -0.96065909 nan
0.098791428 0.068180002 1.4610001 -0.21970357 0.15672167 -0.96289599 nan
0.10157429 0.068180002 1.4610001 -0.22952253 0.1667262 -0.95891696 nan
0.10435715 0.068180002 1.4610001 -0.28766787 0.1847567 -0.93974048 nan
0.10714 0.068180002 1.4610001 -0.34368467 0.19189835 -0.9192692 nan
0.10992286 0.068180002 1.4610001 -0.31607032 0.19369434 -0.92875296 nan
0.11224286 0.067900002 1.455 -0.25711593 0.21610124 -0.94190854 nan
0.11501429 0.067900002 1.455 -0.19626817 0.237747 -0.95129132 nan
0.11778571 0.067900002 1.455 -0.082818247 0.25882742 -0.96236664 nan
0.12006001 0.067620009 1.4490001 0.09047319 0.28293172 -0.95486349 nan
0.12332858 0.067900002 1.455 0.3336446 0.34607655 -0.87687647 nan
0.1261 0.067900002 1.455 0.36445424 0.37929788 -0.85047412 nan
0.12887143 0.067900002 1.455 0.65917718 0.30095786 -0.68913698 nan
0.13218573 0.068180002 1.4610001 0.70243722 0.30547276 -0.64285952 nan
0.13496858 0.068180002 1.4610001 0.79243499 0.25000307 -0.55636793 nan
0.13888286 0.068740003 1.473 0.80887282 0.2715548 -0.52151966 nan
0.14236189 0.069066674 1.48 0.81235087 0.33855203 -0.47483528 nan
0.14576954 0.069346666 1.4860001 nan nan nan nan
0.1486 0.069346666 1.4860001 nan nan nan nan
0.15204191 0.069626667 1.4920001 nan nan nan nan
0.038365718 0.072468571 1.4920001 nan nan nan nan
0.041041907 0.072177142 1.4860001 nan nan nan nan
0.043872382 0.072177142 1.4860001 nan nan nan nan
0.046702858 0.072177142 1.4860001 -0.32529914 0.21676864 -0.92043024 nan
0.049533334 0.072177142 1.4860001 -0.45040166 0.28141201 -0.84731674 nan
0.052152384 0.07188572 1.48 -0.57469553 0.33529755 -0.74652565 nan
0.05497143 0.07188572 1.48 -0.64901102 0.34473702 -0.67818958 nan
0.057790477 0.07188572 1.48 -0.57806814 0.37129021 -0.72662288 nan
0.060322858 0.071545713 1.473 -0.53833836 0.34243098 -0.77002132 nan
0.062871434 0.071254291 1.4670001 -0.46496001 0.33304814 -0.82029939 nan
0.065665722 0.071254291 1.4670001 -0.47261402 0.30025461 -0.82854277 nan
0.068460003 0.071254291 1.4670001 -0.44974345 0.2938748 -0.84342659 nan
0.071254291 0.071254291 1.4670001 -0.44344941 0.27635264 -0.85263228 nan
0.074048579 0.071254291 1.4670001 -0.36815026 0.26582918 -0.89095467 nan
0.076842859 0.071254291 1.4670001 -0.24670464 0.24505311 -0.93759573 nan
0.079637155 0.071254291 1.4670001 -0.2161478 0.22466156 -0.95016176 nan
0.082431436 0.071254291 1.4670001 -0.22450335 0.22450335 -0.94825971 nan
0.085225724 0.071254291 1.4670001 -0.22462496 0.22467113 -0.94819117 nan
0.088020004 0.071254291 1.4670001 -0.24427643 0.22401933 -0.94347459 nan
0.090814292 0.071254291 1.4670001 -0.2347125 0.22460923 -0.94575936 nan
0.093225725 0.070962861 1.4610001 -0.22708206 0.19596082 -0.95395654 nan
0.096008576 0.070962861 1.4610001 -0.23840791 0.17599912 -0.95508426 nan
0.098791428 0.070962861 1.4610001 -0.21858759 0.17676419 -0.95967382 nan
0.10157429 0.070962861 1.4610001 -0.21877225 0.17691462 -0.95960402 nan
0.10435715 0.070962861 1.4610001 -0.27710381 0.19483176 -0.9408794 nan
0.10714 0.070962861 1.4610001 -0.34260052 0.20133582 -0.91765398 nan
0.10992286 0.070962861 1.4610001 -0.3048335 0.2133407 -0.92820382 nan
0.11270572 0.070962861 1.4610001 -0.23585492 0.23598067 -0.94270122 nan
0.11548858 0.070962861 1.4610001 -0.17474492 0.25727898 -0.95040607 nan
0.11778571 0.070671432 1.455 -0.051568877 0.2680715 -0.96201783 nan
0.12055714 0.070671432 1.455 0.1399734 0.29793647 -0.94426757 nan
0.12332858 0.070671432 1.455 0.36407086 0.34201065 -0.86630315 nan
0.1261 0.070671432 1.455 0.37875399 0.36675614 -0.84972662 nan
0.12940286 0.070962861 1.4610001 0.65763634 0.33622187 -0.67414337 nan
0.13218573 0.070962861 1.4610001 0.68624026 0.34111905 -0.64242673 nan
0.13552287 0.071254291 1.4670001 0.78892642 0.26991221 -0.55203485 nan
0.13888286 0.071545713 1.473 0.81790149 0.24244282 -0.52178407 nan
0.14236189 0.07188572 1.48 0.86742383 0.14463024 -0.47608611 nan
0.14576954 0.072177142 1.4860001 nan nan nan nan
0.14920001 0.072468571 1.4920001 nan nan nan nan
0.15204191 0.072468571 1.4920001 nan nan nan nan
0.038365718 0.075310476 1.4920001 nan nan nan nan
0.041041907 0.075007625 1.4860001 nan nan nan nan
0.044049527 0.075310476 1.4920001 nan nan nan nan
0.046702858 0.075007625 1.4860001 -0.23092824 0 -0.97297078 nan
0.049533334 0.075007625 1.4860001 -0.36453396 0.18233594 -0.91316408 nan
0.052363813 0.075007625 1.4860001 -0.50909811 0.28343567 -0.81270123 nan
0.05497143 0.074704766 1.48 -0.61852038 0.31812853 -0.71848923 nan
0.057790477 0.074704766 1.48 -0.57097042 0.35824737 -0.73868233 nan
0.060322858 0.07435143 1.473 -0.5352698 0.3534047 -0.76719707 nan
0.063128576 0.07435143 1.473 -0.47237426 0.34202147 -0.81233239 nan
0.065934286 0.07435143 1.473 -0.46283564 0.31956434 -0.82683843 nan
0.068740003 0.07435143 1.473 -0.45432779 0.31900522 -0.83175832 nan
0.071254291 0.074048579 1.4670001 -0.45441976 0.30921352 -0.8353979 nan
0.07435143 0.07435143 1.473 -0.38894176 0.30828214 -0.86815113 nan
0.076842859 0.074048579 1.4670001 -0.27333897 0.29145211 -0.91670138 nan
0.079637155 0.074048579 1.4670001 -0.22377838 0.27383405 -0.93538129 nan
0.082431436 0.074048579 1.4670001 -0.22160459 0.26349112 -0.93886304 nan
0.085225724 0.074048579 1.4670001 -0.22251447 0.25287324 -0.94156384 nan
0.088020004 0.074048579 1.4670001 -0.24200225 0.25214121 -0.93694168 nan
0.090814292 0.074048579 1.4670001 -0.25180173 0.25183287 -0.93443894 nan
0.093225725 0.07374572 1.4610001 -0.25438073 0.22367619 -0.94088227 nan
0.096008576 0.07374572 1.4610001 -0.24628904 0.20506671 -0.94725358 nan
0.098791428 0.07374572 1.4610001 -0.21737701 0.19654207 -0.9560954 nan
0.10157429 0.07374572 1.4610001 -0.20798784 0.18713786 -0.96006274 nan
0.10435715 0.07374572 1.4610001 -0.25738749 0.19556218 -0.94631237 nan
0.10714 0.07374572 1.4610001 -0.3230823 0.21192375 -0.92233735 nan
0.10992286 0.07374572 1.4610001 -0.28399333 0.23334736 -0.92999828 nan
0.11270572 0.07374572 1.4610001 -0.21449862 0.2556223 -0.94268107 nan
0.11548858 0.07374572 1.4610001 -0.16338503 0.27616975 -0.94711965 nan
0.11827143 0.07374572 1.4610001 -0.030828597 0.27704158 -0.96036327 nan
0.12055714 0.073442861 1.455 0.17861217 0.30364004 -0.9358955 nan
0.12383715 0.07374572 1.4610001 0.39360443 0.33478269 -0.85615194 nan
0.12662001 0.07374572 1.4610001 0.41170114 0.37194476 -0.8319611 nan
0.12940286 0.07374572 1.4610001 0.67842287 0.30761692 -0.6671688 nan
0.13272858 0.074048579 1.4670001 0.69924659 0.32518288 -0.63663983 nan
0.13552287 0.074048579 1.4670001 0.79074371 0.28528941 -0.54160351 nan
0.13888286 0.07435143 1.473 0.81900388 0.24102752 -0.52070946 nan
0.14236189 0.074704766 1.48 0.87298703 0.099672034 -0.4774507 nan
0.14576954 0.075007625 1.4860001 nan nan nan nan
0.14920001 0.075310476 1.4920001 nan nan nan nan
0.15204191 0.075310476 1.4920001 nan nan nan nan
0.035523813 0.078152388 1.4920001 nan nan nan nan
0.038365718 0.078152388 1.4920001 nan nan nan nan
0.041041907 0.0778381 1.4860001 nan nan nan nan
0.043872382 0.0778381 1.4860001 -0.25245851 -0.25284034 -0.93398952 nan
0.046702858 0.0778381 1.4860001 -0.11724115 -0.11724112 -0.98615873 nan
0.049533334 0.0778381 1.4860001 -0.25467879 0.12738757 -0.95859849 nan
0.052363813 0.0778381 1.4860001 -0.4595798 0.22051699 -0.86032474 nan
0.055194288 0.0778381 1.4860001 -0.58443511 0.26341748 -0.7674939 nan
0.057790477 0.077523813 1.48 -0.5703544 0.31573144 -0.75829381 nan
0.060322858 0.07715714 1.473 -0.52807409 0.34428835 -0.77627528 nan
0.063128576 0.07715714 1.473 -0.47393301 0.33242837 -0.81540108 nan
0.065934286 0.07715714 1.473 -0.46337807 0.32043698 -0.82619661 nan
0.068740003 0.07715714 1.473 -0.4557887 0.32093242 -0.83021623 nan
0.071545713 0.07715714 1.473 -0.45444405 0.3191655 -0.83163333 nan
0.07435143 0.07715714 1.473 -0.39748815 0.31762445 -0.86088204 nan
0.076842859 0.076842859 1.4670001 -0.29303083 0.30125615 -0.90740162 nan
0.079637155 0.076842859 1.4670001 -0.24473259 0.2844291 -0.92693371 nan
0.082431436 0.076842859 1.4670001 -0.24364339 0.26368734 -0.93333107 nan
0.085225724 0.076842859 1.4670001 -0.23429541 0.24283254 -0.94134903 nan
0.088020004 0.076842859 1.4670001 -0.24254492 0.24262969 -0.93930972 nan
0.090814292 0.076842859 1.4670001 -0.26270062 0.23243603 -0.9364624 nan
0.093608581 0.076842859 1.4670001 -0.27410293 0.21307874 -0.93779796 nan
0.096402861 0.076842859 1.4670001 -0.26547942 0.20414849 -0.94225478 nan
0.099197149 0.076842859 1.4670001 -0.23760685 0.18597904 -0.95339119 nan
0.10157429 0.076528572 1.4610001 -0.21837577 0.17685427 -0.95970547 nan
0.10435715 0.076528572 1.4610001 -0.24855538 0.17608868 -0.95247728 nan
0.10714 0.076528572 1.4610001 -0.30567768 0.19361366 -0.93224186 nan
0.10992286 0.076528572 1.4610001 -0.26601011 0.2150619 -0.9396739 nan
0.11270572 0.076528572 1.4610001 -0.19552892 0.23714915 -0.95159274 nan
0.11548858 0.076528572 1.4610001 -0.15409802 0.25748479 -0.95391583 nan
0.11827143 0.076528572 1.4610001 -0.010302247 0.2765168 -0.96095389 nan
0.12055714 0.076214284 1.455 0.20608379 0.30102596 -0.93108153 nan
0.12383715 0.076528572 1.4610001 0.41840577 0.2913081 -0.86027682 nan
0.12662001 0.076528572 1.4610001 0.452142 0.32840964 -0.82928568 nan
0.12940286 0.076528572 1.4610001 0.69176829 0.25709131 -0.67480415 nan
0.13272858 0.076842859 1.4670001 0.72721493 0.27370825 -0.62947774 nan
0.13552287 0.076842859 1.4670001 0.79311639 0.25338525 -0.55386132 nan
0.13888286 0.07715714 1.473 0.79449058 0.30530381 -0.5249517 nan
0.14236189 0.077523813 1.48 0.83298093 0.21465583 -0.50996631 nan
0.14576954 0.0778381 1.4860001 0.86951828 0.10445675 -0.48272845 nan
0.14920001 0.078152388 1.4920001 nan nan nan nan
0.15275525 0.078519054 1.4990001 nan nan nan nan
0.15561049 0.078519054 1.4990001 nan nan nan nan
0.035523813 0.080994293 1.4920001 nan nan nan nan
0.038211431 0.080668576 1.4860001 nan nan nan nan
0.041041907 0.080668576 1.4860001 nan nan nan nan
0.043872382 0.080668576 1.4860001 -0.25269863 -0.25282604 -0.93392849 nan
0.046702858 0.080668576 1.4860001 0 -0.11764815 -0.99305534 nan
0.049533334 0.080668576 1.4860001 -0.13191192 4.9936589e-05 -0.99126142 nan
0.052363813 0.080668576 1.4860001 -0.36235139 0.19409505 -0.91160768 nan
0.055194288 0.080668576 1.4860001 -0.51262498 0.2879281 -0.80889618 nan
0.058024764 0.080668576 1.4860001 -0.57802677 0.30778545 -0.75574678 nan
0.060609523 0.080342859 1.48 -0.52081454 0.37356538 -0.7675944 nan
0.063128576 0.079962865 1.473 -0.501041 0.33957016 -0.7960214 nan
0.065934286 0.079962865 1.473 -0.48704675 0.30875784 -0.81697863 nan
0.068740003 0.079962865 1.473 -0.45975736 0.30327567 -0.83465385 nan
0.071545713 0.079962865 1.473 -0.4679735 0.29329917 -0.83365244 nan
0.07435143 0.079962865 1.473 -0.42843291 0.2807028 -0.85886621 nan
0.07715714 0.079962865 1.473 -0.32645062 0.26332664 -0.90779352 nan
0.079637155 0.079637155 1.4670001 -0.26965952 0.24647979 -0.93087673 nan
0.082431436 0.079637155 1.4670001 -0.26858723 0.22509506 -0.9365859 nan
0.085225724 0.079637155 1.4670001 -0.24805865 0.20409575 -0.94700152 nan
0.088020004 0.079637155 1.4670001 -0.25479022 0.20398845 -0.94523579 nan
0.090814292 0.079637155 1.4670001 -0.28520802 0.18344608 -0.94074649 nan
0.093608581 0.079637155 1.4670001 -0.28687638 0.16393867 -0.94383579 nan
0.096402861 0.079637155 1.4670001 -0.27749196 0.16454756 -0.94653171 nan
0.098791428 0.079311438 1.4610001 -0.2484294 0.1657684 -0.95436037 nan
0.10157429 0.079311438 1.4610001 -0.21872962 0.1667981 -0.96142381 nan
0.10435715 0.079311438 1.4610001 -0.23898377 0.16638514 -0.9566623 nan
0.10714 0.079311438 1.4610001 -0.28774545 0.17485046 -0.94161028 nan
0.10992286 0.079311438 1.4610001 -0.24752979 0.19632494 -0.94878107 nan
0.11270572 0.079311438 1.4610001 -0.17662171 0.20839433 -0.96196496 nan
0.11548858 0.079311438 1.4610001 -0.12488992 0.21922597 -0.96764791 nan
0.11827143 0.079311438 1.4610001 0.030607343 0.25660157 -0.96603251 nan
0.12055714 0.078985721 1.455 0.2344576 0.28079113 -0.93069112 nan
0.12383715 0.079311438 1.4610001 0.43067378 0.27121639 -0.86079139 nan
0.12662001 0.079311438 1.4610001 0.47193831 0.27680913 -0.83704895 nan
0.12940286 0.079311438 1.4610001 0.69405872 0.21966268 -0.68558788 nan
0.13272858 0.079637155 1.4670001 0.73170674 0.22764473 -0.64248204 nan
0.13607715 0.079962865 1.473 0.80931228 0.17326958 -0.56124085 nan
0.13954286 0.080342859 1.48 0.8004635 0.28297561 -0.52837771 nan
0.14293905 0.080668576 1.4860001 0.77792895 0.25014666 -0.57641411 nan
0.14576954 0.080668576 1.4860001 0.78277558 0.25419205 -0.56802183 nan
0.14920001 0.080994293 1.4920001 0.85171467 0 -0.52400583 nan
0.15275525 0.081374288 1.4990001 nan nan nan nan
0.15696001 0.082080007 1.5120001 nan nan nan nan
0.15984002 0.082080007 1.5120001 nan nan nan nan
0.038211431 0.083499052 1.4860001 nan nan nan nan
0.041041907 0.083499052 1.4860001 nan nan nan nan
0.043872382 0.083499052 1.4860001 nan nan nan nan
0.046702858 0.083499052 1.4860001 0 0 -1 nan
0.049533334 0.083499052 1.4860001 0 0 -1 nan
0.052363813 0.083499052 1.4860001 -0.065897234 0.065897256 -0.99564809 nan
0.055194288 0.083499052 1.4860001 -0.45813838 0.23216349 -0.85802644 nan
0.058024764 0.083499052 1.4860001 -0.5137006 0.28101662 -0.81064254 nan
0.060609523 0.083161905 1.48 -0.50297803 0.33558309 -0.79649049 nan
0.063428566 0.083161905 1.48 -0.49078846 0.33951619 -0.80240601 nan
0.065934286 0.082768574 1.473 -0.4844799 0.31979224 -0.8142556 nan
0.068740003 0.082768574 1.473 -0.46806219 0.29394159 -0.83337635 nan
0.071545713 0.082768574 1.473 -0.4855696 0.275756 -0.82956666 nan
0.07435143 0.082768574 1.473 -0.44665888 0.27252433 -0.85218912 nan
0.076842859 0.082431436 1.4670001 -0.34618288 0.26433992 -0.90015656 nan
0.079637155 0.082431436 1.4670001 -0.29080907 0.24801871 -0.9240762 nan
0.082431436 0.082431436 1.4670001 -0.28997096 0.22683951 -0.92976379 nan
0.085225724 0.082431436 1.4670001 -0.25888658 0.20665847 -0.94354123 nan
0.088020004 0.082431436 1.4670001 -0.26483211 0.19539246 -0.94429111 nan
0.090814292 0.082431436 1.4670001 -0.30466121 0.17279719 -0.93665504 nan
0.093608581 0.082431436 1.4670001 -0.29686448 0.15365031 -0.94247711 nan
0.096402861 0.082431436 1.4670001 -0.26876327 0.14487188 -0.95224917 nan
0.099197149 0.082431436 1.4670001 -0.23891214 0.15592232 -0.95844102 nan
0.10199144 0.082431436 1.4670001 -0.21907392 0.1566083 -0.96305788 nan
0.10435715 0.082094289 1.4610001 -0.23933136 0.15622371 -0.95828736 nan
0.10714 0.082094289 1.4610001 -0.2796751 0.1451222 -0.94906342 nan
0.10992286 0.082094289 1.4610001 -0.23917639 0.16669731 -0.95655978 nan
0.11270572 0.082094289 1.4610001 -0.17827456 0.16826208 -0.96948755 nan
0.11548858 0.082094289 1.4610001 -0.10544417 0.16918848 -0.97992694 nan
0.11778571 0.081757143 1.455 0.072332613 0.19719219 -0.97769278 nan
0.12055714 0.081757143 1.455 0.26678365 0.22413358 -0.93733168 nan
0.12383715 0.082094289 1.4610001 0.41461617 0.23453347 -0.87925392 nan
0.12662001 0.082094289 1.4610001 0.57731152 0.22516702 -0.78486383 nan
0.12940286 0.082094289 1.4610001 0.61657202 0.2457726 -0.74795371 nan
0.13272858 0.082431436 1.4670001 0.74478132 0.1791065 -0.64282316 nan
0.1367238 0.083161905 1.48 0.77064776 0.15000606 -0.61935467 nan
0.13954286 0.083161905 1.48 0.82598579 0.12554948 -0.5495314 nan
0.14293905 0.083499052 1.4860001 0.77991831 0.2442835 -0.57624042 nan
0.14576954 0.083499052 1.4860001 0.80807239 0.059420068 -0.5860787 nan
0.14920001 0.083836198 1.4920001 0.82031292 0 -0.57191497 nan
0.15275525 0.084229521 1.4990001 nan nan nan nan
0.15696001 0.084960006 1.5120001 nan nan nan nan
0.15984002 0.084960006 1.5120001 nan nan nan nan
0.038211431 0.086329527 1.4860001 nan nan nan nan
0.040876191 0.085980952 1.48 nan nan nan nan
0.043872382 0.086329527 1.4860001 nan nan nan nan
0.046702858 0.086329527 1.4860001 0.2543956 0 -0.96710026 nan
0.049533334 0.086329527 1.4860001 0 0 -1 nan
0.052363813 0.086329527 1.4860001 0 0 -1 nan
0.055194288 0.086329527 1.4860001 -0.19532777 0.065103799 -0.97857475 nan
0.058024764 0.086329527 1.4860001 -0.51822287 0.22975157 -0.82380784 nan
0.06085524 0.086329527 1.4860001 -0.51251048 0.2884042 -0.80879915 nan
0.063428566 0.085980952 1.48 -0.52962464 0.28833219 -0.79772317 nan
0.065934286 0.085574292 1.473 -0.49505651 0.31993762 -0.8078112 nan
0.068740003 0.085574292 1.473 -0.50479811 0.29923049 -0.80971599 nan
0.071545713 0.085574292 1.473 -0.49076316 0.28259102 -0.82419282 nan
0.07435143 0.085574292 1.473 -0.45339698 0.28080314 -0.84592009 nan
0.07715714 0.085574292 1.473 -0.36562321 0.26367491 -0.89263386 nan
0.079962865 0.085574292 1.473 -0.31347805 0.22943558 -0.92146122 nan
0.082431436 0.085225724 1.4670001 -0.31273872 0.20807992 -0.92676711 nan
0.085225724 0.085225724 1.4670001 -0.28216857 0.18775219 -0.94081348 nan
0.088020004 0.085225724 1.4670001 -0.28886515 0.16502149 -0.94304019 nan
0.090814292 0.085225724 1.4670001 -0.32602456 0.15221408 -0.93302673 nan
0.093608581 0.085225724 1.4670001 -0.31625158 0.14294852 -0.93784362 nan
0.096402861 0.085225724 1.4670001 -0.278956 0.1344438 -0.95084614 nan
0.099197149 0.085225724 1.4670001 -0.23932238 0.14573112 -0.95994127 nan
0.10199144 0.085225724 1.4670001 -0.21940584 0.14633217 -0.96459728 nan
0.10435715 0.084877141 1.4610001 -0.24967419 0.14566132 -0.95731163 nan
0.10714 0.084877141 1.4610001 -0.27949134 0.14489339 -0.94915253 nan
0.10992286 0.084877141 1.4610001 -0.22950792 0.15662262 -0.96062243 nan
0.11270572 0.084877141 1.4610001 -0.1785579 0.15784697 -0.97118556 nan
0.11548858 0.084877141 1.4610001 -0.094831467 0.16895522 -0.98105103 nan
0.11827143 0.084877141 1.4610001 0.1032913 0.17612553 -0.97893345 nan
0.12105429 0.084877141 1.4610001 0.30351776 0.19332568 -0.93300706 nan
0.12383715 0.084877141 1.4610001 0.44641596 0.20494947 -0.87103873 nan
0.12662001 0.084877141 1.4610001 0.6036377 0.16630526 -0.77972054 nan
0.12940286 0.084877141 1.4610001 0.64729947 0.17530537 -0.74180281 nan
0.13272858 0.085225724 1.4670001 0.75134575 0.16519997 -0.63889635 nan
0.1367238 0.085980952 1.48 0.77095222 0.18085109 -0.61067629 nan
0.13954286 0.085980952 1.48 0.81745601 0.14729379 -0.55683947 nan
0.14293905 0.086329527 1.4860001 0.82449174 0.14631601 -0.54663062 nan
0.14576954 0.086329527 1.4860001 0.826455 0.068404868 -0.55883175 nan
0.14920001 0.086678103 1.4920001 0.92640376 0.032695945 -0.37510934 nan
0.15346856 0.08749143 1.506 nan nan nan nan
0.15830953 0.088595249 1.5250001 nan nan nan nan
0.16121429 0.088595249 1.5250001 nan nan nan nan
0.040876191 0.088799998 1.48 nan nan nan nan
0.043872382 0.089160003 1.4860001 nan nan nan nan
0.046702858 0.089160003 1.4860001 nan nan nan nan
0.049533334 0.089160003 1.4860001 0 0 -1 nan
0.052363813 0.089160003 1.4860001 0 0 -1 nan
0.055194288 0.089160003 1.4860001 -0.13204381 0 -0.9912439 nan
0.058024764 0.089160003 1.4860001 -0.46552029 0.11954916 -0.87692577 nan
0.060609523 0.088799998 1.48 -0.47970858 0.2231735 -0.8485713 nan
0.063428566 0.088799998 1.48 -0.50421834 0.26128268 -0.82310098 nan
0.06624762 0.088799998 1.48 -0.49135065 0.2746304 -0.82653052 nan
0.069066674 0.088799998 1.48 -0.52188951 0.24652864 -0.81661189 nan
0.071545713 0.088380001 1.473 -0.50997519 0.24620637 -0.82420129 nan
0.07435143 0.088380001 1.473 -0.48300296 0.23396061 -0.8437835 nan
0.07715714 0.088380001 1.473 -0.41616142 0.20408611 -0.88609171 nan
0.079962865 0.088380001 1.473 -0.35801423 0.15907462 -0.92006582 nan
0.082768574 0.088380001 1.473 -0.33843645 0.14750193 -0.92935675 nan
0.085574292 0.088380001 1.473 -0.30730632 0.13599285 -0.94184327 nan
0.088020004 0.088020004 1.4670001 -0.30278191 0.11309923 -0.94632536 nan
0.090814292 0.088020004 1.4670001 -0.3277728 0.12243688 -0.93678933 nan
0.093608581 0.088020004 1.4670001 -0.31730586 0.12298374 -0.94031483 nan
0.096402861 0.088020004 1.4670001 -0.26961628 0.12460798 -0.95487165 nan
0.099197149 0.088020004 1.4670001 -0.22926207 0.14595933 -0.96235895 nan
0.10199144 0.088020004 1.4670001 -0.21935156 0.1462535 -0.9646216 nan
0.10435715 0.087660007 1.4610001 -0.23962238 0.1458115 -0.95985425 nan
0.10714 0.087660007 1.4610001 -0.26900399 0.15508376 -0.95057136 nan
0.10992286 0.087660007 1.4610001 -0.22936608 0.15641353 -0.96069038 nan
0.11270572 0.087660007 1.4610001 -0.16847849 0.14758681 -0.97459382 nan
0.11548858 0.087660007 1.4610001 -0.084449835 0.15855014 -0.9837327 nan
0.11827143 0.087660007 1.4610001 0.11386696 0.15562584 -0.98123133 nan
0.12105429 0.087660007 1.4610001 0.32440084 0.15459235 -0.93320161 nan
0.12383715 0.087660007 1.4610001 0.46627614 0.16177516 -0.86972141 nan
0.12662001 0.087660007 1.4610001 0.62697786 0.15425727 -0.76361209 nan
0.12940286 0.087660007 1.4610001 0.68263066 0.17424615 -0.70968556 nan
0.13272858 0.088020004 1.4670001 0.72636837 0.17258359 -0.66528481 nan
0.13607715 0.088380001 1.473 0.78422105 0.16133693 -0.59913921 nan
0.13954286 0.088799998 1.48 0.80370313 0.17645718 -0.56826413 nan
0.14293905 0.089160003 1.4860001 0.83338159 0.12102488 -0.53928477 nan
0.14576954 0.089160003 1.4860001 0.8129214 0.10225599 -0.57332581 nan
0.14920001 0.089520007 1.4920001 0.93124986 0.061643016 -0.35912931 nan
0.15408 0.090720005 1.5120001 nan nan nan nan
0.15903619 0.091920003 1.5320001 nan nan nan nan
0.16195428 0.091920003 1.5320001 nan nan nan nan
0.043872382 0.091990478 1.4860001 nan nan nan nan
0.046702858 0.091990478 1.4860001 nan nan nan nan
0.049533334 0.091990478 1.4860001 nan nan nan nan
0.052363813 0.091990478 1.4860001 0 0 -1 nan
0.055194288 0.091990478 1.4860001 -0.066277869 0 -0.99780118 nan
0.058024764 0.091990478 1.4860001 -0.4320986 0.077377342 -0.89850074 nan
0.06085524 0.091990478 1.4860001 -0.43790349 0.17087592 -0.88263351 nan
0.063428566 0.091619052 1.48 -0.49388102 0.22405754 -0.84016651 nan
0.06624762 0.091619052 1.48 -0.48905453 0.21976613 -0.84411407 nan
0.069066674 0.091619052 1.48 -0.52822149 0.2036161 -0.82433158 nan
0.071545713 0.091185719 1.473 -0.55433083 0.19013463 -0.81028771 nan
0.07435143 0.091185719 1.473 -0.50882483 0.16256675 -0.8453812 nan
0.07715714 0.091185719 1.473 -0.43524337 0.11972327 -0.89231694 nan
0.079962865 0.091185719 1.473 -0.39305618 0.094121672 -0.91468459 nan
0.082768574 0.091185719 1.473 -0.35679269 0.066758469 -0.93179518 nan
0.085225724 0.090814292 1.4670001 -0.30273828 0.038379107 -0.95230067 nan
0.088020004 0.090814292 1.4670001 -0.28485832 0.05141899 -0.95718956 nan
0.090814292 0.090814292 1.4670001 -0.31845552 0.063755676 -0.94579136 nan
0.093608581 0.090814292 1.4670001 -0.29529226 0.064314231 -0.9532398 nan
0.096402861 0.090814292 1.4670001 -0.22110446 0.091092899 -0.97098655 nan
0.099197149 0.090814292 1.4670001 -0.22034463 0.1166695 -0.96841955 nan
0.10157429 0.090442859 1.4610001 -0.23296896 0.11648154 -0.96548307 nan
0.10435715 0.090442859 1.4610001 -0.27009138 0.11570855 -0.9558568 nan
0.10714 0.090442859 1.4610001 -0.29441869 0.11512093 -0.94871747 nan
0.10992286 0.090442859 1.4610001 -0.24076508 0.12563872 -0.9624173 nan
0.11270572 0.090442859 1.4610001 -0.15669399 0.13067824 -0.97896385 nan
0.11548858 0.090442859 1.4610001 -0.013098999 0.13090189 -0.99130881 nan
0.11827143 0.090442859 1.4610001 0.1772289 0.12684131 -0.97596169 nan
0.12105429 0.090442859 1.4610001 0.38183135 0.1166219 -0.91684467 nan
0.12383715 0.090442859 1.4610001 0.55351877 0.11569145 -0.82476205 nan
0.12662001 0.090442859 1.4610001 0.65003389 0.13114391 -0.74850333 nan
0.1299343 0.090814292 1.4670001 0.69443369 0.15355925 -0.70298034 nan
0.13272858 0.090814292 1.4670001 0.76412672 0.13470329 -0.63084501 nan
0.13607715 0.091185719 1.473 0.79446071 0.12228112 -0.59487772 nan
0.13954286 0.091619052 1.48 0.82287127 0.11675011 -0.55610454 nan
0.14293905 0.091990478 1.4860001 0.84015411 0.11504008 -0.53000647 nan
0.14576954 0.091990478 1.4860001 0.81905764 0.18864949 -0.54180801 nan
0.14920001 0.092361905 1.4920001 0.93452013 0.091329753 -0.3439928 nan
0.15204191 0.092361905 1.4920001 nan nan nan nan
0.15903619 0.094838098 1.5320001 nan nan nan nan
0.16195428 0.094838098 1.5320001 nan nan nan nan
0.043872382 0.094820954 1.4860001 nan nan nan nan
0.046702858 0.094820954 1.4860001 nan nan nan nan
0.049533334 0.094820954 1.4860001 nan nan nan nan
0.052363813 0.094820954 1.4860001 0 0 -1 nan
0.055194288 0.094820954 1.4860001 -0.066277869 0 -0.99780118 nan
0.058024764 0.094820954 1.4860001 -0.35667229 0.11887477 -0.92663568 nan
0.06085524 0.094820954 1.4860001 -0.38785931 0.14438756 -0.91033918 nan
0.063428566 0.094438098 1.48 -0.48184893 0.18786235 -0.85587931 nan
0.06624762 0.094438098 1.48 -0.49473003 0.1745127 -0.85134453 nan
0.069066674 0.094438098 1.48 -0.517066 0.18575144 -0.83554721 nan
0.071545713 0.093991429 1.473 -0.54494959 0.20845954 -0.81214195 nan
0.07435143 0.093991429 1.473 -0.54964143 0.18240716 -0.81524348 nan
0.07715714 0.093991429 1.473 -0.4878149 0.14628956 -0.86060208 nan
0.079962865 0.093991429 1.473 -0.45186612 0.11541665 -0.88458806 nan
0.082431436 0.093608581 1.4670001 -0.41008946 0.082523473 -0.90830421 nan
0.085225724 0.093608581 1.4670001 -0.33129346 0.048107728 -0.9423005 nan
0.088020004 0.093608581 1.4670001 -0.26406384 0.049002163 -0.96325964 nan
0.090814292 0.093608581 1.4670001 -0.26175767 0.049120769 -0.9638828 nan
0.093608581 0.093608581 1.4670001 -0.27812999 0.032788422 -0.95998365 nan
0.096402861 0.093608581 1.4670001 -0.24658751 0.06579607 -0.96688443 nan
0.099197149 0.093608581 1.4670001 -0.21403155 0.09880165 -0.97181726 nan
0.10157429 0.093225725 1.4610001 -0.22875422 0.13071178 -0.96466881 nan
0.10435715 0.093225725 1.4610001 -0.26006788 0.13002978 -0.95679516 nan
0.10714 0.093225725 1.4610001 -0.30590799 0.12873945 -0.94331676 nan
0.10992286 0.093225725 1.4610001 -0.24509156 0.1290949 -0.96086663 nan
0.11270572 0.093225725 1.4610001 -0.24332103 0.16233191 -0.95626527 nan
0.11548858 0.093225725 1.4610001 -0.099137142 0.14882416 -0.98388171 nan
0.11778571 0.092842855 1.455 0.0491702 0.14769042 -0.98781061 nan
0.12105429 0.093225725 1.4610001 0.20574865 0.14275967 -0.96813595 nan
0.12383715 0.093225725 1.4610001 0.44796917 0.12696534 -0.88498783 nan
0.12662001 0.093225725 1.4610001 0.61506552 0.12259585 -0.77888685 nan
0.1299343 0.093608581 1.4670001 0.70716143 0.1275413 -0.69545376 nan
0.13327143 0.093991429 1.473 0.77149999 0.10805849 -0.62698573 nan
0.1367238 0.094438098 1.48 0.79499048 0.15002964 -0.58777654 nan
0.14010859 0.094820954 1.4860001 0.81350511 0.18093884 -0.55269396 nan
0.14293905 0.094820954 1.4860001 0.81881458 0.15404537 -0.55300337 nan
0.1463581 0.095203809 1.4920001 0.7680909 0.29619029 -0.56772149 nan
0.1499 0.095650479 1.4990001 0.75677669 0.43779257 -0.485414 nan
0.15408 0.096480004 1.5120001 nan nan nan nan
0.15976286 0.098202854 1.539 nan nan nan nan
0.16269429 0.098202854 1.539 nan nan nan nan
0.025257142 0.10251429 1.5600001 nan nan nan nan
0.028228572 0.10251429 1.5600001 nan nan nan nan
0.030920003 0.10159429 1.5460001 nan nan nan nan
0.033864763 0.10159429 1.5460001 nan nan nan nan
0.036809526 0.10159429 1.5460001 nan nan nan nan
0.044049527 0.098045722 1.4920001 nan nan nan nan
0.046702858 0.097651429 1.4860001 nan nan nan nan
0.049533334 0.097651429 1.4860001 nan nan nan nan
0.052363813 0.097651429 1.4860001 0 0 -1 nan
0.055194288 0.097651429 1.4860001 0 0 -1 nan
0.058024764 0.097651429 1.4860001 -0.32078329 0.12028603 -0.93948358 nan
0.06085524 0.097651429 1.4860001 -0.33331028 0.11577831 -0.9356814 nan
0.063428566 0.097257145 1.48 -0.47244418 0.10612804 -0.87494761 nan
0.06624762 0.097257145 1.48 -0.5402894 0.10191882 -0.83528429 nan
0.069066674 0.097257145 1.48 -0.5430966 0.10184561 -0.83347076 nan
0.07188572 0.097257145 1.48 -0.56017864 0.064494908 -0.82585734 nan
0.074704766 0.097257145 1.48 -0.56343865 0.027603891 -0.82569665 nan
0.07715714 0.096797146 1.473 -0.55233312 -0.012835794 -0.83352464 nan
0.079962865 0.096797146 1.473 -0.51823932 -0.035597172 -0.85449451 nan
0.082431436 0.096402861 1.4670001 -0.40660614 -0.06157019 -0.9115265 nan
0.085225724 0.096402861 1.4670001 -0.32088807 -0.063494816 -0.9449864 nan
0.088020004 0.096402861 1.4670001 -0.29829112 -0.063932851 -0.95233136 nan
0.090814292 0.096402861 1.4670001 -0.23782769 -0.043230329 -0.97034484 nan
0.093608581 0.096402861 1.4670001 -0.19614208 -0.021757703 -0.98033404 nan
0.096402861 0.096402861 1.4670001 -0.19539765 0.043433879 -0.97976184 nan
0.099197149 0.096402861 1.4670001 -0.17326726 0.08663363 -0.98105711 nan
0.10199144 0.096402861 1.4670001 -0.23458245 0.12795259 -0.96363854 nan
0.10435715 0.096008576 1.4610001 -0.29503703 0.12644444 -0.94708234 nan
0.10714 0.096008576 1.4610001 -0.334012 0.12521066 -0.93421531 nan
0.10992286 0.096008576 1.4610001 -0.29255965 0.097523011 -0.95126134 nan
0.11270572 0.096008576 1.4610001 -0.17314667 0.10819502 -0.97893518 nan
0.11548858 0.096008576 1.4610001 -0.065667011 0.065716535 -0.99567527 nan
0.11778571 0.095614292 1.455 0.064954609 0.065066151 -0.99576467 nan
0.12105429 0.096008576 1.4610001 0.30322951 0.060680363 -0.95098358 nan
0.12383715 0.096008576 1.4610001 0.53167117 0.086669579 -0.84250468 nan
0.12662001 0.096008576 1.4610001 0.68782043 0.071917042 -0.72230953 nan
0.1299343 0.096402861 1.4670001 0.75678807 0.088004366 -0.64770907 nan
0.13327143 0.096797146 1.473 0.78216869 0.14359251 -0.60629475 nan
0.13607715 0.096797146 1.473 0.81436282 0.16699177 -0.555812 nan
0.14010859 0.097651429 1.4860001 0.79846001 0.25260794 -0.54648954 nan
0.14293905 0.097651429 1.4860001 0.78322363 0.22937386 -0.57788265 nan
0.1463581 0.098045722 1.4920001 0.78752184 0.24913049 -0.56368726 nan
0.1499 0.09850572 1.4990001 0.85835069 0.21084547 -0.46773744 nan
0.15275525 0.09850572 1.4990001 nan nan nan nan
0.15976286 0.10113429 1.539 nan nan nan nan
0.16269429 0.10113429 1.539 nan nan nan nan
0.16637906 0.10159429 1.5460001 nan nan nan nan
0.02514381 0.10501239 1.5530001 nan nan nan nan
0.027975241 0.10453905 1.5460001 nan nan nan nan
0.030780001 0.10406572 1.539 nan nan nan nan
0.033711426 0.10406572 1.539 nan nan nan nan
0.036642861 0.10406572 1.539 nan nan nan nan
0.038545717 0.10136096 1.4990001 nan nan nan nan
0.041400954 0.10136096 1.4990001 nan nan nan nan
0.044049527 0.10088763 1.4920001 nan nan nan nan
0.046702858 0.10048191 1.4860001 nan nan nan nan
0.049533334 0.10048191 1.4860001 -0.45524153 0.22767824 -0.86076581 nan
0.052363813 0.10048191 1.4860001 -0.11738688 0 -0.99308628 nan
0.055194288 0.10048191 1.4860001 -0.066236153 0 -0.99780399 nan
0.058024764 0.10048191 1.4860001 -0.28551984 0.081479162 -0.95490289 nan
0.06085524 0.10048191 1.4860001 -0.33500901 0.083674669 -0.93849218 nan
0.063685715 0.10048191 1.4860001 -0.39363959 0.054902446 -0.91762388 nan
0.06624762 0.10007619 1.48 -0.51774007 0.081311956 -0.8516652 nan
0.069066674 0.10007619 1.48 -0.60070312 0.076571532 -0.79579681 nan
0.07188572 0.10007619 1.48 -0.5726766 0.053957511 -0.81800371 nan
0.07435143 0.099602856 1.473 -0.55871117 0.0041374238 -0.82935196 nan
0.07715714 0.099602856 1.473 -0.61173499 -0.045147758 -0.7897734 nan
0.079962865 0.099602856 1.473 -0.59054327 -0.071055211 -0.80387175 nan
0.082431436 0.099197149 1.4670001 -0.4795818 -0.10769898 -0.8708629 nan
0.085225724 0.099197149 1.4670001 -0.37219548 -0.11309555 -0.92123824 nan
0.088020004 0.099197149 1.4670001 -0.34294069 -0.11431355 -0.93237549 nan
0.090814292 0.099197149 1.4670001 -0.2069744 -0.088702798 -0.9743169 nan
0.093608581 0.099197149 1.4670001 -0.089756958 -0.029897625 -0.99551487 nan
0.096402861 0.099197149 1.4670001 -0.14867638 0.029731557 -0.98843884 nan
0.099197149 0.099197149 1.4670001 -0.17669144 0.088340707 -0.98029387 nan
0.10199144 0.099197149 1.4670001 -0.17489968 0.14574309 -0.97373974 nan
0.10478573 0.099197149 1.4670001 -0.2556797 0.1988555 -0.94608897 nan
0.10758001 0.099197149 1.4670001 -0.33462623 0.19518833 -0.92191476 nan
0.11037429 0.099197149 1.4670001 -0.31617647 0.10528038 -0.94284064 nan
0.11270572 0.098791428 1.4610001 -0.25978354 0.14420004 -0.95483971 nan
0.11548858 0.098791428 1.4610001 -0.17730618 0.088627823 -0.98015696 nan
0.11827143 0.098791428 1.4610001 -0.089745559 0.029933956 -0.99551481 nan
0.12105429 0.098791428 1.4610001 0.1735816 0.028936068 -0.98439431 nan
0.12383715 0.098791428 1.4610001 0.43577957 0.051219705 -0.89859486 nan
0.12714 0.099197149 1.4670001 0.62992167 0.084827833 -0.77201223 nan
0.1299343 0.099197149 1.4670001 0.74439597 0.10772535 -0.65899158 nan
0.13327143 0.099602856 1.473 0.79139048 0.11147837 -0.60106045 nan
0.1367238 0.10007619 1.48 0.82549793 0.00020094441 -0.56440508 nan
0.14010859 0.10048191 1.4860001 0.83033007 0.1265896 -0.54270345 nan
0.1435162 0.10088763 1.4920001 0.81207466 0.00018172966 -0.58355355 nan
0.1463581 0.10088763 1.4920001 0.73831528 0.27749294 -0.61472613 nan
0.1499 0.10136096 1.4990001 nan nan nan nan
0.15275525 0.10136096 1.4990001 nan nan nan nan
0.15976286 0.10406572 1.539 nan nan nan nan
0.16269429 0.10406572 1.539 nan nan nan nan
0.16637906 0.10453905 1.5460001 nan nan nan nan
0.02514381 0.10797048 1.5530001 nan nan nan nan
0.027721906 0.10651048 1.5320001 nan nan nan nan
0.0305 0.10602381 1.5250001 nan nan nan nan
0.033404764 0.10602381 1.5250001 nan nan nan nan
0.036166668 0.10560667 1.5190001 nan nan nan nan
0.03906 0.10560667 1.5190001 nan nan nan nan
0.041760001 0.10512 1.5120001 nan nan nan nan
0.044256192 0.10421619 1.4990001 nan nan nan nan
0.046891432 0.10372953 1.4920001 -0.78886336 0.50095338 -0.35600612 nan
0.049533334 0.10331238 1.4860001 -0.69724417 0.3349629 -0.63375896 nan
0.052363813 0.10331238 1.4860001 -0.22162689 0.22162679 -0.94961208 nan
0.055194288 0.10331238 1.4860001 -0.12957376 0.12957372 -0.98306727 nan
0.058024764 0.10331238 1.4860001 -0.36031118 0.03995835 -0.93197596 nan
0.06085524 0.10331238 1.4860001 -0.43001309 0 -0.90282267 nan
0.063685715 0.10331238 1.4860001 -0.43592 0 -0.89998543 nan
0.06624762 0.10289524 1.48 -0.57127649 -0.042228006 -0.81967062 nan
0.069066674 0.10289524 1.48 -0.63382733 -0.080203414 -0.76930505 nan
0.07188572 0.10289524 1.48 -0.56895059 -0.084838524 -0.81798393 nan
0.07435143 0.10240858 1.473 -0.61536843 -0.15108545 -0.77362454 nan
0.07715714 0.10240858 1.473 -0.67458272 -0.14265947 -0.7242834 nan
0.079962865 0.10240858 1.473 -0.57531089 -0.11509285 -0.80979693 nan
0.082431436 0.10199144 1.4670001 -0.44198656 -0.079179496 -0.8935203 nan
0.085225724 0.10199144 1.4670001 -0.367769 -0.081729412 -0.92631865 nan
0.088020004 0.10199144 1.4670001 -0.17084463 0 -0.98529798 nan
0.090814292 0.10199144 1.4670001 0 0 -1 nan
0.093608581 0.10199144 1.4670001 0 0 -1 nan
0.096402861 0.10199144 1.4670001 -0.042876575 0.042876583 -0.99815989 nan
0.099197149 0.10199144 1.4670001 -0.084692575 0.12704232 -0.98827499 nan
0.10199144 0.10199144 1.4670001 -0.083071679 0.20768601 -0.97466177 nan
0.10478573 0.10199144 1.4670001 -0.2425279 0.24262731 -0.93931472 nan
0.10758001 0.10199144 1.4670001 -0.38883322 0.23331913 -0.89127487 nan
0.11037429 0.10199144 1.4670001 -0.38447708 0.19208525 -0.90292889 nan
0.11270572 0.10157429 1.4610001 -0.39755446 0.15915373 -0.90367061 nan
0.11548858 0.10157429 1.4610001 -0.33076027 0.082839586 -0.94007194 nan
0.11827143 0.10157429 1.4610001 0 0.085443288 -0.99634302 nan
0.12105429 0.10157429 1.4610001 0.34372652 0.15294166 -0.92653167 nan
0.12383715 0.10157429 1.4610001 0.55775249 0.13150595 -0.81952327 nan
0.12714 0.10199144 1.4670001 0.7017414 0.082727693 -0.70761228 nan
0.1299343 0.10199144 1.4670001 0.78275907 0.043545231 -0.62079954 nan
0.13327143 0.10240858 1.473 0.79453135 0.011169503 -0.60712039 nan
0.1367238 0.10289524 1.48 0.79673499 -0.14115772 -0.58761197 nan
0.14010859 0.10331238 1.4860001 0.83335263 -0.063089333 -0.54912943 nan
0.1435162 0.10372953 1.4920001 0.6883105 -0.40024647 -0.60500532 nan
0.1463581 0.10372953 1.4920001 nan nan nan nan
0.1499 0.10421619 1.4990001 nan nan nan nan
0.15275525 0.10421619 1.4990001 nan nan nan nan
0.027595241 0.10892858 1.5250001 nan nan nan nan
0.0305 0.10892858 1.5250001 nan nan nan nan
0.033404764 0.10892858 1.5250001 nan nan nan nan
0.036166668 0.1085 1.5190001 -0.4744904 -0.78809285 -0.3921333 nan
0.03906 0.1085 1.5190001 nan nan nan nan
0.041760001 0.10800001 1.5120001 nan nan nan nan
0.044462856 0.10757143 1.506 -0.87058347 0.4063682 -0.27739733 nan
0.046891432 0.10657144 1.4920001 -0.90086514 0.33350307 -0.2778807 nan
0.049533334 0.10614286 1.4860001 -0.7723105 0.21462463 -0.59789026 nan
0.052363813 0.10614286 1.4860001 -0.63717353 0.19895609 -0.74459809 nan
0.055194288 0.10614286 1.4860001 -0.28792489 -0.082415648 -0.95410007 nan
0.058024764 0.10614286 1.4860001 -0.19498126 0.064969115 -0.97865283 nan
0.06085524 0.10614286 1.4860001 -0.37568307 -0.062661275 -0.92462736 nan
0.063685715 0.10614286 1.4860001 -0.47817403 -0.059790682 -0.8762275 nan
0.06624762 0.10571428 1.48 -0.53117281 -0.05793754 -0.84528023 nan
0.069066674 0.10571428 1.48 -0.66016078 -0.1717284 -0.73122984 nan
0.07188572 0.10571428 1.48 -0.6451394 -0.18332647 -0.74174565 nan
0.07435143 0.10521429 1.473 -0.57615405 -0.19507536 -0.79372042 nan
0.07715714 0.10521429 1.473 -0.66074443 -0.27598432 -0.69803256 nan
0.079962865 0.10521429 1.473 -0.62230563 -0.17135072 -0.76378965 nan
0.082431436 0.10478573 1.4670001 -0.483349 -0.12083726 -0.86704791 nan
0.085225724 0.10478573 1.4670001 -0.43404847 -0.1240206 -0.89231205 nan
0.088020004 0.10478573 1.4670001 -0.19943653 0 -0.97991073 nan
0.090814292 0.10478573 1.4670001 0 0 -1 nan
0.093608581 0.10478573 1.4670001 0 0 -1 nan
0.096402861 0.10478573 1.4670001 0 0 -1 nan
0.099197149 0.10478573 1.4670001 0 0 -1 nan
0.10199144 0.10478573 1.4670001 0 0.066658512 -0.99777585 nan
0.10478573 0.10478573 1.4670001 0 0.13186845 -0.9912672 nan
0.10758001 0.10478573 1.4670001 -0.2597599 0.12987994 -0.95689917 nan
0.11037429 0.10478573 1.4670001 -0.44071972 -7.2300616e-05 -0.89764476 nan
0.11270572 0.10435715 1.4610001 -0.5329904 0.059157874 -0.84405071 nan
0.11548858 0.10435715 1.4610001 -0.53623557 0 -0.84406835 nan
0.11827143 0.10435715 1.4610001 -0.26523447 0 -0.96418393 nan
0.12105429 0.10435715 1.4610001 0.25306413 0.06331066 -0.96537572 nan
0.12383715 0.10435715 1.4610001 0.49279225 0.10953514 -0.86322528 nan
0.12714 0.10478573 1.4670001 0.62431687 0.096144482 -0.77523202 nan
0.1299343 0.10478573 1.4670001 0.75590104 0.077807292 -0.65004587 nan
0.13327143 0.10521429 1.473 0.7706368 -0.17738087 -0.61209065 nan
0.1367238 0.10571428 1.48 0.82193387 -0.14032945 -0.55202568 nan
0.14010859 0.10614286 1.4860001 0.6360485 -0.56626689 -0.52419859 nan
0.14293905 0.10614286 1.4860001 0.58346009 -0.58345914 -0.56493342 nan
0.14576954 0.10614286 1.4860001 nan nan nan nan
0.14920001 0.10657144 1.4920001 nan nan nan nan
0.15204191 0.10657144 1.4920001 nan nan nan nan
0.027595241 0.11183334 1.5250001 nan nan nan nan
0.0305 0.11183334 1.5250001 nan nan nan nan
0.033273332 0.11139334 1.5190001 nan nan nan nan
0.036166668 0.11139334 1.5190001 nan nan nan nan
0.03906 0.11139334 1.5190001 nan nan nan nan
0.041760001 0.11088 1.5120001 -0.87070507 -0.15202694 -0.46771842 nan
0.044462856 0.11044 1.506 -0.95263934 0 -0.30410236 nan
0.046891432 0.10941334 1.4920001 -0.91453898 -0.20021756 -0.35147035 nan
0.049733337 0.10941334 1.4920001 -0.88619316 -0.03245604 -0.46217772 nan
0.052575238 0.10941334 1.4920001 -0.59247094 -0.13988791 -0.79335332 nan
0.055194288 0.10897334 1.4860001 -0.31817943 -0.063807741 -0.94588077 nan
0.058024764 0.10897334 1.4860001 -0.33413321 -0.22289699 -0.91579032 nan
0.06085524 0.10897334 1.4860001 -0.48883247 -0.39101741 -0.77983856 nan
0.063428566 0.10853333 1.48 -0.57481873 -0.28740951 -0.76614565 nan
0.06624762 0.10853333 1.48 -0.60772794 -0.19161047 -0.77068293 nan
0.069066674 0.10853333 1.48 -0.63611746 -0.21735483 -0.74034554 nan
0.071545713 0.10802 1.473 -0.64641327 -0.21547124 -0.73193038 nan
0.07435143 0.10802 1.473 -0.63607836 -0.11076981 -0.76363236 nan
0.07715714 0.10802 1.473 -0.60587949 0.016213175 -0.7953912 nan
0.079637155 0.10758001 1.4670001 -0.58852017 0.11424936 -0.80036938 nan
0.082431436 0.10758001 1.4670001 -0.4396531 9.9745259e-05 -0.89816767 nan
0.085225724 0.10758001 1.4670001 -0.11739524 0.11734189 -0.98612839 nan
0.088020004 0.10758001 1.4670001 0 -0.11953662 -0.9928298 nan
0.090814292 0.10758001 1.4670001 0 -0.11953662 -0.9928298 nan
0.093608581 0.10758001 1.4670001 0 -0.11953662 -0.9928298 nan
0.096402861 0.10758001 1.4670001 0 0 -1 nan
0.099197149 0.10758001 1.4670001 0 0 -1 nan
0.10199144 0.10758001 1.4670001 0 0 -1 nan
0.10478573 0.10758001 1.4670001 -0.11971873 -0.11971875 -0.98556322 nan
0.10758001 0.10758001 1.4670001 -0.42959616 -0.32219094 -0.84358764 nan
0.11037429 0.10758001 1.4670001 -0.4862282 -0.18233164 -0.85459775 nan
0.11270572 0.10714 1.4610001 -0.599774 -0.1998032 -0.77482241 nan
0.11548858 0.10714 1.4610001 -0.34707311 -0.11591116 -0.93064755 nan
0.11778571 0.1067 1.455 0.11796807 -0.11804888 -0.98597568 nan
0.12105429 0.10714 1.4610001 0.49511251 -0.00022598785 -0.86882883 nan
0.12383715 0.10714 1.4610001 0.61039656 0.087199472 -0.78728157 nan
0.12714 0.10758001 1.4670001 0.65616101 0.082223594 -0.75012803 nan
0.1299343 0.10758001 1.4670001 0.70619082 -0.076940723 -0.70382857 nan
0.13327143 0.10802 1.473 0.74443918 -0.17102273 -0.64541578 nan
0.13607715 0.10802 1.473 0.74614865 -0.34062311 -0.57204729 nan
0.13954286 0.10853333 1.48 0.45682737 -0.74839562 -0.48084587 nan
0.14236189 0.10853333 1.48 0.29217312 -0.83022296 -0.47472593 nan
0.14518096 0.10853333 1.48 nan nan nan nan
0.148 0.10853333 1.48 nan nan nan nan
0.15204191 0.10941334 1.4920001 nan nan nan nan
0.02736 0.11376 1.5120001 nan nan nan nan
