# .PCD v0.7 - Point Cloud Data file format
VERSION 0.7
FIELDS x y z rgba
SIZE 4 4 4 4
TYPE F F F U
COUNT 1 1 1 1
WIDTH 1124
HEIGHT 1
VIEWPOINT 0 0 0 1 0 0 0
POINTS 1124
DATA ascii
-0.41446 0.0077228574 0.90100002 4542806
-0.41366002 0.0077400007 0.90300006 4542807
-0.41194001 0.0077400007 0.90300006 4673879
-0.41112858 0.0077571431 0.90500003 4804442
-0.40940475 0.0077571431 0.90500003 5000797
-0.40768096 0.0077571431 0.90500003 5263970
-0.40730289 0.0077828579 0.90800005 6649192
-0.40557334 0.0077828579 0.90800005 8026739
-0.40473333 0.0078000003 0.91000003 8028286
-0.40300003 0.0078000003 0.91000003 8093566
-0.40126666 0.0078000003 0.91000003 8158847
-0.4008505 0.0078257145 0.91300005 8289918
-0.40086001 0.0078600002 0.91700006 8093564
-0.39911336 0.0078600002 0.91700006 7896700
-0.39736667 0.0078600002 0.91700006 8027515
-0.39562002 0.0078600002 0.91700006 8223866
-0.39387333 0.0078600002 0.91700006 8092792
-0.39340955 0.0078857141 0.92000002 8026742
-0.39378574 0.0079285717 0.92500007 7830132
-0.39287144 0.0079457145 0.92700005 7633785
-0.39110571 0.0079457145 0.92700005 7961470
-0.39060003 0.0079714293 0.93000007 8289146
-0.39091906 0.0080142869 0.93500006 8158327
-0.38997048 0.0080314288 0.93700004 8092276
-0.38818571 0.0080314288 0.93700004 8026736
-0.38763812 0.0080571435 0.94000006 7960433
-0.38666859 0.0080742864 0.94200003 7895154
-0.38610002 0.0081000002 0.94500005 7895155
-0.38552001 0.008125715 0.94800007 7960948
-0.38452384 0.0081428569 0.95000005 8026482
-0.3827143 0.0081428569 0.95000005 7895408
-0.38210765 0.0081685716 0.95300007 7764336
-0.38029242 0.0081685716 0.95300007 7501168
-0.37927145 0.0081857145 0.95500004 7236952
-0.3774524 0.0081857145 0.95500004 7103808
-0.37563333 0.0081857145 0.95500004 6965827
-0.37381428 0.0081857145 0.95500004 4602949
-0.51341146 0.0093657151 0.89400005 7506051
-0.51170856 0.0093657151 0.89400005 9080968
-0.51000577 0.0093657151 0.89400005 9080461
-0.50830287 0.0093657151 0.89400005 9014670
-0.50490004 0.0093342857 0.89100003 9080207
-0.50320292 0.0093342857 0.89100003 9080465
-0.50150573 0.0093342857 0.89100003 9080467
-0.4986867 0.0093133338 0.88900006 9080720
-0.49699333 0.0093133338 0.88900006 9145997
-0.49418572 0.0092923809 0.88700002 9146000
-0.49249622 0.0092923809 0.88700002 9211540
-0.48914671 0.0092609534 0.88400006 9342869
-0.48746288 0.0092609534 0.88400006 9277335
-0.48577908 0.0092609534 0.88400006 9211544
-0.48409528 0.0092609534 0.88400006 9211546
-0.48241147 0.0092609534 0.88400006 9211544
-0.48235905 0.0092923809 0.88700002 9080470
-0.48066953 0.0092923809 0.88700002 9014932
-0.47898 0.0092923809 0.88700002 8883347
-0.47729048 0.0092923809 0.88700002 8817808
-0.47560096 0.0092923809 0.88700002 8883597
-0.47230861 0.0092609534 0.88400006 8949135
-0.4706248 0.0092609534 0.88400006 9014674
-0.46788001 0.0092400005 0.88200003 9080209
-0.46619999 0.0092400005 0.88200003 9014673
-0.46452001 0.0092400005 0.88200003 9014669
-0.46284002 0.0092400005 0.88200003 9014666
-0.46116 0.0092400005 0.88200003 9014159
-0.46052194 0.0092609534 0.88400006 9014164
-0.45883811 0.0092609534 0.88400006 9014420
-0.4571543 0.0092609534 0.88400006 8948628
-0.45547053 0.0092609534 0.88400006 8948373
-0.4537867 0.0092609534 0.88400006 8883095
-0.4521029 0.0092609534 0.88400006 8883091
-0.45041907 0.0092609534 0.88400006 8883088
-0.44873527 0.0092609534 0.88400006 8883089
-0.44705144 0.0092609534 0.88400006 8817299
-0.44536766 0.0092609534 0.88400006 8751247
-0.44518954 0.0092923809 0.88700002 8751243
-0.44350001 0.0092923809 0.88700002 8751244
-0.44181046 0.0092923809 0.88700002 8751502
-0.44012097 0.0092923809 0.88700002 8751759
-0.43843144 0.0092923809 0.88700002 8817296
-0.43772671 0.0093133338 0.88900006 8883348
-0.43603334 0.0093133338 0.88900006 7635864
-0.43434003 0.0093133338 0.88900006 6386561
-0.43167335 0.0092923809 0.88700002 4869738
-0.42998379 0.0092923809 0.88700002 3358049
-0.4282943 0.0092923809 0.88700002 3622488
-0.42660475 0.0092923809 0.88700002 3951187
-0.42491525 0.0092923809 0.88700002 3951438
-0.42418003 0.0093133338 0.88900006 4017229
-0.42343715 0.0093342857 0.89100003 4082765
-0.42174003 0.0093342857 0.89100003 4082768
-0.42145717 0.0093657151 0.89400005 4214099
-0.41975433 0.0093657151 0.89400005 4410964
-0.41805145 0.0093657151 0.89400005 4345429
-0.41728002 0.0093866661 0.89600003 4345685
-0.41557336 0.0093866661 0.89600003 4411478
-0.41479051 0.009407619 0.89800006 4542549
-0.41446 0.0094390474 0.90100002 4542548
-0.41366002 0.0094600003 0.90300006 4542549
-0.41422099 0.0095123816 0.90800005 4607574
-0.41249144 0.0095123816 0.90800005 4607322
-0.41076192 0.0095123816 0.90800005 5460574
-0.40768096 0.0094809523 0.90500003 6313836
-0.40730289 0.0095123816 0.90800005 7174522
-0.40646666 0.0095333336 0.91000003 8028027
-0.40473333 0.0095333336 0.91000003 8028028
-0.40300003 0.0095333336 0.91000003 8093052
-0.40126666 0.0095333336 0.91000003 8158588
-0.4008505 0.009564762 0.91300005 8224123
-0.40086001 0.0096066678 0.91700006 8093307
-0.39911336 0.0096066678 0.91700006 7962234
-0.39736667 0.0096066678 0.91700006 8027258
-0.39562002 0.0096066678 0.91700006 8158328
-0.39387333 0.0096066678 0.91700006 8092791
-0.39340955 0.0096380953 0.92000002 8092275
-0.39378574 0.0096904775 0.92500007 7961199
-0.3941429 0.0097428579 0.93000007 7830391
-0.39237145 0.0097428579 0.93000007 7961472
-0.39144 0.0097638099 0.93200004 8158331
-0.39091906 0.0097952392 0.93500006 8092791
-0.38913813 0.0097952392 0.93500006 8026998
-0.38818571 0.0098161902 0.93700004 7895414
-0.38763812 0.0098476186 0.94000006 7829364
-0.38666859 0.0098685715 0.94200003 7829363
-0.38610002 0.0098999999 0.94500005 7894900
-0.38552001 0.0099314293 0.94800007 7960693
-0.38452384 0.0099523813 0.95000005 8025969
-0.3827143 0.0099523813 0.95000005 7895406
-0.38210765 0.0099838106 0.95300007 7830127
-0.38029242 0.0099838106 0.95300007 6514289
-0.37927145 0.010004762 0.95500004 5261911
-0.3774524 0.010004762 0.95500004 5263677
-0.37563333 0.010004762 0.95500004 5265723
-0.37381428 0.010004762 0.95500004 3747386
-0.51285338 0.011093334 0.89600003 8882312
-0.51000577 0.011068572 0.89400005 8884623
-0.50830287 0.011068572 0.89400005 8949136
-0.50490004 0.011031428 0.89100003 9014930
-0.50320292 0.011031428 0.89100003 9080467
-0.50150573 0.011031428 0.89100003 9080468
-0.4986867 0.011006667 0.88900006 9080724
-0.49699333 0.011006667 0.88900006 9146772
-0.49418572 0.010981904 0.88700002 9211795
-0.49249622 0.010981904 0.88700002 9212051
-0.49080664 0.010981904 0.88700002 9211796
-0.48746288 0.010944762 0.88400006 9211797
-0.48577908 0.010944762 0.88400006 9211799
-0.48409528 0.010944762 0.88400006 9211802
-0.48241147 0.010944762 0.88400006 9277334
-0.48235905 0.010981904 0.88700002 9079955
-0.48066953 0.010981904 0.88700002 8948883
-0.47898 0.010981904 0.88700002 8883602
-0.47729048 0.010981904 0.88700002 8883599
-0.47560096 0.010981904 0.88700002 8883596
-0.47230861 0.010944762 0.88400006 8949135
-0.46956003 0.01092 0.88200003 8949394
-0.46788001 0.01092 0.88200003 8949394
-0.46619999 0.01092 0.88200003 8949394
-0.46452001 0.01092 0.88200003 8949136
-0.46284002 0.01092 0.88200003 9014671
-0.46116 0.01092 0.88200003 9079698
-0.46052194 0.010944762 0.88400006 9014166
-0.45883811 0.010944762 0.88400006 9014165
-0.4571543 0.010944762 0.88400006 8948628
-0.45547053 0.010944762 0.88400006 8948628
-0.4537867 0.010944762 0.88400006 8883092
-0.4521029 0.010944762 0.88400006 8817554
-0.45041907 0.010944762 0.88400006 8817808
-0.45025811 0.010981904 0.88700002 8817552
-0.44705144 0.010944762 0.88400006 8817040
-0.44536766 0.010944762 0.88400006 8817038
-0.44518954 0.010981904 0.88700002 8751500
-0.44350001 0.010981904 0.88700002 8751501
-0.44181046 0.010981904 0.88700002 8751758
-0.44012097 0.010981904 0.88700002 8751759
-0.43843144 0.010981904 0.88700002 8752016
-0.43674192 0.010981904 0.88700002 8752275
-0.43505239 0.010981904 0.88700002 7043991
-0.43336287 0.010981904 0.88700002 5335162
-0.43167335 0.010981904 0.88700002 4276573
-0.42998379 0.010981904 0.88700002 3294297
-0.4282943 0.010981904 0.88700002 3557205
-0.42660475 0.010981904 0.88700002 3885393
-0.42587334 0.011006667 0.88900006 3885133
-0.4251343 0.011031428 0.89100003 3885645
-0.42343715 0.011031428 0.89100003 3951694
-0.42316002 0.011068572 0.89400005 4017231
-0.42145717 0.011068572 0.89400005 4148305
-0.41975433 0.011068572 0.89400005 4279633
-0.41805145 0.011068572 0.89400005 4214354
-0.41422099 0.011241905 0.90800005 4541523
-0.41249144 0.011241905 0.90800005 4476766
-0.41076192 0.011241905 0.90800005 5920873
-0.4090324 0.011241905 0.90800005 7367284
-0.40730289 0.011241905 0.90800005 7699838
-0.40646666 0.011266666 0.91000003 8093309
-0.40473333 0.011266666 0.91000003 8093564
-0.40300003 0.011266666 0.91000003 8093053
-0.40126666 0.011266666 0.91000003 8158845
-0.4008505 0.011303809 0.91300005 8224379
-0.39998573 0.011328571 0.91500002 8158842
-0.39824286 0.011328571 0.91500002 8093305
-0.39736667 0.011353333 0.91700006 8092793
-0.39562002 0.011353333 0.91700006 8092792
-0.39516193 0.011390476 0.92000002 8092791
-0.39426479 0.011415238 0.92200005 8158069
-0.39378574 0.011452381 0.92500007 8092275
-0.39202383 0.011452381 0.92500007 8027000
-0.39237145 0.011514287 0.93000007 8027261
-0.39144 0.011539048 0.93200004 8092794
-0.38966477 0.011539048 0.93200004 8027511
-0.38913813 0.011576191 0.93500006 8026998
-0.38942859 0.011638097 0.94000006 7829878
-0.38763812 0.011638097 0.94000006 7698803
-0.38666859 0.011662858 0.94200003 7764337
-0.38610002 0.011700001 0.94500005 7895412
-0.38552001 0.011737144 0.94800007 7960951
-0.38452384 0.011761905 0.95000005 8092018
-0.38392287 0.011799049 0.95300007 7960940
-0.38210765 0.011799049 0.95300007 7895666
-0.38029242 0.011799049 0.95300007 5592953
-0.37927145 0.011823811 0.95500004 3362138
-0.3774524 0.011823811 0.95500004 3484476
-0.37563333 0.011823811 0.95500004 3614265
-0.37381428 0.011823811 0.95500004 2892087
-0.51285338 0.012800001 0.89600003 8552841
-0.51000577 0.012771429 0.89400005 8687249
-0.50830287 0.012771429 0.89400005 8883603
-0.50490004 0.012728572 0.89100003 8949142
-0.50320292 0.012728572 0.89100003 9014933
-0.50038004 0.012700001 0.88900006 9014933
-0.4986867 0.012700001 0.88900006 9015192
-0.49699333 0.012700001 0.88900006 9080731
-0.49418572 0.012671429 0.88700002 9146262
-0.49249622 0.012671429 0.88700002 9146514
-0.49080664 0.012671429 0.88700002 9146770
-0.48746288 0.012628572 0.88400006 9146515
-0.48577908 0.012628572 0.88400006 9146262
-0.48409528 0.012628572 0.88400006 9146266
-0.48241147 0.012628572 0.88400006 9212053
-0.48235905 0.012671429 0.88700002 9079953
-0.48066953 0.012671429 0.88700002 8948881
-0.47736001 0.012628572 0.88400006 8883346
-0.47567621 0.012628572 0.88400006 8752014
-0.47399241 0.012628572 0.88400006 8817803
-0.47230861 0.012628572 0.88400006 8883598
-0.4706248 0.012628572 0.88400006 8948882
-0.46788001 0.0126 0.88200003 8948883
-0.46619999 0.0126 0.88200003 8949140
-0.46452001 0.0126 0.88200003 8949396
-0.46284002 0.0126 0.88200003 9014676
-0.46116 0.0126 0.88200003 9079958
-0.46052194 0.012628572 0.88400006 9014169
-0.46039525 0.012671429 0.88700002 8948630
-0.45870572 0.012671429 0.88700002 8948628
-0.45547053 0.012628572 0.88400006 8883603
-0.4537867 0.012628572 0.88400006 8882834
-0.45363715 0.012671429 0.88700002 8817553
-0.45194763 0.012671429 0.88700002 8817552
-0.45025811 0.012671429 0.88700002 8817807
-0.44705144 0.012628572 0.88400006 8817550
-0.44536766 0.012628572 0.88400006 8883086
-0.44368383 0.012628572 0.88400006 8817550
-0.44350001 0.012671429 0.88700002 8817550
-0.44031623 0.012628572 0.88400006 8752270
-0.4386324 0.012628572 0.88400006 8686991
-0.4369486 0.012628572 0.88400006 8620944
-0.43674192 0.012671429 0.88700002 8621203
-0.43505239 0.012671429 0.88700002 6516374
-0.43189716 0.012628572 0.88400006 4480627
-0.43167335 0.012671429 0.88700002 4080721
-0.42998379 0.012671429 0.88700002 3687761
-0.42926002 0.012700001 0.88900006 3885138
-0.42756671 0.012700001 0.88900006 4016975
-0.42683142 0.012728572 0.89100003 3950925
-0.42656571 0.012771429 0.89400005 3885390
-0.42486286 0.012771429 0.89400005 3951695
-0.42410669 0.012800001 0.89600003 4016975
-0.42240003 0.012800001 0.89600003 4148303
-0.41366002 0.0129 0.90300006 4803153
-0.41422099 0.012971429 0.90800005 5000785
-0.41249144 0.012971429 0.90800005 5198435
-0.41076192 0.012971429 0.90800005 6515573
-0.4090324 0.012971429 0.90800005 7832188
-0.40730289 0.012971429 0.90800005 8027779
-0.40646666 0.013 0.91000003 8224384
-0.40473333 0.013 0.91000003 8158589
-0.40300003 0.013 0.91000003 8093054
-0.40126666 0.013 0.91000003 8158591
-0.4008505 0.013042858 0.91300005 8224380
-0.39998573 0.013071429 0.91500002 8158841
-0.39911336 0.013100001 0.91700006 8093304
-0.39736667 0.013100001 0.91700006 8092792
-0.3969143 0.013142857 0.92000002 8092791
-0.39602098 0.013171429 0.92200005 8027255
-0.39554766 0.013214286 0.92500007 8027511
-0.39463717 0.013242858 0.92700005 8026744
-0.3941429 0.013285715 0.93000007 8027001
-0.39237145 0.013285715 0.93000007 8027002
-0.39144 0.013314286 0.93200004 8092536
-0.38966477 0.013314286 0.93200004 8026999
-0.38997048 0.013385714 0.93700004 8026998
-0.38818571 0.013385714 0.93700004 7895670
-0.38763812 0.013428572 0.94000006 7830130
-0.38789999 0.013500001 0.94500005 7830127
-0.38732573 0.013542858 0.94800007 7895668
-0.38552001 0.013542858 0.94800007 7895418
-0.38452384 0.013571429 0.95000005 7960946
-0.38392287 0.013614287 0.95300007 7829867
-0.38210765 0.013614287 0.95300007 7633782
-0.38029242 0.013614287 0.95300007 6119041
-0.37847716 0.013614287 0.95300007 4542814
-0.37666193 0.013614287 0.95300007 4605499
-0.37484667 0.013614287 0.95300007 4668471
-0.37381428 0.013642858 0.95500004 3484724
-0.51000577 0.014474287 0.89400005 8555665
-0.50830287 0.014474287 0.89400005 8883348
-0.50490004 0.014425715 0.89100003 8883607
-0.50207341 0.014393334 0.88900006 8949139
-0.50038004 0.014393334 0.88900006 8949392
-0.4986867 0.014393334 0.88900006 9014932
-0.49699333 0.014393334 0.88900006 9014936
-0.49418572 0.014360953 0.88700002 9080470
-0.49249622 0.014360953 0.88700002 9080980
-0.49080664 0.014360953 0.88700002 9146515
-0.48746288 0.014312382 0.88400006 9146771
-0.48577908 0.014312382 0.88400006 9146261
-0.4857381 0.014360953 0.88700002 9146263
-0.48404858 0.014360953 0.88700002 9146004
-0.48235905 0.014360953 0.88700002 9080209
-0.48066953 0.014360953 0.88700002 9014417
-0.47736001 0.014312382 0.88400006 8817810
-0.47567621 0.014312382 0.88400006 8686479
-0.47399241 0.014312382 0.88400006 8752012
-0.47230861 0.014312382 0.88400006 8883086
-0.4706248 0.014312382 0.88400006 8948881
-0.46894097 0.014312382 0.88400006 9014418
-0.46619999 0.014280001 0.88200003 8949139
-0.46452001 0.014280001 0.88200003 8949139
-0.46284002 0.014280001 0.88200003 9014675
-0.46116 0.014280001 0.88200003 9145234
-0.46052194 0.014312382 0.88400006 9014162
-0.45883811 0.014312382 0.88400006 8948626
-0.4571543 0.014312382 0.88400006 8883346
-0.45547053 0.014312382 0.88400006 8883088
-0.45532668 0.014360953 0.88700002 8882831
-0.45363715 0.014360953 0.88700002 8882831
-0.45194763 0.014360953 0.88700002 8817296
-0.45025811 0.014360953 0.88700002 8817294
-0.44705144 0.014312382 0.88400006 8883084
-0.44536766 0.014312382 0.88400006 8948623
-0.44368383 0.014312382 0.88400006 8883091
-0.44350001 0.014360953 0.88700002 8883088
-0.44031623 0.014312382 0.88400006 8752525
-0.44012097 0.014360953 0.88700002 8621455
-0.4369486 0.014312382 0.88400006 8555153
-0.43674192 0.014360953 0.88700002 8487553
-0.43505239 0.014360953 0.88700002 6054513
-0.43336287 0.014360953 0.88700002 3626081
-0.43167335 0.014360953 0.88700002 3884882
-0.42998379 0.014360953 0.88700002 4147281
-0.43022573 0.014425715 0.89100003 4147792
-0.42852858 0.014425715 0.89100003 4213327
-0.42683142 0.014425715 0.89100003 4082254
-0.42656571 0.014474287 0.89400005 3951438
-0.42486286 0.014474287 0.89400005 4017230
-0.42316002 0.014474287 0.89400005 4082765
-0.42240003 0.014506667 0.89600003 4148301
-0.41630003 0.014652381 0.90500003 4606550
-0.41366002 0.01462 0.90300006 5000278
-0.41194001 0.01462 0.90300006 5460054
-0.41112858 0.014652381 0.90500003 5923943
-0.40940475 0.014652381 0.90500003 7110521
-0.40768096 0.014652381 0.90500003 8290172
-0.40595713 0.014652381 0.90500003 8355710
-0.40557334 0.014700953 0.90800005 8420733
-0.40473333 0.014733333 0.91000003 8289659
-0.40300003 0.014733333 0.91000003 8158588
-0.40126666 0.014733333 0.91000003 8223612
-0.39953333 0.014733333 0.91000003 8289402
-0.39998573 0.014814286 0.91500002 8158585
-0.39911336 0.014846667 0.91700006 8092792
-0.39736667 0.014846667 0.91700006 8092792
-0.39562002 0.014846667 0.91700006 8092537
-0.39602098 0.014927619 0.92200005 8027002
-0.39554766 0.014976191 0.92500007 7961465
-0.39463717 0.015008572 0.92700005 8027001
-0.3941429 0.015057144 0.93000007 8092537
-0.39321524 0.015089524 0.93200004 8092537
-0.39144 0.015089524 0.93200004 8092535
-0.39091906 0.015138096 0.93500006 8092790
-0.38997048 0.015170476 0.93700004 8092533
-0.38942859 0.015219049 0.94000006 8026740
-0.38846287 0.015251428 0.94200003 7960947
-0.38789999 0.0153 0.94500005 7895153
-0.38814288 0.015380953 0.95000005 7895156
-0.38755336 0.015429524 0.95300007 7895416
-0.3857381 0.015429524 0.95300007 7895408
-0.38392287 0.015429524 0.95300007 7633513
-0.38210765 0.015429524 0.95300007 7436912
-0.38029242 0.015429524 0.95300007 6579576
-0.37847716 0.015429524 0.95300007 5789019
-0.37666193 0.015429524 0.95300007 5723966
-0.37484667 0.015429524 0.95300007 5722177
-0.37381428 0.015461905 0.95500004 4081988
-0.51571524 0.016303809 0.90100002 7893355
-0.51114672 0.016213333 0.89600003 8490130
-0.50830287 0.016177142 0.89400005 9080725
-0.50490004 0.016122857 0.89100003 9014680
-0.50320292 0.016122857 0.89100003 8949137
-0.50150573 0.016122857 0.89100003 9014667
-0.4986867 0.016086668 0.88900006 9014672
-0.49699333 0.016086668 0.88900006 9014677
-0.49418572 0.016050477 0.88700002 9080469
-0.49249622 0.016050477 0.88700002 9014934
-0.49080664 0.016050477 0.88700002 9015188
-0.48746288 0.015996192 0.88400006 9080723
-0.48577908 0.015996192 0.88400006 9080724
-0.48409528 0.015996192 0.88400006 9146005
-0.48241147 0.015996192 0.88400006 9145747
-0.48072764 0.015996192 0.88400006 9080209
-0.47904384 0.015996192 0.88400006 8949137
-0.47736001 0.015996192 0.88400006 8883602
-0.47567621 0.015996192 0.88400006 8752527
-0.47399241 0.015996192 0.88400006 8817293
-0.47230861 0.015996192 0.88400006 8882831
-0.46956003 0.01596 0.88200003 8948625
-0.46788001 0.01596 0.88200003 9079953
-0.46619999 0.01596 0.88200003 9014674
-0.46452001 0.01596 0.88200003 8949138
-0.46284002 0.01596 0.88200003 9014674
-0.46116 0.01596 0.88200003 9079695
-0.46052194 0.015996192 0.88400006 9014156
-0.46039525 0.016050477 0.88700002 8948878
-0.45870572 0.016050477 0.88700002 8948624
-0.45547053 0.015996192 0.88400006 9013646
-0.45532668 0.016050477 0.88700002 8948108
-0.45363715 0.016050477 0.88700002 8882574
-0.45194763 0.016050477 0.88700002 8817041
-0.45025811 0.016050477 0.88700002 8816782
-0.44705144 0.015996192 0.88400006 8816779
-0.44687906 0.016050477 0.88700002 8817041
-0.44518954 0.016050477 0.88700002 8817304
-0.44350001 0.016050477 0.88700002 8817554
-0.44181046 0.016050477 0.88700002 8752524
-0.44012097 0.016050477 0.88700002 8752783
-0.43843144 0.016050477 0.88700002 7768467
-0.43674192 0.016050477 0.88700002 6846831
-0.43603334 0.016086668 0.88900006 5263180
-0.43336287 0.016050477 0.88700002 3750223
-0.43167335 0.016050477 0.88700002 3885139
-0.43192285 0.016122857 0.89100003 4016721
-0.4316743 0.016177142 0.89400005 4082511
-0.42997146 0.016177142 0.89400005 4148303
-0.42922667 0.016213333 0.89600003 4082768
-0.42752001 0.016213333 0.89600003 4083022
-0.42581335 0.016213333 0.89600003 4148301
-0.42316002 0.016177142 0.89400005 4213836
-0.41538 0.016340001 0.90300006 4803674
-0.41274381 0.016303809 0.90100002 5066330
-0.41102761 0.016303809 0.90100002 6054491
-0.41022003 0.016340001 0.90300006 7108460
-0.40850002 0.016340001 0.90300006 7634814
-0.40768096 0.01637619 0.90500003 8158844
-0.40595713 0.01637619 0.90500003 8224378
-0.40423334 0.01637619 0.90500003 8289658
-0.40473333 0.016466668 0.91000003 8224122
-0.4021143 0.016430477 0.90800005 8158586
-0.40038478 0.016430477 0.90800005 8158330
-0.39953333 0.016466668 0.91000003 8158329
-0.39998573 0.016557142 0.91500002 8092793
-0.39824286 0.016557142 0.91500002 8092793
-0.39650002 0.016557142 0.91500002 8092537
-0.39562002 0.016593333 0.91700006 8158075
-0.39387333 0.016593333 0.91700006 8027005
-0.39426479 0.016683811 0.92200005 7895932
-0.39463717 0.016774286 0.92700005 8027003
-0.3941429 0.016828572 0.93000007 8158073
-0.39321524 0.016864762 0.93200004 8092536
-0.39270002 0.016919049 0.93500006 8093046
-0.39091906 0.016919049 0.93500006 8158069
-0.38997048 0.01695524 0.93700004 8223604
-0.38942859 0.017009525 0.94000006 8092275
-0.38763812 0.017009525 0.94000006 8026483
-0.38789999 0.017100001 0.94500005 7960692
-0.38732573 0.017154286 0.94800007 7895157
-0.38755336 0.017244764 0.95300007 7895158
-0.3857381 0.017244764 0.95300007 7829870
-0.38392287 0.017244764 0.95300007 7698791
-0.38210765 0.017244764 0.95300007 7567723
-0.38029242 0.017244764 0.95300007 6316655
-0.37927145 0.017280953 0.95500004 5134680
-0.3774524 0.017280953 0.95500004 4938050
-0.51571524 0.01802 0.90100002 7632231
-0.51114672 0.01792 0.89600003 8424848
-0.50944 0.01792 0.89600003 9277073
-0.50660002 0.017880002 0.89400005 9146003
-0.50320292 0.017820001 0.89100003 9014417
-0.50150573 0.017820001 0.89100003 9014414
-0.4986867 0.01778 0.88900006 9080210
-0.49699333 0.01778 0.88900006 9080214
-0.49418572 0.01774 0.88700002 9080214
-0.49249622 0.01774 0.88700002 9014679
-0.49080664 0.01774 0.88700002 8949653
-0.48746288 0.017680001 0.88400006 9015444
-0.48577908 0.017680001 0.88400006 9080724
-0.4857381 0.01774 0.88700002 9146005
-0.48404858 0.01774 0.88700002 9211283
-0.48235905 0.01774 0.88700002 9080465
-0.47904384 0.017680001 0.88400006 8949138
-0.47736001 0.017680001 0.88400006 8883603
-0.47567621 0.017680001 0.88400006 8883088
-0.47399241 0.017680001 0.88400006 8882573
-0.47230861 0.017680001 0.88400006 8882574
-0.46956003 0.01764 0.88200003 9013903
-0.46788001 0.01764 0.88200003 9145487
-0.46619999 0.01764 0.88200003 9080207
-0.46452001 0.01764 0.88200003 9014674
-0.46284002 0.01764 0.88200003 9014677
-0.46116 0.01764 0.88200003 9014418
-0.46052194 0.017680001 0.88400006 9014416
-0.46039525 0.01774 0.88700002 9014416
-0.45870572 0.01774 0.88700002 9079440
-0.4570162 0.01774 0.88700002 9144975
-0.45532668 0.01774 0.88700002 9013903
-0.45363715 0.01774 0.88700002 8882577
-0.45194763 0.01774 0.88700002 8817044
-0.45025811 0.01774 0.88700002 8816784
-0.44705144 0.017680001 0.88400006 8751245
-0.44536766 0.017680001 0.88400006 8751504
-0.44518954 0.01774 0.88700002 8751764
-0.44350001 0.01774 0.88700002 8817809
-0.44031623 0.017680001 0.88400006 8818062
-0.44012097 0.01774 0.88700002 8883856
-0.43843144 0.01774 0.88700002 7047314
-0.43674192 0.01774 0.88700002 5200234
-0.43603334 0.01778 0.88900006 4537667
-0.43336287 0.01774 0.88700002 3881800
-0.43264669 0.01778 0.88900006 3885645
-0.43192285 0.017820001 0.89100003 3951437
-0.4316743 0.017880002 0.89400005 4017228
-0.43093333 0.01792 0.89600003 4148301
-0.42922667 0.01792 0.89600003 4148559
-0.42752001 0.01792 0.89600003 4214094
-0.42581335 0.01792 0.89600003 4279629
-0.41538 0.018060001 0.90300006 5001047
-0.41274381 0.01802 0.90100002 5135972
-0.41102761 0.01802 0.90100002 6716017
-0.41022003 0.018060001 0.90300006 8355190
-0.40850002 0.018060001 0.90300006 8224892
-0.40768096 0.018100001 0.90500003 8093307
-0.40595713 0.018100001 0.90500003 8093307
-0.40557334 0.01816 0.90800005 8158586
-0.40473333 0.018200001 0.91000003 8158585
-0.40300003 0.018200001 0.91000003 8158584
-0.40038478 0.01816 0.90800005 8093048
-0.39953333 0.018200001 0.91000003 8092792
-0.39998573 0.018300001 0.91500002 8092793
-0.39824286 0.018300001 0.91500002 8092793
-0.39650002 0.018300001 0.91500002 8158074
-0.39562002 0.018340001 0.91700006 8289148
-0.39516193 0.0184 0.92000002 8027006
-0.39426479 0.018440001 0.92200005 7830396
-0.39378574 0.0185 0.92500007 8027003
-0.39202383 0.0185 0.92500007 8223609
-0.39321524 0.01864 0.93200004 8158071
-0.39270002 0.018700002 0.93500006 8092534
-0.39091906 0.018700002 0.93500006 8223606
-0.38997048 0.01874 0.93700004 8354423
-0.38942859 0.018800002 0.94000006 8223352
-0.38763812 0.018800002 0.94000006 8092022
-0.38789999 0.018900001 0.94500005 8025972
-0.38732573 0.018960001 0.94800007 7960695
-0.38755336 0.019060001 0.95300007 7895161
-0.3857381 0.019060001 0.95300007 7829875
-0.38392287 0.019060001 0.95300007 7764589
-0.38210765 0.019060001 0.95300007 7698538
-0.38029242 0.019060001 0.95300007 6119528
-0.37847716 0.019060001 0.95300007 4542292
-0.3774524 0.019099999 0.95500004 4210240
-0.51571524 0.019736189 0.90100002 7436644
-0.51114672 0.019626666 0.89600003 8359822
-0.50944 0.019626666 0.89600003 9277070
-0.50660002 0.019582856 0.89400005 9145487
-0.50320292 0.019517142 0.89100003 9014160
-0.50150573 0.019517142 0.89100003 9014674
-0.49980858 0.019517142 0.89100003 9080468
-0.49811146 0.019517142 0.89100003 9145751
-0.49530005 0.019473333 0.88900006 9211287
-0.49360672 0.019473333 0.88900006 9080472
-0.49191335 0.019473333 0.88900006 9015446
-0.48911715 0.019429525 0.88700002 9080981
-0.48742762 0.019429525 0.88700002 9080981
-0.48683333 0.019473333 0.88900006 9211286
-0.48404858 0.019429525 0.88700002 9276819
-0.48235905 0.019429525 0.88700002 9145745
-0.47904384 0.019363809 0.88400006 8949138
-0.47736001 0.019363809 0.88400006 8883348
-0.47567621 0.019363809 0.88400006 8817040
-0.47399241 0.019363809 0.88400006 8816781
-0.47230861 0.019363809 0.88400006 8751245
-0.46956003 0.019320002 0.88200003 8883085
-0.46788001 0.019320002 0.88200003 9079948
-0.46619999 0.019320002 0.88200003 9014412
-0.46452001 0.019320002 0.88200003 8948626
-0.46284002 0.019320002 0.88200003 8948632
-0.46116 0.019320002 0.88200003 8948886
-0.46208477 0.019429525 0.88700002 8883348
-0.46039525 0.019429525 0.88700002 8883346
-0.45870572 0.019429525 0.88700002 8883089
-0.4570162 0.019429525 0.88700002 8883089
-0.45532668 0.019429525 0.88700002 8882834
-0.45363715 0.019429525 0.88700002 8882836
-0.45194763 0.019429525 0.88700002 8817303
-0.45025811 0.019429525 0.88700002 8752019
-0.44705144 0.019363809 0.88400006 8751760
-0.44536766 0.019363809 0.88400006 8751760
-0.44368383 0.019363809 0.88400006 8686480
-0.44350001 0.019429525 0.88700002 8686992
-0.44031623 0.019363809 0.88400006 8621456
-0.4386324 0.019363809 0.88400006 8556176
-0.4369486 0.019363809 0.88400006 6123153
-0.43674192 0.019429525 0.88700002 3684966
-0.43505239 0.019429525 0.88700002 3685435
-0.43336287 0.019429525 0.88700002 3685953
-0.43264669 0.019473333 0.88900006 3620936
-0.43095335 0.019473333 0.88900006 3621705
-0.43022573 0.019517142 0.89100003 3687242
-0.42997146 0.019582856 0.89400005 3753036
-0.42826861 0.019582856 0.89400005 3753038
-0.42656571 0.019582856 0.89400005 3753038
-0.42581335 0.019626666 0.89600003 3883854
-0.41446 0.019736189 0.90100002 6052692
-0.41274381 0.019736189 0.90100002 6778734
-0.40965906 0.019670477 0.89800006 7502984
-0.40931144 0.019736189 0.90100002 8224897
-0.40850002 0.019780001 0.90300006 8159098
-0.40768096 0.01982381 0.90500003 8093563
-0.40595713 0.01982381 0.90500003 8158844
-0.40423334 0.01982381 0.90500003 8158330
-0.40473333 0.019933334 0.91000003 8158584
-0.40300003 0.019933334 0.91000003 8093047
-0.40126666 0.019933334 0.91000003 8092790
-0.39953333 0.019933334 0.91000003 8027255
-0.39998573 0.020042857 0.91500002 8027257
-0.39911336 0.020086668 0.91700006 8027258
-0.39736667 0.020086668 0.91700006 8092539
-0.39562002 0.020086668 0.91700006 8158077
-0.39516193 0.020152381 0.92000002 8027008
-0.39426479 0.020196192 0.92200005 7895933
-0.39378574 0.020261906 0.92500007 7961467
-0.3941429 0.02037143 0.93000007 8092280
-0.39321524 0.020415239 0.93200004 8092534
-0.39270002 0.020480953 0.93500006 8026998
-0.39091906 0.020480953 0.93500006 8157815
-0.38997048 0.020524763 0.93700004 8223354
-0.38942859 0.020590477 0.94000006 8157821
-0.38846287 0.020634286 0.94200003 8026745
-0.38789999 0.0207 0.94500005 7960949
-0.38732573 0.020765714 0.94800007 7960953
-0.38755336 0.02087524 0.95300007 7829629
-0.3857381 0.02087524 0.95300007 7698040
-0.38392287 0.02087524 0.95300007 7501427
-0.38210765 0.02087524 0.95300007 7305066
-0.38029242 0.02087524 0.95300007 4800097
-0.37847716 0.02087524 0.95300007 2301520
-0.51571524 0.021452382 0.90100002 7238768
-0.51228768 0.021380953 0.89800006 8295058
-0.51057714 0.021380953 0.89800006 9342864
-0.50660002 0.021285716 0.89400005 9145231
-0.50489718 0.021285716 0.89400005 9014416
-0.50150573 0.021214288 0.89100003 9080722
-0.49980858 0.021214288 0.89100003 9146260
-0.49811146 0.021214288 0.89100003 9211799
-0.49641433 0.021214288 0.89100003 9342871
-0.49360672 0.021166669 0.88900006 9211799
-0.49191335 0.021166669 0.88900006 9146263
-0.49022001 0.021166669 0.88900006 9146519
-0.48742762 0.021119049 0.88700002 9146006
-0.4857381 0.021119049 0.88700002 9276821
-0.48404858 0.021119049 0.88700002 9407891
-0.48235905 0.021119049 0.88700002 9211537
-0.47904384 0.02104762 0.88400006 9014674
-0.47628 0.021000002 0.88200003 8883347
-0.47460002 0.021000002 0.88200003 8816784
-0.47399241 0.02104762 0.88400006 8751246
-0.47123998 0.021000002 0.88200003 8685712
-0.46956003 0.021000002 0.88200003 8817810
-0.46788001 0.021000002 0.88200003 9014416
-0.46619999 0.021000002 0.88200003 8948879
-0.46452001 0.021000002 0.88200003 8948626
-0.46284002 0.021000002 0.88200003 8883093
-0.46116 0.021000002 0.88200003 8883348
-0.46208477 0.021119049 0.88700002 8817811
-0.46039525 0.021119049 0.88700002 8752275
-0.45870572 0.021119049 0.88700002 8686739
-0.4570162 0.021119049 0.88700002 8686482
-0.45532668 0.021119049 0.88700002 8751761
-0.45363715 0.021119049 0.88700002 8882833
-0.45194763 0.021119049 0.88700002 8817554
-0.44873527 0.02104762 0.88400006 8752017
-0.44705144 0.02104762 0.88400006 8752016
-0.44536766 0.02104762 0.88400006 8817296
-0.44368383 0.02104762 0.88400006 8686735
-0.44200003 0.02104762 0.88400006 8555408
-0.44031623 0.02104762 0.88400006 8424337
-0.4386324 0.02104762 0.88400006 8290432
-0.4369486 0.02104762 0.88400006 5264750
-0.4352648 0.02104762 0.88400006 2239575
-0.43505239 0.021119049 0.88700002 2830655
-0.43336287 0.021119049 0.88700002 3486783
-0.43264669 0.021166669 0.88900006 3356734
-0.43095335 0.021166669 0.88900006 3291711
-0.43022573 0.021214288 0.89100003 3292223
-0.42852858 0.021214288 0.89100003 3358018
-0.42683142 0.021214288 0.89100003 3358277
-0.4251343 0.021214288 0.89100003 3358278
-0.41710001 0.021500001 0.90300006 5922409
-0.41446 0.021452382 0.90100002 7175278
-0.41274381 0.021452382 0.90100002 8420730
-0.40965906 0.021380953 0.89800006 8224391
-0.40931144 0.021452382 0.90100002 8093312
-0.40850002 0.021500001 0.90300006 8093306
-0.40768096 0.021547619 0.90500003 8158843
-0.40595713 0.021547619 0.90500003 8158844
-0.40557334 0.021619048 0.90800005 8224378
-0.40473333 0.021666666 0.91000003 8158840
-0.40300003 0.021666666 0.91000003 8093048
-0.40126666 0.021666666 0.91000003 8027255
-0.39953333 0.021666666 0.91000003 8027256
-0.39998573 0.021785714 0.91500002 8027257
-0.39824286 0.021785714 0.91500002 8027257
-0.39736667 0.021833334 0.91700006 8027258
-0.3969143 0.021904761 0.92000002 8027003
-0.39602098 0.021952381 0.92200005 7961469
-0.39426479 0.021952381 0.92200005 7961467
-0.39378574 0.022023812 0.92500007 7961721
-0.3941429 0.022142859 0.93000007 8026999
-0.39237145 0.022142859 0.93000007 8026998
-0.39270002 0.022261906 0.93500006 8026999
-0.39091906 0.022261906 0.93500006 8092280
-0.38997048 0.022309525 0.93700004 8157817
-0.38942859 0.022380954 0.94000006 8092538
-0.38846287 0.022428572 0.94200003 8026998
-0.38789999 0.022500001 0.94500005 7961459
-0.38732573 0.022571431 0.94800007 7960949
-0.38755336 0.022690477 0.95300007 7764344
-0.3857381 0.022690477 0.95300007 7568245
-0.38392287 0.022690477 0.95300007 7241074
-0.38210765 0.022690477 0.95300007 6974810
-0.5174191 0.02309143 0.89800006 2307671
-0.51570857 0.02309143 0.89800006 4346467
-0.51285338 0.02304 0.89600003 6385533
-0.51114672 0.02304 0.89600003 7899287
-0.50944 0.02304 0.89600003 9408915
-0.50660002 0.022988571 0.89400005 9211535
-0.50320292 0.022911429 0.89100003 9080464
-0.50150573 0.022911429 0.89100003 9080722
-0.49980858 0.022911429 0.89100003 9146260
-0.49811146 0.022911429 0.89100003 9211799
-0.49641433 0.022911429 0.89100003 9277334
-0.49360672 0.022860002 0.88900006 9211798
-0.49191335 0.022860002 0.88900006 9146264
-0.49022001 0.022860002 0.88900006 9080730
-0.48742762 0.022808572 0.88700002 9014679
-0.4857381 0.022808572 0.88700002 9145748
-0.48404858 0.022808572 0.88700002 9211538
-0.48072764 0.022731431 0.88400006 9080465
-0.47904384 0.022731431 0.88400006 8949137
-0.47628 0.022680001 0.88200003 8882834
-0.47460002 0.022680001 0.88200003 8750992
-0.47399241 0.022731431 0.88400006 8750991
-0.47123998 0.022680001 0.88200003 8751251
-0.46956003 0.022680001 0.88200003 8883095
-0.46788001 0.022680001 0.88200003 9079957
-0.46619999 0.022680001 0.88200003 8948627
-0.46452001 0.022680001 0.88200003 8883091
-0.46388957 0.022731431 0.88400006 8883091
-0.46220574 0.022731431 0.88400006 8817811
-0.46208477 0.022808572 0.88700002 8817811
-0.46143335 0.022860002 0.88900006 8752276
-0.45870572 0.022808572 0.88700002 8752021
-0.4570162 0.022808572 0.88700002 8752018
-0.45532668 0.022808572 0.88700002 8817552
-0.45363715 0.022808572 0.88700002 8883086
-0.45194763 0.022808572 0.88700002 8817549
-0.44873527 0.022731431 0.88400006 8751759
-0.44705144 0.022731431 0.88400006 8751761
-0.44536766 0.022731431 0.88400006 8751760
-0.44368383 0.022731431 0.88400006 8751759
-0.44200003 0.022731431 0.88400006 8752017
-0.44031623 0.022731431 0.88400006 7768211
-0.4386324 0.022731431 0.88400006 6845039
-0.4369486 0.022731431 0.88400006 4274764
-0.4352648 0.022731431 0.88400006 1777224
-0.43505239 0.022808572 0.88700002 2568772
-0.43336287 0.022808572 0.88700002 3355964
-0.43167335 0.022808572 0.88700002 3290421
-0.43192285 0.022911429 0.89100003 3290677
-0.42926002 0.022860002 0.88900006 3225397
-0.42756671 0.022860002 0.88900006 3160377
-0.42683142 0.022911429 0.89100003 3095101
-0.4251343 0.022911429 0.89100003 3029823
-0.4178924 0.023168571 0.90100002 6251630
-0.4161762 0.023168571 0.90100002 7239035
-0.41308004 0.02309143 0.89800006 7700104
-0.41136953 0.02309143 0.89800006 8224903
-0.40965906 0.02309143 0.89800006 8158598
-0.40931144 0.023168571 0.90100002 8158592
-0.40850002 0.023220003 0.90300006 8093050
-0.40768096 0.02327143 0.90500003 8093307
-0.40595713 0.02327143 0.90500003 8093052
-0.40557334 0.023348572 0.90800005 8093050
-0.40473333 0.023400001 0.91000003 8093049
-0.40300003 0.023400001 0.91000003 8027513
-0.40126666 0.023400001 0.91000003 8027257
-0.39953333 0.023400001 0.91000003 7961465
-0.39998573 0.02352857 0.91500002 7961721
-0.39911336 0.02358 0.91700006 7961209
-0.39736667 0.02358 0.91700006 7961210
-0.3969143 0.023657143 0.92000002 8026746
-0.39602098 0.023708573 0.92200005 7961210
-0.39426479 0.023708573 0.92200005 7961209
-0.39378574 0.023785716 0.92500007 7961208
-0.3941429 0.023914289 0.93000007 7961463
-0.39321524 0.023965714 0.93200004 7961462
-0.39270002 0.024042858 0.93500006 8026999
-0.39091906 0.024042858 0.93500006 8092281
-0.38997048 0.024094287 0.93700004 8158072
-0.38942859 0.024171429 0.94000006 8092535
-0.38846287 0.024222856 0.94200003 8027252
-0.38789999 0.024300002 0.94500005 8026993
-0.38732573 0.024377145 0.94800007 7961202
-0.38552001 0.024377145 0.94800007 7895411
-0.3857381 0.024505716 0.95300007 7765106
-0.38392287 0.024505716 0.95300007 7043186
-0.5174191 0.024801906 0.89800006 133427
-0.51341146 0.024691431 0.89400005 2821690
-0.51170856 0.024691431 0.89400005 5593960
-0.51000577 0.024691431 0.89400005 7503767
-0.50830287 0.024691431 0.89400005 9474963
-0.50660002 0.024691431 0.89400005 9277071
-0.50320292 0.024608571 0.89100003 9146002
-0.50150573 0.024608571 0.89100003 9146261
-0.49980858 0.024608571 0.89100003 9146517
-0.49811146 0.024608571 0.89100003 9212309
-0.49641433 0.024608571 0.89100003 9277078
-0.49360672 0.024553334 0.88900006 9211542
-0.49191335 0.024553334 0.88900006 9146265
-0.48911715 0.024498096 0.88700002 9015196
-0.48742762 0.024498096 0.88700002 8949145
-0.4857381 0.024498096 0.88700002 9014678
-0.48404858 0.024498096 0.88700002 9080211
-0.48072764 0.02441524 0.88400006 9014929
-0.47904384 0.02441524 0.88400006 8949137
-0.47628 0.024360001 0.88200003 8817041
-0.47460002 0.024360001 0.88200003 8750991
-0.47292 0.024360001 0.88200003 8816270
-0.47123998 0.024360001 0.88200003 8882321
-0.46956003 0.024360001 0.88200003 9013908
-0.46788001 0.024360001 0.88200003 9144979
-0.46619999 0.024360001 0.88200003 9013906
-0.46452001 0.024360001 0.88200003 8883088
-0.46284002 0.024360001 0.88200003 8817550
-0.46116 0.024360001 0.88200003 8817295
-0.46052194 0.02441524 0.88400006 8817041
-0.46039525 0.024498096 0.88700002 8817299
-0.45974001 0.024553334 0.88900006 8817556
-0.4570162 0.024498096 0.88700002 8817554
-0.45532668 0.024498096 0.88700002 8817808
-0.45363715 0.024498096 0.88700002 8883084
-0.45194763 0.024498096 0.88700002 8817545
-0.45025811 0.024498096 0.88700002 8751760
-0.44856858 0.024498096 0.88700002 8686231
-0.44536766 0.02441524 0.88400006 8686228
-0.44368383 0.02441524 0.88400006 8817042
-0.44200003 0.02441524 0.88400006 9013900
-0.44031623 0.02441524 0.88400006 7177863
-0.44012097 0.024498096 0.88700002 5396325
-0.43843144 0.024498096 0.88700002 3350339
-0.43674192 0.024498096 0.88700002 1320512
-0.43603334 0.024553334 0.88900006 2241342
-0.43434003 0.024553334 0.88900006 3224628
-0.43362001 0.024608571 0.89100003 3290410
-0.43337715 0.024691431 0.89400005 3355947
-0.4316743 0.024691431 0.89400005 3159595
-0.42756671 0.024553334 0.88900006 2962479
-0.42587334 0.024553334 0.88900006 2831156
-0.42418003 0.024553334 0.88900006 2765368
-0.42054 0.024940003 0.90300006 7957351
-0.4178924 0.024884764 0.90100002 8223606
-0.4161762 0.024884764 0.90100002 8551804
-0.41308004 0.024801906 0.89800006 8290434
-0.41045335 0.024746668 0.89600003 8093313
-0.40965906 0.024801906 0.89800006 8158593
-0.40794861 0.024801906 0.89800006 8223868
-0.40759525 0.024884764 0.90100002 8092791
-0.40678 0.024940003 0.90300006 8027259
-0.40595713 0.024995239 0.90500003 8027263
-0.40557334 0.025078095 0.90800005 8027261
-0.40473333 0.025133334 0.91000003 8027258
-0.40300003 0.025133334 0.91000003 8027257
-0.40126666 0.025133334 0.91000003 7961720
-0.4008505 0.025216192 0.91300005 7961465
-0.39998573 0.025271429 0.91500002 7961721
-0.39911336 0.025326669 0.91700006 7961210
-0.39736667 0.025326669 0.91700006 7961210
-0.3969143 0.025409523 0.92000002 8026745
-0.39602098 0.025464762 0.92200005 7961209
-0.39554766 0.025547622 0.92500007 7960952
-0.39378574 0.025547622 0.92500007 7960951
-0.39202383 0.025547622 0.92500007 7961206
-0.39321524 0.025740953 0.93200004 7961205
-0.39270002 0.025823811 0.93500006 8026743
-0.39091906 0.025823811 0.93500006 8092281
-0.38997048 0.025879048 0.93700004 8223351
-0.38942859 0.025961906 0.94000006 8158070
-0.38763812 0.025961906 0.94000006 8092532
-0.38666859 0.026017142 0.94200003 8027250
-0.38732573 0.02618286 0.94800007 8026736
-0.38552001 0.02618286 0.94800007 8026478
-0.51341146 0.026394285 0.89400005 2755602
-0.51170856 0.026394285 0.89400005 5392468
-0.51000577 0.026394285 0.89400005 7439511
-0.50830287 0.026394285 0.89400005 9541267
-0.50660002 0.026394285 0.89400005 9342607
-0.50320292 0.026305715 0.89100003 9080467
-0.50150573 0.026305715 0.89100003 9080984
-0.49980858 0.026305715 0.89100003 9146774
-0.49811146 0.026305715 0.89100003 9212052
-0.49530005 0.026246669 0.88900006 9277077
-0.49360672 0.026246669 0.88900006 9211543
-0.49191335 0.026246669 0.88900006 9146523
-0.48911715 0.026187621 0.88700002 9080479
-0.48742762 0.026187621 0.88700002 9014683
-0.4857381 0.026187621 0.88700002 9014680
-0.48404858 0.026187621 0.88700002 9080213
-0.48072764 0.026099049 0.88400006 8949138
-0.47795999 0.026040001 0.88200003 8883601
-0.47628 0.026040001 0.88200003 8751760
-0.47460002 0.026040001 0.88200003 8685711
-0.47292 0.026040001 0.88200003 8750990
-0.47123998 0.026040001 0.88200003 8817039
-0.46956003 0.026040001 0.88200003 8882833
-0.46788001 0.026040001 0.88200003 9014161
-0.46619999 0.026040001 0.88200003 8948625
-0.46452001 0.026040001 0.88200003 8883085
-0.46284002 0.026040001 0.88200003 8882825
-0.46116 0.026040001 0.88200003 8882572
-0.46052194 0.026099049 0.88400006 8817040
-0.46039525 0.026187621 0.88700002 8817298
-0.45870572 0.026187621 0.88700002 8882836
-0.4570162 0.026187621 0.88700002 8882834
-0.45532668 0.026187621 0.88700002 8882832
-0.45363715 0.026187621 0.88700002 8817290
-0.45194763 0.026187621 0.88700002 8751749
-0.45025811 0.026187621 0.88700002 8751761
-0.44856858 0.026187621 0.88700002 8751773
-0.44687906 0.026187621 0.88700002 8751769
-0.44518954 0.026187621 0.88700002 8882581
-0.44350001 0.026187621 0.88700002 9014920
-0.44181046 0.026187621 0.88700002 7242363
-0.44012097 0.026187621 0.88700002 5520474
-0.43942001 0.026246669 0.88900006 3283770
-0.43772671 0.026246669 0.88900006 1060665
-0.43603334 0.026246669 0.88900006 1781560
-0.43434003 0.026246669 0.88900006 2437164
-0.43362001 0.026305715 0.89100003 2568480
-0.43192285 0.026305715 0.89100003 2634273
-0.4282943 0.026187621 0.88700002 2895906
-0.42660475 0.026187621 0.88700002 3223334
-0.42491525 0.026187621 0.88700002 3681323
-0.42322573 0.026187621 0.88700002 4139569
-0.42153618 0.026187621 0.88700002 4731447
-0.42054 0.026660001 0.90300006 8028800
-0.41650096 0.026512383 0.89800006 8158334
-0.41479051 0.026512383 0.89800006 8290173
-0.41216001 0.026453335 0.89600003 8158588
-0.41045335 0.026453335 0.89600003 8027260
-0.40874669 0.026453335 0.89600003 8092541
-0.40794861 0.026512383 0.89800006 8157816
-0.40759525 0.026600951 0.90100002 8092532
-0.40768096 0.026719047 0.90500003 8027259
-0.40595713 0.026719047 0.90500003 8027011
-0.40557334 0.026807619 0.90800005 7961471
-0.40473333 0.026866667 0.91000003 7961468
-0.40300003 0.026866667 0.91000003 7961466
-0.40126666 0.026866667 0.91000003 7961464
-0.4008505 0.026955239 0.91300005 7961465
-0.39998573 0.027014285 0.91500002 7895674
-0.39911336 0.027073335 0.91700006 7895674
-0.39736667 0.027073335 0.91700006 7895675
-0.3969143 0.027161906 0.92000002 7895417
-0.39602098 0.027220953 0.92200005 7895416
-0.39554766 0.027309526 0.92500007 7829879
-0.39378574 0.027309526 0.92500007 7829878
-0.3941429 0.027457144 0.93000007 7830133
-0.39321524 0.027516192 0.93200004 7895669
-0.39270002 0.027604764 0.93500006 7961207
-0.39175525 0.02766381 0.93700004 8026745
-0.38997048 0.02766381 0.93700004 8092279
-0.38942859 0.027752383 0.94000006 8092534
-0.38846287 0.02781143 0.94200003 8092532
-0.38666859 0.02781143 0.94200003 8092531
-0.38610002 0.027900001 0.94500005 8092526
-0.38755336 0.028136194 0.95300007 8158058
-0.38654765 0.02819524 0.95500004 8158064
-0.38472858 0.02819524 0.95500004 6517111
-0.5150829 0.028002858 0.89100003 197652
-0.51511431 0.028097145 0.89400005 262414
-0.51341146 0.028097145 0.89400005 2689801
-0.51170856 0.028097145 0.89400005 5194575
-0.51000577 0.028097145 0.89400005 7440789
-0.50830287 0.028097145 0.89400005 9671826
-0.50490004 0.028002858 0.89100003 9342863
-0.50320292 0.028002858 0.89100003 9080470
-0.50150573 0.028002858 0.89100003 9081245
-0.49980858 0.028002858 0.89100003 9146776
-0.49811146 0.028002858 0.89100003 9211796
-0.49641433 0.028002858 0.89100003 9342611
-0.49360672 0.027940001 0.88900006 9277075
-0.49191335 0.027940001 0.88900006 9211542
-0.48911715 0.027877143 0.88700002 9146010
-0.48742762 0.027877143 0.88700002 9145751
-0.4857381 0.027877143 0.88700002 9080469
-0.48404858 0.027877143 0.88700002 9080466
-0.48072764 0.027782859 0.88400006 8949392
-0.47795999 0.027720001 0.88200003 8883342
-0.47628 0.027720001 0.88200003 8752011
-0.47460002 0.027720001 0.88200003 8619913
-0.47292 0.027720001 0.88200003 8685447
-0.47123998 0.027720001 0.88200003 8751758
-0.46956003 0.027720001 0.88200003 8817558
-0.46788001 0.027720001 0.88200003 8883092
-0.46619999 0.027720001 0.88200003 8883345
-0.46452001 0.027720001 0.88200003 8882831
-0.46284002 0.027720001 0.88200003 8882316
-0.46220574 0.027782859 0.88400006 8947854
-0.46208477 0.027877143 0.88700002 8882320
-0.46039525 0.027877143 0.88700002 8882832
-0.45870572 0.027877143 0.88700002 8948625
-0.4570162 0.027877143 0.88700002 9013904
-0.45532668 0.027877143 0.88700002 8882832
-0.45363715 0.027877143 0.88700002 8817293
-0.45194763 0.027877143 0.88700002 8751754
-0.45025811 0.027877143 0.88700002 8751760
-0.44856858 0.027877143 0.88700002 8752023
-0.44687906 0.027877143 0.88700002 8817043
-0.44518954 0.027877143 0.88700002 8948111
-0.44350001 0.027877143 0.88700002 9080203
-0.44181046 0.027877143 0.88700002 7372423
-0.44012097 0.027877143 0.88700002 5658723
-0.43942001 0.027940001 0.88900006 3217215
-0.43772671 0.027940001 0.88900006 858169
-0.43603334 0.027940001 0.88900006 1251891
-0.43434003 0.027940001 0.88900006 1710895
-0.43264669 0.027940001 0.88900006 1842219
-0.43095335 0.027940001 0.88900006 1974840
-0.4282943 0.027877143 0.88700002 2697540
-0.42660475 0.027877143 0.88700002 3488579
-0.42491525 0.027877143 0.88700002 4541763
-0.42322573 0.027877143 0.88700002 5592395
-0.42153618 0.027877143 0.88700002 6577491
-0.41960859 0.028317144 0.90100002 8159105
-0.41650096 0.028222859 0.89800006 8093053
-0.4138667 0.02816 0.89600003 8092796
-0.41216001 0.02816 0.89600003 8027004
-0.40953717 0.028097145 0.89400005 8027004
-0.40874669 0.02816 0.89600003 8027005
-0.40704 0.02816 0.89600003 8092281
-0.40759525 0.028317144 0.90100002 8092278
-0.40768096 0.028442858 0.90500003 8092283
-0.40730289 0.028537145 0.90800005 8027008
-0.40557334 0.028537145 0.90800005 7961469
-0.40384382 0.028537145 0.90800005 7961467
-0.4021143 0.028537145 0.90800005 7961464
-0.40258953 0.028694287 0.91300005 7961462
-0.4008505 0.028694287 0.91300005 7961207
-0.39998573 0.028757144 0.91500002 7895672
-0.39911336 0.028820001 0.91700006 7830136
-0.39736667 0.028820001 0.91700006 7830137
-0.3969143 0.028914286 0.92000002 7829880
-0.39602098 0.028977145 0.92200005 7764086
-0.39554766 0.02907143 0.92500007 7764083
-0.39378574 0.02907143 0.92500007 7699057
-0.3941429 0.029228574 0.93000007 7699058
-0.39321524 0.029291429 0.93200004 7764852
-0.39270002 0.029385716 0.93500006 7895670
-0.39175525 0.029448573 0.93700004 7961209
-0.39121908 0.02954286 0.94000006 8026744
-0.38942859 0.02954286 0.94000006 8026999
-0.38846287 0.029605715 0.94200003 8092535
-0.38666859 0.029605715 0.94200003 8158328
-0.38610002 0.029700002 0.94500005 8223861
-0.38633335 0.029857146 0.95000005 8289651
-0.38654765 0.030014286 0.95500004 8355952
-0.38472858 0.030014286 0.95500004 6254190
-0.51392668 0.029633334 0.88900006 328730
-0.51338571 0.029700002 0.89100003 196877
-0.51168859 0.029700002 0.89100003 2754817
-0.50999147 0.029700002 0.89100003 5259082
-0.50829434 0.029700002 0.89100003 7440788
-0.50830287 0.0298 0.89400005 9671569
-0.50490004 0.029700002 0.89100003 9342607
-0.50320292 0.029700002 0.89100003 9080728
-0.50150573 0.029700002 0.89100003 9080994
-0.49980858 0.029700002 0.89100003 9146779
-0.49811146 0.029700002 0.89100003 9146261
-0.49641433 0.029700002 0.89100003 9211538
-0.49360672 0.029633334 0.88900006 9211535
-0.49080664 0.029566666 0.88700002 9146258
-0.48911715 0.029566666 0.88700002 9080470
-0.48742762 0.029566666 0.88700002 9080212
-0.4857381 0.029566666 0.88700002 9080210
-0.48241147 0.029466668 0.88400006 9079952
-0.48072764 0.029466668 0.88400006 8948879
-0.47795999 0.0294 0.88200003 8817803
-0.47628 0.0294 0.88200003 8686215
-0.47460002 0.0294 0.88200003 8554115
-0.47292 0.0294 0.88200003 8685440
-0.47123998 0.0294 0.88200003 8817550
-0.46956003 0.0294 0.88200003 8817564
-0.46788001 0.0294 0.88200003 8818071
-0.46619999 0.0294 0.88200003 8817554
