# .PCD v0.7 - Point Cloud Data file format
VERSION 0.7
FIELDS x y z rgba
SIZE 4 4 4 4
TYPE F F F U
COUNT 1 1 1 1
WIDTH 1125
HEIGHT 1
VIEWPOINT 0 0 0 1 0 0 0
POINTS 1125
DATA ascii
-0.48860955 -0.14834286 0.88000005 9405616
-0.48582667 -0.14800572 0.87800002 9075876
-0.48525715 -0.14834286 0.88000005 8877721
-0.48358098 -0.14834286 0.88000005 8614036
-0.48190477 -0.14834286 0.88000005 8484495
-0.48132002 -0.14868 0.88200003 8355206
-0.4785524 -0.14834286 0.88000005 8158590
-0.47795999 -0.14868 0.88200003 8027780
-0.47736001 -0.14901716 0.88400006 8160138
-0.47567621 -0.14901716 0.88400006 8291470
-0.47399241 -0.14901716 0.88400006 8554387
-0.47230861 -0.14901716 0.88400006 8882844
-0.4706248 -0.14901716 0.88400006 8946853
-0.46894097 -0.14901716 0.88400006 9076387
-0.46725717 -0.14901716 0.88400006 8942497
-0.46557334 -0.14901716 0.88400006 8808608
-0.46388957 -0.14901716 0.88400006 8677279
-0.46220574 -0.14901716 0.88400006 8611734
-0.46208477 -0.14952287 0.88700002 8422286
-0.46039525 -0.14952287 0.88700002 8288906
-0.4607743 -0.15019715 0.89100003 8290951
-0.45907715 -0.15019715 0.89100003 8285318
-0.45738003 -0.15019715 0.89100003 8219781
-0.45721716 -0.15070286 0.89400005 8154498
-0.45551431 -0.15070286 0.89400005 7962240
-0.45381144 -0.15070286 0.89400005 7763325
-0.45210859 -0.15070286 0.89400005 7893627
-0.45040575 -0.15070286 0.89400005 8023930
-0.44870287 -0.15070286 0.89400005 8089466
-0.44800001 -0.15104 0.89600003 8155253
-0.44629332 -0.15104 0.89600003 8226161
-0.44557908 -0.15137716 0.89800006 8281466
-0.44386861 -0.15137716 0.89800006 8475780
-0.44363526 -0.15188286 0.90100002 8670345
-0.44191906 -0.15188286 0.90100002 8665999
-0.44118005 -0.15222001 0.90300006 8727183
-0.44043335 -0.15255715 0.90500003 8662672
-0.43870953 -0.15255715 0.90500003 8598429
-0.4384343 -0.15306287 0.90800005 8731307
-0.43670478 -0.15306287 0.90800005 8864436
-0.43497527 -0.15306287 0.90800005 8998845
-0.43419999 -0.1534 0.91000003 9133505
-0.43246669 -0.1534 0.91000003 9398470
-0.43215334 -0.15390572 0.91300005 9597913
-0.43041432 -0.15390572 0.91300005 9733868
-0.42726666 -0.1534 0.91000003 9870067
-0.42553335 -0.1534 0.91000003 10195963
-0.42612857 -0.15424286 0.91500002 10456572
-0.42438573 -0.15424286 0.91500002 10859006
-0.42264289 -0.15424286 0.91500002 11196157
-0.42182004 -0.15458 0.91700006 11458300
-0.42007336 -0.15458 0.91700006 11785981
-0.42060766 -0.15542287 0.92200005 12044542
-0.42021433 -0.15592858 0.92500007 12303357
-0.41845241 -0.15592858 0.92500007 12572924
-0.4166905 -0.15592858 0.92500007 12842749
-0.41582575 -0.15626572 0.92700005 13301758
-0.41629335 -0.15710858 0.93200004 13826551
-0.41451812 -0.15710858 0.93200004 13034993
-0.41274285 -0.15710858 0.93200004 12243651
-0.41096765 -0.15710858 0.93200004 10994838
-0.40919238 -0.15710858 0.93200004 9811531
-0.4087286 -0.15761429 0.93500006 8355073
-0.40694761 -0.15761429 0.93500006 6964225
-0.53124189 -0.14733334 0.88400006 10531243
-0.52955812 -0.14733334 0.88400006 11317170
-0.52787435 -0.14733334 0.88400006 11381689
-0.52797616 -0.14783333 0.88700002 11513028
-0.52628666 -0.14783333 0.88700002 11780047
-0.52459717 -0.14783333 0.88700002 12041678
-0.52290767 -0.14783333 0.88700002 12172494
-0.51945525 -0.14733334 0.88400006 12303820
-0.51777148 -0.14733334 0.88400006 12238539
-0.51608765 -0.14733334 0.88400006 12238025
-0.51440382 -0.14733334 0.88400006 12041160
-0.51271999 -0.14733334 0.88400006 11844038
-0.50988001 -0.147 0.88200003 11450564
-0.50820005 -0.147 0.88200003 11120834
-0.50651997 -0.147 0.88200003 10660289
-0.50484002 -0.147 0.88200003 10264759
-0.50316 -0.147 0.88200003 9672878
-0.50034291 -0.14666668 0.88000005 9146794
-0.4986667 -0.14666668 0.88000005 8883111
-0.4969905 -0.14666668 0.88000005 8686251
-0.4953143 -0.14666668 0.88000005 8685999
-0.4936381 -0.14666668 0.88000005 8685993
-0.49307999 -0.147 0.88200003 8686244
-0.49028575 -0.14666668 0.88000005 8686239
-0.48860955 -0.14666668 0.88000005 8488090
-0.48693335 -0.14666668 0.88000005 8290454
-0.48525715 -0.14666668 0.88000005 8158866
-0.48358098 -0.14666668 0.88000005 8027534
-0.48190477 -0.14666668 0.88000005 8223883
-0.48022857 -0.14666668 0.88000005 8420744
-0.4785524 -0.14666668 0.88000005 8224389
-0.47687623 -0.14666668 0.88000005 8093576
-0.47628 -0.147 0.88200003 8225674
-0.47567621 -0.14733334 0.88400006 8422029
-0.47292 -0.147 0.88200003 8289681
-0.47230861 -0.14733334 0.88400006 8158611
-0.4706248 -0.14733334 0.88400006 8093334
-0.46894097 -0.14733334 0.88400006 8093335
-0.46725717 -0.14733334 0.88400006 8092569
-0.46557334 -0.14733334 0.88400006 8092055
-0.46388957 -0.14733334 0.88400006 8091541
-0.46220574 -0.14733334 0.88400006 8157584
-0.46208477 -0.14783333 0.88700002 8158348
-0.46247146 -0.1485 0.89100003 8224394
-0.4607743 -0.1485 0.89100003 8159368
-0.45907715 -0.1485 0.89100003 8159112
-0.45738003 -0.1485 0.89100003 8289927
-0.45568287 -0.1485 0.89100003 8486787
-0.45398575 -0.1485 0.89100003 8487295
-0.45228857 -0.1485 0.89100003 8487296
-0.45059142 -0.1485 0.89100003 8487553
-0.44889429 -0.1485 0.89100003 8553089
-0.44719714 -0.1485 0.89100003 8553345
-0.44700003 -0.149 0.89400005 8618622
-0.44629332 -0.14933333 0.89600003 8553083
-0.44458666 -0.14933333 0.89600003 8486784
-0.44386861 -0.14966667 0.89800006 8289414
-0.4421581 -0.14966667 0.89800006 8157577
-0.44044766 -0.14966667 0.89800006 7960460
-0.44020286 -0.15016666 0.90100002 7828108
-0.43946001 -0.15050001 0.90300006 7433613
-0.43774 -0.15050001 0.90300006 7103120
-0.43698573 -0.15083334 0.90500003 6772884
-0.43526193 -0.15083334 0.90500003 6445974
-0.43353811 -0.15083334 0.90500003 6250392
-0.43324572 -0.15133335 0.90800005 6051735
-0.43151623 -0.15133335 0.90800005 5722263
-0.43073335 -0.15166667 0.91000003 5402272
-0.42900002 -0.15166667 0.91000003 4731818
-0.42726666 -0.15166667 0.91000003 4144810
-0.42553335 -0.15166667 0.91000003 4409771
-0.42519715 -0.15216668 0.91300005 4673952
-0.42438573 -0.1525 0.91500002 5331605
-0.42264289 -0.1525 0.91500002 5990049
-0.42182004 -0.15283334 0.91700006 6451885
-0.42144763 -0.15333334 0.92000002 6978738
-0.42060766 -0.15366668 0.92200005 7636920
-0.42021433 -0.15416668 0.92500007 8294844
-0.41845241 -0.15416668 0.92500007 9083840
-0.4166905 -0.15416668 0.92500007 9939661
-0.41582575 -0.15450001 0.92700005 11254234
-0.41540003 -0.15500002 0.93000007 12635361
-0.41451812 -0.15533334 0.93200004 13033704
-0.41274285 -0.15533334 0.93200004 13492178
-0.41096765 -0.15533334 0.93200004 13950652
-0.41050956 -0.15583335 0.93500006 14399389
-0.4087286 -0.15583335 0.93500006 14083967
-0.40694761 -0.15583335 0.93500006 13813116
-0.40820003 -0.15700001 0.94200003 12100474
-0.40640572 -0.15700001 0.94200003 10386526
-0.53304476 -0.14614381 0.88700002 10660291
-0.52955812 -0.14564952 0.88400006 11120066
-0.52787435 -0.14564952 0.88400006 11251394
-0.52797616 -0.14614381 0.88700002 11382722
-0.52628666 -0.14614381 0.88700002 11582402
-0.52459717 -0.14614381 0.88700002 11844551
-0.52290767 -0.14614381 0.88700002 11779276
-0.51945525 -0.14564952 0.88400006 11714252
-0.51777148 -0.14564952 0.88400006 11582412
-0.51608765 -0.14564952 0.88400006 11450821
-0.51440382 -0.14564952 0.88400006 10859710
-0.51271999 -0.14564952 0.88400006 10268858
-0.50988001 -0.14532 0.88200003 10069687
-0.50820005 -0.14532 0.88200003 9870517
-0.50537145 -0.14499047 0.88000005 9540020
-0.50484002 -0.14532 0.88200003 9275041
-0.50316 -0.14532 0.88200003 9144207
-0.50034291 -0.14499047 0.88000005 8947850
-0.4986667 -0.14499047 0.88000005 8817030
-0.4969905 -0.14499047 0.88000005 8686215
-0.49644002 -0.14532 0.88200003 8685704
-0.4936381 -0.14499047 0.88000005 8685192
-0.49196196 -0.14499047 0.88000005 8619913
-0.49028575 -0.14499047 0.88000005 8620422
-0.48860955 -0.14499047 0.88000005 8487812
-0.48693335 -0.14499047 0.88000005 8356487
-0.48525715 -0.14499047 0.88000005 8290699
-0.48358098 -0.14499047 0.88000005 8224905
-0.48190477 -0.14499047 0.88000005 8290184
-0.48022857 -0.14499047 0.88000005 8421002
-0.4785524 -0.14499047 0.88000005 8355725
-0.47687623 -0.14499047 0.88000005 8290700
-0.47628 -0.14532 0.88200003 8356235
-0.47460002 -0.14532 0.88200003 8421517
-0.47292 -0.14532 0.88200003 8355727
-0.47230861 -0.14564952 0.88400006 8290187
-0.4706248 -0.14564952 0.88400006 8290183
-0.46894097 -0.14564952 0.88400006 8224652
-0.46725717 -0.14564952 0.88400006 8159121
-0.46557334 -0.14564952 0.88400006 8159118
-0.46388957 -0.14564952 0.88400006 8224907
-0.46220574 -0.14564952 0.88400006 8290699
-0.46208477 -0.14614381 0.88700002 8224907
-0.46143335 -0.14647335 0.88900006 8224650
-0.45974001 -0.14647335 0.88900006 8224650
-0.45907715 -0.14680286 0.89100003 8290442
-0.45738003 -0.14680286 0.89100003 8355978
-0.45568287 -0.14680286 0.89100003 8421508
-0.45398575 -0.14680286 0.89100003 8421503
-0.45228857 -0.14680286 0.89100003 8421251
-0.45059142 -0.14680286 0.89100003 8421256
-0.44889429 -0.14680286 0.89100003 8421256
-0.44719714 -0.14680286 0.89100003 8421768
-0.44700003 -0.14729714 0.89400005 8422023
-0.44529718 -0.14729714 0.89400005 8421766
-0.44359431 -0.14729714 0.89400005 8355975
-0.44288 -0.14762667 0.89600003 8224392
-0.44117334 -0.14762667 0.89600003 8159625
-0.43946666 -0.14762667 0.89600003 8093834
-0.43873718 -0.14795619 0.89800006 8028298
-0.43848667 -0.14845048 0.90100002 7831178
-0.43677047 -0.14845048 0.90100002 7634052
-0.43602002 -0.14878 0.90300006 7436670
-0.43526193 -0.14910953 0.90500003 7239288
-0.43353811 -0.14910953 0.90500003 7107187
-0.43181431 -0.14910953 0.90500003 7040878
-0.43151623 -0.14960383 0.90800005 6843497
-0.42978668 -0.14960383 0.90800005 6711912
-0.42900002 -0.14993334 0.91000003 6381928
-0.42726666 -0.14993334 0.91000003 6117730
-0.42553335 -0.14993334 0.91000003 6183260
-0.42519715 -0.15042762 0.91300005 6183236
-0.42438573 -0.15075713 0.91500002 6382380
-0.42264289 -0.15075713 0.91500002 6629701
-0.42412001 -0.15191048 0.92200005 6711391
-0.42236382 -0.15191048 0.92200005 6766696
-0.42197624 -0.15240477 0.92500007 6900594
-0.42021433 -0.15240477 0.92500007 7034747
-0.41845241 -0.15240477 0.92500007 7429252
-0.41759142 -0.15273428 0.92700005 7889565
-0.41717145 -0.15322858 0.93000007 8549046
-0.41540003 -0.15322858 0.93000007 9208523
-0.41451812 -0.15355811 0.93200004 9473248
-0.41274285 -0.15355811 0.93200004 9803489
-0.41096765 -0.15355811 0.93200004 10397666
-0.41050956 -0.15405238 0.93500006 10992112
-0.4087286 -0.15405238 0.93500006 11122686
-0.4099943 -0.15520571 0.94200003 11318776
-0.40820003 -0.15520571 0.94200003 11184627
-0.40640572 -0.15520571 0.94200003 11062449
-0.40718859 -0.1561943 0.94800007 9810799
-0.4053829 -0.1561943 0.94800007 8559160
-0.53304476 -0.14445429 0.88700002 10791361
-0.52955812 -0.14396574 0.88400006 10922945
-0.52966571 -0.14445429 0.88700002 11055297
-0.52797616 -0.14445429 0.88700002 11252674
-0.52628666 -0.14445429 0.88700002 11450307
-0.52459717 -0.14445429 0.88700002 11711683
-0.52290767 -0.14445429 0.88700002 11449027
-0.51945525 -0.14396574 0.88400006 11186116
-0.51777148 -0.14396574 0.88400006 10923205
-0.51608765 -0.14396574 0.88400006 10724282
-0.51614952 -0.14445429 0.88700002 9673646
-0.51271999 -0.14396574 0.88400006 8688553
-0.50988001 -0.14364001 0.88200003 8621221
-0.50820005 -0.14364001 0.88200003 8619168
-0.50537145 -0.1433143 0.88000005 8486300
-0.50484002 -0.14364001 0.88200003 8355477
-0.50316 -0.14364001 0.88200003 8552333
-0.50034291 -0.1433143 0.88000005 8814730
-0.4986667 -0.1433143 0.88000005 8749703
-0.4969905 -0.1433143 0.88000005 8684167
-0.49644002 -0.14364001 0.88200003 8684424
-0.49476004 -0.14364001 0.88200003 8684165
-0.49307999 -0.14364001 0.88200003 8618626
-0.49028575 -0.1433143 0.88000005 8618627
-0.48860955 -0.1433143 0.88000005 8553349
-0.48693335 -0.1433143 0.88000005 8487556
-0.48525715 -0.1433143 0.88000005 8421764
-0.48358098 -0.1433143 0.88000005 8421509
-0.48190477 -0.1433143 0.88000005 8421511
-0.48132002 -0.14364001 0.88200003 8421512
-0.47964001 -0.14364001 0.88200003 8421513
-0.47795999 -0.14364001 0.88200003 8487303
-0.47628 -0.14364001 0.88200003 8487557
-0.47460002 -0.14364001 0.88200003 8487305
-0.47292 -0.14364001 0.88200003 8487308
-0.47230861 -0.14396574 0.88400006 8487306
-0.4706248 -0.14396574 0.88400006 8422023
-0.46894097 -0.14396574 0.88400006 8421769
-0.46725717 -0.14396574 0.88400006 8290443
-0.46557334 -0.14396574 0.88400006 8224903
-0.46388957 -0.14396574 0.88400006 8290436
-0.46220574 -0.14396574 0.88400006 8421510
-0.46208477 -0.14445429 0.88700002 8355977
-0.46143335 -0.14478001 0.88900006 8290185
-0.45974001 -0.14478001 0.88900006 8355722
-0.4580467 -0.14478001 0.88900006 8421513
-0.45738003 -0.14510572 0.89100003 8421513
-0.45568287 -0.14510572 0.89100003 8421510
-0.45398575 -0.14510572 0.89100003 8355971
-0.45228857 -0.14510572 0.89100003 8355717
-0.45059142 -0.14510572 0.89100003 8290183
-0.44889429 -0.14510572 0.89100003 8290182
-0.44870287 -0.1455943 0.89400005 8290438
-0.44700003 -0.1455943 0.89400005 8290181
-0.44529718 -0.1455943 0.89400005 8290180
-0.44458666 -0.14592001 0.89600003 8289924
-0.44288 -0.14592001 0.89600003 8224132
-0.44117334 -0.14592001 0.89600003 8158597
-0.43946666 -0.14592001 0.89600003 8158598
-0.43873718 -0.14624573 0.89800006 8224133
-0.43702668 -0.14624573 0.89800006 8158853
-0.43677047 -0.14673428 0.90100002 8158338
-0.43602002 -0.14706001 0.90300006 8092799
-0.43430001 -0.14706001 0.90300006 8026747
-0.43258002 -0.14706001 0.90300006 8026487
-0.43181431 -0.14738572 0.90500003 8026484
-0.43151623 -0.1478743 0.90800005 8026736
-0.42978668 -0.1478743 0.90800005 8026736
-0.42900002 -0.14820001 0.91000003 8092272
-0.42632762 -0.1478743 0.90800005 8157808
-0.42459813 -0.1478743 0.90800005 7961199
-0.42519715 -0.14868857 0.91300005 7762782
-0.42438573 -0.14901428 0.91500002 7499085
-0.42264289 -0.14901428 0.91500002 7300440
-0.42412001 -0.15015429 0.92200005 6970979
-0.42236382 -0.15015429 0.92200005 6643561
-0.42197624 -0.15064287 0.92500007 6250607
-0.42021433 -0.15064287 0.92500007 5855601
-0.41935715 -0.15096858 0.92700005 5854067
-0.41759142 -0.15096858 0.92700005 5855869
-0.41717145 -0.15145716 0.93000007 5788295
-0.41629335 -0.15178287 0.93200004 5789839
-0.41451812 -0.15178287 0.93200004 5922456
-0.41274285 -0.15178287 0.93200004 6121630
-0.41229051 -0.15227143 0.93500006 6845349
-0.41050956 -0.15227143 0.93500006 7634095
-0.4109143 -0.15308572 0.94000006 8226490
-0.4099943 -0.15341143 0.94200003 8821442
-0.40820003 -0.15341143 0.94200003 10268617
-0.40640572 -0.15341143 0.94200003 11714486
-0.40718859 -0.15438859 0.94800007 11784100
-0.4053829 -0.15438859 0.94800007 11902846
-0.40357718 -0.15438859 0.94800007 11581784
-0.40177146 -0.15438859 0.94800007 11308899
-0.39996573 -0.15438859 0.94800007 8283757
-0.53304476 -0.14276476 0.88700002 10791615
-0.52955812 -0.14228192 0.88400006 10856896
-0.52787435 -0.14228192 0.88400006 10924225
-0.52797616 -0.14276476 0.88700002 10991298
-0.52628666 -0.14276476 0.88700002 10991044
-0.52459717 -0.14276476 0.88700002 11056575
-0.52290767 -0.14276476 0.88700002 10595770
-0.52121806 -0.14276476 0.88700002 10200764
-0.51952857 -0.14276476 0.88700002 9870015
-0.51608765 -0.14228192 0.88400006 9605039
-0.51614952 -0.14276476 0.88700002 9079967
-0.51271999 -0.14228192 0.88400006 8620697
-0.50988001 -0.14196 0.88200003 8619667
-0.50820005 -0.14196 0.88200003 8617356
-0.50537145 -0.14163812 0.88000005 8552069
-0.50369525 -0.14163812 0.88000005 8487048
-0.5008781 -0.14131619 0.87800002 8618380
-0.49920574 -0.14131619 0.87800002 8749962
-0.49753335 -0.14131619 0.87800002 8684168
-0.49812001 -0.14196 0.88200003 8684168
-0.49644002 -0.14196 0.88200003 8618888
-0.49251622 -0.14131619 0.87800002 8618113
-0.4908438 -0.14131619 0.87800002 8618619
-0.49028575 -0.14163812 0.88000005 8618368
-0.48860955 -0.14163812 0.88000005 8552582
-0.48693335 -0.14163812 0.88000005 8486786
-0.48525715 -0.14163812 0.88000005 8486782
-0.48358098 -0.14163812 0.88000005 8486786
-0.48190477 -0.14163812 0.88000005 8421254
-0.48132002 -0.14196 0.88200003 8421253
-0.47964001 -0.14196 0.88200003 8421509
-0.47795999 -0.14196 0.88200003 8421762
-0.47628 -0.14196 0.88200003 8421760
-0.47460002 -0.14196 0.88200003 8421765
-0.47292 -0.14196 0.88200003 8421770
-0.47123998 -0.14196 0.88200003 8421769
-0.4706248 -0.14228192 0.88400006 8421768
-0.46894097 -0.14228192 0.88400006 8422278
-0.46725717 -0.14228192 0.88400006 8356229
-0.46557334 -0.14228192 0.88400006 8290689
-0.46388957 -0.14228192 0.88400006 8356222
-0.46377429 -0.14276476 0.88700002 8421762
-0.46208477 -0.14276476 0.88700002 8355975
-0.46143335 -0.14308667 0.88900006 8355977
-0.45974001 -0.14308667 0.88900006 8355979
-0.4580467 -0.14308667 0.88900006 8421513
-0.45738003 -0.14340858 0.89100003 8421256
-0.45568287 -0.14340858 0.89100003 8421000
-0.45398575 -0.14340858 0.89100003 8355464
-0.45228857 -0.14340858 0.89100003 8355463
-0.45059142 -0.14340858 0.89100003 8355718
-0.45040575 -0.14389144 0.89400005 8290437
-0.44870287 -0.14389144 0.89400005 8290181
-0.44700003 -0.14389144 0.89400005 8289924
-0.44529718 -0.14389144 0.89400005 8289923
-0.44458666 -0.14421335 0.89600003 8289922
-0.44288 -0.14421335 0.89600003 8224129
-0.44117334 -0.14421335 0.89600003 8158593
-0.43946666 -0.14421335 0.89600003 8158594
-0.43873718 -0.14453524 0.89800006 8158337
-0.43848667 -0.14501809 0.90100002 8093056
-0.43677047 -0.14501809 0.90100002 8092800
-0.4350543 -0.14501809 0.90100002 8092544
-0.43430001 -0.14534001 0.90300006 8026750
-0.43258002 -0.14534001 0.90300006 8026748
-0.43086001 -0.14534001 0.90300006 7961210
-0.43009049 -0.14566191 0.90500003 7961208
-0.42836666 -0.14566191 0.90500003 7960952
-0.42664286 -0.14566191 0.90500003 7960953
-0.42632762 -0.14614478 0.90800005 8027006
-0.42459813 -0.14614478 0.90800005 7960707
-0.42286858 -0.14614478 0.90800005 7829369
-0.4234581 -0.14694953 0.91300005 7698031
-0.42264289 -0.14727144 0.91500002 7566955
-0.42182004 -0.14759333 0.91700006 7369319
-0.42236382 -0.1483981 0.92200005 7106153
-0.42060766 -0.1483981 0.92200005 6843500
-0.42021433 -0.14888096 0.92500007 6646375
-0.41845241 -0.14888096 0.92500007 6579555
-0.41759142 -0.14920287 0.92700005 6578526
-0.41582575 -0.14920287 0.92700005 6511449
-0.41540003 -0.14968573 0.93000007 6509908
-0.41451812 -0.15000762 0.93200004 6509904
-0.41407144 -0.15049049 0.93500006 6510172
-0.41229051 -0.15049049 0.93500006 6706024
-0.41050956 -0.15049049 0.93500006 6967407
-0.41178858 -0.15161714 0.94200003 7101303
-0.4113 -0.1521 0.94500005 7235467
-0.41080001 -0.15258285 0.94800007 8025248
-0.4077 -0.1521 0.94500005 8880572
-0.40718859 -0.15258285 0.94800007 9147097
-0.4053829 -0.15258285 0.94800007 9479364
-0.40357718 -0.15258285 0.94800007 9745072
-0.40177146 -0.15258285 0.94800007 10011058
-0.40545049 -0.15467525 0.96100003 9153972
-0.40362003 -0.15467525 0.96100003 8231258
-0.53304476 -0.14107524 0.88700002 10791866
-0.52955812 -0.1405981 0.88400006 10857404
-0.52787435 -0.1405981 0.88400006 10793405
-0.52619052 -0.1405981 0.88400006 10792121
-0.52628666 -0.14107524 0.88700002 10594229
-0.52459717 -0.14107524 0.88700002 10396848
-0.52113909 -0.1405981 0.88400006 9806251
-0.51945525 -0.1405981 0.88400006 9279145
-0.52070004 -0.14139335 0.88900006 8883366
-0.51608765 -0.1405981 0.88400006 8489120
-0.51614952 -0.14107524 0.88700002 8552089
-0.51271999 -0.1405981 0.88400006 8617876
-0.50988001 -0.14028001 0.88200003 8618383
-0.50820005 -0.14028001 0.88200003 8618633
-0.50537145 -0.13996191 0.88000005 8618884
-0.50369525 -0.13996191 0.88000005 8618885
-0.5008781 -0.13964382 0.87800002 8619143
-0.50034291 -0.13996191 0.88000005 8684677
-0.4986667 -0.13996191 0.88000005 8684675
-0.49812001 -0.14028001 0.88200003 8684677
-0.4953143 -0.13996191 0.88000005 8619143
-0.4936381 -0.13996191 0.88000005 8618884
-0.4908438 -0.13964382 0.87800002 8618624
-0.49028575 -0.13996191 0.88000005 8683906
-0.48860955 -0.13996191 0.88000005 8618117
-0.48693335 -0.13996191 0.88000005 8552322
-0.48525715 -0.13996191 0.88000005 8552320
-0.48358098 -0.13996191 0.88000005 8552322
-0.48300001 -0.14028001 0.88200003 8486533
-0.48132002 -0.14028001 0.88200003 8486789
-0.47964001 -0.14028001 0.88200003 8421509
-0.47795999 -0.14028001 0.88200003 8421509
-0.47628 -0.14028001 0.88200003 8421766
-0.47460002 -0.14028001 0.88200003 8421767
-0.47292 -0.14028001 0.88200003 8421769
-0.47123998 -0.14028001 0.88200003 8421768
-0.4706248 -0.1405981 0.88400006 8421768
-0.46894097 -0.1405981 0.88400006 8421766
-0.46725717 -0.1405981 0.88400006 8356485
-0.46557334 -0.1405981 0.88400006 8356227
-0.46546382 -0.14107524 0.88700002 8356226
-0.46377429 -0.14107524 0.88700002 8421764
-0.46208477 -0.14107524 0.88700002 8422022
-0.46143335 -0.14139335 0.88900006 8421513
-0.45974001 -0.14139335 0.88900006 8421517
-0.4580467 -0.14139335 0.88900006 8421513
-0.45635334 -0.14139335 0.88900006 8421254
-0.45568287 -0.14171144 0.89100003 8420999
-0.45398575 -0.14171144 0.89100003 8420999
-0.45228857 -0.14171144 0.89100003 8421001
-0.45059142 -0.14171144 0.89100003 8355723
-0.45040575 -0.14218858 0.89400005 8355718
-0.44870287 -0.14218858 0.89400005 8355713
-0.44700003 -0.14218858 0.89400005 8355713
-0.44529718 -0.14218858 0.89400005 8355713
-0.44458666 -0.14250667 0.89600003 8355455
-0.44288 -0.14250667 0.89600003 8224382
-0.44117334 -0.14250667 0.89600003 8158592
-0.43946666 -0.14250667 0.89600003 8093313
-0.43776 -0.14250667 0.89600003 8093312
-0.43848667 -0.14330192 0.90100002 8093310
-0.43677047 -0.14330192 0.90100002 8092799
-0.4350543 -0.14330192 0.90100002 8092543
-0.43430001 -0.14362001 0.90300006 8092286
-0.43258002 -0.14362001 0.90300006 8026748
-0.43181431 -0.14393811 0.90500003 7961210
-0.43009049 -0.14393811 0.90500003 7895672
-0.42836666 -0.14393811 0.90500003 7895414
-0.42805716 -0.14441524 0.90800005 7895412
-0.42632762 -0.14441524 0.90800005 7960697
-0.42459813 -0.14441524 0.90800005 7960447
-0.42380002 -0.14473334 0.91000003 7960440
-0.4234581 -0.14521049 0.91300005 7894898
-0.42264289 -0.14552858 0.91500002 7894640
-0.42182004 -0.14584666 0.91700006 7763565
-0.42144763 -0.1463238 0.92000002 7632238
-0.42060766 -0.14664191 0.92200005 7500911
-0.41885146 -0.14664191 0.92200005 7434859
-0.41845241 -0.14711905 0.92500007 7368808
-0.41759142 -0.14743714 0.92700005 7303013
-0.41717145 -0.14791429 0.93000007 7237219
-0.41540003 -0.14791429 0.93000007 7235934
-0.41451812 -0.14823239 0.93200004 7038298
-0.41407144 -0.14870952 0.93500006 6906208
-0.41317239 -0.14902762 0.93700004 6577767
-0.41138765 -0.14902762 0.93700004 6314606
-0.41310003 -0.1503 0.94500005 5985910
-0.41260573 -0.15077715 0.94800007 5657975
-0.41166669 -0.15109524 0.95000005 5854583
-0.40899432 -0.15077715 0.94800007 6118536
-0.41019526 -0.15189047 0.95500004 6579097
-0.40965906 -0.15236762 0.95800006 7041942
-0.40783432 -0.15236762 0.95800006 7898004
-0.40728095 -0.15284476 0.96100003 8755103
-0.40545049 -0.15284476 0.96100003 9940139
-0.40110001 -0.15189047 0.95500004 11176579
-0.39928097 -0.15189047 0.95500004 11370330
-0.52787435 -0.1389143 0.88400006 10464442
-0.52619052 -0.1389143 0.88400006 10398640
-0.52628666 -0.13938573 0.88700002 10068903
-0.51750004 -0.13750002 0.87500006 9739170
-0.51465428 -0.13718571 0.87300003 9344413
-0.51299143 -0.13718571 0.87300003 8949653
-0.51777148 -0.1389143 0.88400006 8750734
-0.51608765 -0.1389143 0.88400006 8487569
-0.51440382 -0.1389143 0.88400006 8552852
-0.51271999 -0.1389143 0.88400006 8618383
-0.50988001 -0.13859999 0.88200003 8553099
-0.50820005 -0.13859999 0.88200003 8487815
-0.50651997 -0.13859999 0.88200003 8553347
-0.50484002 -0.13859999 0.88200003 8619394
-0.50201911 -0.13828573 0.88000005 8619138
-0.50034291 -0.13828573 0.88000005 8684672
-0.4986667 -0.13828573 0.88000005 8684670
-0.49812001 -0.13859999 0.88200003 8750210
-0.49644002 -0.13859999 0.88200003 8684679
-0.4936381 -0.13828573 0.88000005 8684934
-0.49196196 -0.13828573 0.88000005 8684678
-0.49028575 -0.13828573 0.88000005 8749957
-0.48860955 -0.13828573 0.88000005 8684164
-0.48693335 -0.13828573 0.88000005 8683907
-0.48415428 -0.13797143 0.87800002 8618115
-0.48358098 -0.13828573 0.88000005 8552579
-0.48190477 -0.13828573 0.88000005 8487044
-0.48132002 -0.13859999 0.88200003 8487045
-0.47964001 -0.13859999 0.88200003 8421510
-0.47795999 -0.13859999 0.88200003 8356745
-0.47628 -0.13859999 0.88200003 8356748
-0.47460002 -0.13859999 0.88200003 8422538
-0.47292 -0.13859999 0.88200003 8422280
-0.47123998 -0.13859999 0.88200003 8422024
-0.4706248 -0.1389143 0.88400006 8421768
-0.46894097 -0.1389143 0.88400006 8421767
-0.46884286 -0.13938573 0.88700002 8422022
-0.46715334 -0.13938573 0.88700002 8422022
-0.46651334 -0.13970001 0.88900006 8421766
-0.46482003 -0.13970001 0.88900006 8422022
-0.46312669 -0.13970001 0.88900006 8421766
-0.46247146 -0.14001429 0.89100003 8487306
-0.45974001 -0.13970001 0.88900006 8421519
-0.4580467 -0.13970001 0.88900006 8421514
-0.45635334 -0.13970001 0.88900006 8421509
-0.45466003 -0.13970001 0.88900006 8355974
-0.45398575 -0.14001429 0.89100003 8421255
-0.45228857 -0.14001429 0.89100003 8486795
-0.45059142 -0.14001429 0.89100003 8421264
-0.45040575 -0.14048572 0.89400005 8355975
-0.44870287 -0.14048572 0.89400005 8355710
-0.44700003 -0.14048572 0.89400005 8355710
-0.44529718 -0.14048572 0.89400005 8290175
-0.44458666 -0.14080001 0.89600003 8289917
-0.44288 -0.14080001 0.89600003 8224124
-0.44117334 -0.14080001 0.89600003 8158590
-0.43946666 -0.14080001 0.89600003 8158593
-0.43776 -0.14080001 0.89600003 8093055
-0.43848667 -0.14158572 0.90100002 8093053
-0.43677047 -0.14158572 0.90100002 8092798
-0.4350543 -0.14158572 0.90100002 8092543
-0.43430001 -0.1419 0.90300006 8092542
-0.43258002 -0.1419 0.90300006 8026749
-0.43086001 -0.1419 0.90300006 7960955
-0.43009049 -0.1422143 0.90500003 7895673
-0.42836666 -0.1422143 0.90500003 7895924
-0.42805716 -0.14268573 0.90800005 7895408
-0.42632762 -0.14268573 0.90800005 7895157
-0.42553335 -0.14300001 0.91000003 7894907
-0.42380002 -0.14300001 0.91000003 7894392
-0.42438573 -0.14378572 0.91500002 7829366
-0.42264289 -0.14378572 0.91500002 7829365
-0.42320001 -0.14457142 0.92000002 7698036
-0.42236382 -0.14488572 0.92200005 7632755
-0.42197624 -0.14535716 0.92500007 7566450
-0.42021433 -0.14535716 0.92500007 7500656
-0.41845241 -0.14535716 0.92500007 7434862
-0.41759142 -0.14567143 0.92700005 7434861
-0.41582575 -0.14567143 0.92700005 7369069
-0.41540003 -0.14614287 0.93000007 7303272
-0.41451812 -0.14645715 0.93200004 7236964
-0.41274285 -0.14645715 0.93200004 7170917
-0.41229051 -0.14692858 0.93500006 7105126
-0.41138765 -0.14724286 0.93700004 7105134
-0.40960285 -0.14724286 0.93700004 6775158
-0.41260573 -0.14897144 0.94800007 6510690
-0.41166669 -0.14928573 0.95000005 6576719
-0.40985718 -0.14928573 0.95000005 6708308
-0.40933621 -0.14975715 0.95300007 6905434
-0.40837619 -0.15007144 0.95500004 7037033
-0.40655714 -0.15007144 0.95500004 7233656
-0.40600955 -0.15054286 0.95800006 7496077
-0.40418479 -0.15054286 0.95800006 7827107
-0.40110001 -0.15007144 0.95500004 8223915
-0.39928097 -0.15007144 0.95500004 9934772
-0.39746192 -0.15007144 0.95500004 11580121
-0.52250004 -0.13583335 0.87500006 10199984
-0.52083337 -0.13583335 0.87500006 10003626
-0.51916671 -0.13583335 0.87500006 9540005
-0.51631713 -0.13552287 0.87300003 9144989
-0.51465428 -0.13552287 0.87300003 8881045
-0.51299143 -0.13552287 0.87300003 8684175
-0.51777148 -0.13723049 0.88400006 8618378
-0.51608765 -0.13723049 0.88400006 8553099
-0.51440382 -0.13723049 0.88400006 8553357
-0.51271999 -0.13723049 0.88400006 8618890
-0.51103622 -0.13723049 0.88400006 8487816
-0.50820005 -0.13692001 0.88200003 8422278
-0.50651997 -0.13692001 0.88200003 8488068
-0.50484002 -0.13692001 0.88200003 8619140
-0.50316 -0.13692001 0.88200003 8619396
-0.50147998 -0.13692001 0.88200003 8684675
-0.49980003 -0.13692001 0.88200003 8750210
-0.49812001 -0.13692001 0.88200003 8816004
-0.49644002 -0.13692001 0.88200003 8816263
-0.49476004 -0.13692001 0.88200003 8816262
-0.49196196 -0.13660952 0.88000005 8816262
-0.49028575 -0.13660952 0.88000005 8816004
-0.48860955 -0.13660952 0.88000005 8815747
-0.48693335 -0.13660952 0.88000005 8880770
-0.48636001 -0.13692001 0.88200003 8749441
-0.48468003 -0.13692001 0.88200003 8618114
-0.48300001 -0.13692001 0.88200003 8552580
-0.48132002 -0.13692001 0.88200003 8487044
-0.47964001 -0.13692001 0.88200003 8421765
-0.47795999 -0.13692001 0.88200003 8356999
-0.47628 -0.13692001 0.88200003 8357001
-0.47460002 -0.13692001 0.88200003 8422536
-0.47292 -0.13692001 0.88200003 8422535
-0.47123998 -0.13692001 0.88200003 8422023
-0.4706248 -0.13723049 0.88400006 8422024
-0.46894097 -0.13723049 0.88400006 8422024
-0.46884286 -0.13769619 0.88700002 8422024
-0.4682067 -0.13800667 0.88900006 8487560
-0.46651334 -0.13800667 0.88900006 8487304
-0.46482003 -0.13800667 0.88900006 8487048
-0.46208477 -0.13769619 0.88700002 8487048
-0.46247146 -0.13831714 0.89100003 8552841
-0.45974001 -0.13800667 0.88900006 8487307
-0.4580467 -0.13800667 0.88900006 8487048
-0.45635334 -0.13800667 0.88900006 8421508
-0.45466003 -0.13800667 0.88900006 8355973
-0.45296669 -0.13800667 0.88900006 8487046
-0.45228857 -0.13831714 0.89100003 8617865
-0.45059142 -0.13831714 0.89100003 8486797
-0.45040575 -0.13878287 0.89400005 8420999
-0.44870287 -0.13878287 0.89400005 8355457
-0.44700003 -0.13878287 0.89400005 8355713
-0.44529718 -0.13878287 0.89400005 8290177
-0.44359431 -0.13878287 0.89400005 8289919
-0.44288 -0.13909334 0.89600003 8224126
-0.44117334 -0.13909334 0.89600003 8224127
-0.43946666 -0.13909334 0.89600003 8158849
-0.43776 -0.13909334 0.89600003 8158593
-0.43848667 -0.13986953 0.90100002 8093057
-0.43677047 -0.13986953 0.90100002 8092800
-0.4350543 -0.13986953 0.90100002 8092800
-0.43430001 -0.14018001 0.90300006 8092543
-0.43258002 -0.14018001 0.90300006 8027005
-0.43086001 -0.14018001 0.90300006 7960956
-0.43009049 -0.14049047 0.90500003 7895674
-0.42836666 -0.14049047 0.90500003 7895671
-0.42805716 -0.14095621 0.90800005 7895669
-0.42632762 -0.14095621 0.90800005 7895416
-0.42553335 -0.14126667 0.91000003 7895163
-0.42519715 -0.14173238 0.91300005 7895161
-0.42438573 -0.14204286 0.91500002 7829623
-0.4235667 -0.14235334 0.91700006 7763574
-0.42320001 -0.14281905 0.92000002 7698037
-0.42236382 -0.14312953 0.92200005 7632245
-0.42197624 -0.14359525 0.92500007 7566452
-0.42021433 -0.14359525 0.92500007 7566195
-0.41845241 -0.14359525 0.92500007 7565937
-0.4166905 -0.14359525 0.92500007 7566194
-0.41582575 -0.14390573 0.92700005 7500915
-0.41540003 -0.14437144 0.93000007 7434863
-0.41451812 -0.1446819 0.93200004 7434858
-0.41407144 -0.14514764 0.93500006 7434603
-0.41317239 -0.1454581 0.93700004 7630955
-0.4127048 -0.14592382 0.94000006 7893359
-0.41310003 -0.14669999 0.94500005 7631475
-0.41260573 -0.14716573 0.94800007 7368812
-0.41080001 -0.14716573 0.94800007 7368293
-0.40985718 -0.1474762 0.95000005 7367780
-0.40933621 -0.1479419 0.95300007 7236194
-0.40752098 -0.1479419 0.95300007 7103850
-0.40783432 -0.1487181 0.95800006 6644082
-0.40600955 -0.1487181 0.95800006 6249842
-0.40545049 -0.14918381 0.96100003 5790067
-0.40236002 -0.1487181 0.95800006 5326975
-0.40053529 -0.1487181 0.95800006 8468363
-0.39871049 -0.1487181 0.95800006 11645124
-0.52763617 -0.13462667 0.87800002 10266285
-0.5241667 -0.13416667 0.87500006 10068905
-0.52250004 -0.13416667 0.87500006 9805990
-0.51964283 -0.13386001 0.87300003 9608869
-0.51798004 -0.13386001 0.87300003 9211556
-0.51631713 -0.13386001 0.87300003 8882328
-0.51465428 -0.13386001 0.87300003 8749453
-0.51945525 -0.13554667 0.88400006 8552842
-0.51777148 -0.13554667 0.88400006 8487303
-0.51608765 -0.13554667 0.88400006 8487558
-0.51614952 -0.13600667 0.88700002 8553094
-0.51446003 -0.13600667 0.88700002 8618630
-0.51103622 -0.13554667 0.88400006 8553350
-0.50935245 -0.13554667 0.88400006 8553861
-0.50766861 -0.13554667 0.88400006 8619141
-0.50598478 -0.13554667 0.88400006 8684678
-0.50316 -0.13524 0.88200003 8750471
-0.50147998 -0.13524 0.88200003 8816262
-0.49980003 -0.13524 0.88200003 8882054
-0.49924955 -0.13554667 0.88400006 8882566
-0.49756575 -0.13554667 0.88400006 8948103
-0.49476004 -0.13524 0.88200003 8948103
-0.49307999 -0.13524 0.88200003 8947591
-0.49140003 -0.13524 0.88200003 8947332
-0.48971999 -0.13524 0.88200003 8947586
-0.48804 -0.13524 0.88200003 8947840
-0.48636001 -0.13524 0.88200003 8816255
-0.48468003 -0.13524 0.88200003 8684673
-0.48300001 -0.13524 0.88200003 8618884
-0.48132002 -0.13524 0.88200003 8618884
-0.47964001 -0.13524 0.88200003 8488069
-0.47795999 -0.13524 0.88200003 8422789
-0.47628 -0.13524 0.88200003 8422278
-0.47460002 -0.13524 0.88200003 8421766
-0.47292 -0.13524 0.88200003 8422022
-0.47123998 -0.13524 0.88200003 8422279
-0.4706248 -0.13554667 0.88400006 8422024
-0.46894097 -0.13554667 0.88400006 8422025
-0.46884286 -0.13600667 0.88700002 8422027
-0.46715334 -0.13600667 0.88700002 8487562
-0.46546382 -0.13600667 0.88700002 8487306
-0.46377429 -0.13600667 0.88700002 8487050
-0.46208477 -0.13600667 0.88700002 8487050
-0.46143335 -0.13631335 0.88900006 8487305
-0.45974001 -0.13631335 0.88900006 8421768
-0.4570162 -0.13600667 0.88700002 8421766
-0.45532668 -0.13600667 0.88700002 8421764
-0.45466003 -0.13631335 0.88900006 8422021
-0.45296669 -0.13631335 0.88900006 8421510
-0.45127335 -0.13631335 0.88900006 8487048
-0.45059142 -0.13662 0.89100003 8421258
-0.45040575 -0.13708 0.89400005 8355207
-0.44870287 -0.13708 0.89400005 8355716
-0.44700003 -0.13708 0.89400005 8355972
-0.44529718 -0.13708 0.89400005 8290180
-0.44458666 -0.13738668 0.89600003 8290178
-0.44288 -0.13738668 0.89600003 8224128
-0.44117334 -0.13738668 0.89600003 8223873
-0.43946666 -0.13738668 0.89600003 8158338
-0.43873718 -0.13769333 0.89800006 8158595
-0.43848667 -0.13815333 0.90100002 8093061
-0.43677047 -0.13815333 0.90100002 8093059
-0.4350543 -0.13815333 0.90100002 8027266
-0.43430001 -0.13846001 0.90300006 8027008
-0.43258002 -0.13846001 0.90300006 8027006
-0.43181431 -0.13876666 0.90500003 7960957
-0.43009049 -0.13876666 0.90500003 7960956
-0.42978668 -0.13922668 0.90800005 7960955
-0.42900002 -0.13953334 0.91000003 7895674
-0.42726666 -0.13953334 0.91000003 7895674
-0.42553335 -0.13953334 0.91000003 7895419
-0.42519715 -0.13999334 0.91300005 7895161
-0.42438573 -0.14030001 0.91500002 7829624
-0.4235667 -0.14060667 0.91700006 7763319
-0.42320001 -0.14106666 0.92000002 7697783
-0.42236382 -0.14137334 0.92200005 7631735
-0.42197624 -0.14183335 0.92500007 7631735
-0.42021433 -0.14183335 0.92500007 7631734
-0.41845241 -0.14183335 0.92500007 7631477
-0.4166905 -0.14183335 0.92500007 7631991
-0.41582575 -0.14214 0.92700005 7566202
-0.41406003 -0.14214 0.92700005 7500405
-0.41451812 -0.14290667 0.93200004 7434865
-0.41407144 -0.14336666 0.93500006 7434353
-0.41449526 -0.14413334 0.94000006 7565425
-0.41358286 -0.14444 0.94200003 7696497
-0.41441146 -0.14536001 0.94800007 7565681
-0.41260573 -0.14536001 0.94800007 7434870
-0.41166669 -0.14566667 0.95000005 7434876
-0.40985718 -0.14566667 0.95000005 7435123
-0.40933621 -0.14612667 0.95300007 7433323
-0.40837619 -0.14643334 0.95500004 7498859
-0.40783432 -0.14689334 0.95800006 7105388
-0.40728095 -0.14735334 0.96100003 6777431
-0.40545049 -0.14735334 0.96100003 6317123
-0.40446001 -0.14766002 0.96300006 5915730
-0.40178952 -0.14735334 0.96100003 8204130
-0.39995906 -0.14735334 0.96100003 10530480
-0.5305143 -0.13325715 0.88000005 10659242
-0.52763617 -0.13295428 0.87800002 10199975
-0.5241667 -0.13250001 0.87500006 9740197
-0.52250004 -0.13250001 0.87500006 9474979
-0.51964283 -0.13219714 0.87300003 9211806
-0.51798004 -0.13219714 0.87300003 8948633
-0.51631713 -0.13219714 0.87300003 8684689
-0.51995999 -0.13356 0.88200003 8552330
-0.51945525 -0.13386287 0.88400006 8487303
-0.51777148 -0.13386287 0.88400006 8422021
-0.51608765 -0.13386287 0.88400006 8422019
-0.51440382 -0.13386287 0.88400006 8487554
-0.51271999 -0.13386287 0.88400006 8618882
-0.51103622 -0.13386287 0.88400006 8619139
-0.50935245 -0.13386287 0.88400006 8684675
-0.50766861 -0.13386287 0.88400006 8750466
-0.50598478 -0.13386287 0.88400006 8816260
-0.50430101 -0.13386287 0.88400006 8882309
-0.50432283 -0.13431714 0.88700002 9013638
-0.50263333 -0.13431714 0.88700002 9013895
-0.49924955 -0.13386287 0.88400006 9013895
-0.49756575 -0.13386287 0.88400006 9079688
-0.49476004 -0.13356 0.88200003 9144967
-0.49307999 -0.13356 0.88200003 9079430
-0.49140003 -0.13356 0.88200003 9079173
-0.48971999 -0.13356 0.88200003 9013636
-0.48804 -0.13356 0.88200003 9013379
-0.48636001 -0.13356 0.88200003 8882306
-0.48468003 -0.13356 0.88200003 8816006
-0.48409528 -0.13386287 0.88400006 8750475
-0.48241147 -0.13386287 0.88400006 8750473
-0.48072764 -0.13386287 0.88400006 8619399
-0.47904384 -0.13386287 0.88400006 8553607
-0.47736001 -0.13386287 0.88400006 8487815
-0.47460002 -0.13356 0.88200003 8487559
-0.47292 -0.13356 0.88200003 8487558
-0.47123998 -0.13356 0.88200003 8487557
-0.4706248 -0.13386287 0.88400006 8422021
-0.46894097 -0.13386287 0.88400006 8421767
-0.46725717 -0.13386287 0.88400006 8422793
-0.46715334 -0.13431714 0.88700002 8487305
-0.46388957 -0.13386287 0.88400006 8487817
-0.46377429 -0.13431714 0.88700002 8487305
-0.46052194 -0.13386287 0.88400006 8422025
-0.46039525 -0.13431714 0.88700002 8421768
-0.45870572 -0.13431714 0.88700002 8421768
-0.4570162 -0.13431714 0.88700002 8421766
-0.45532668 -0.13431714 0.88700002 8422020
-0.45363715 -0.13431714 0.88700002 8487557
-0.45296669 -0.13462001 0.88900006 8421767
-0.45127335 -0.13462001 0.88900006 8421511
-0.45059142 -0.13492286 0.89100003 8355975
-0.45040575 -0.13537715 0.89400005 8355974
-0.44870287 -0.13537715 0.89400005 8356229
-0.44700003 -0.13537715 0.89400005 8355972
-0.44629332 -0.13568 0.89600003 8290436
-0.44458666 -0.13568 0.89600003 8290177
-0.44288 -0.13568 0.89600003 8289918
-0.4421581 -0.13598287 0.89800006 8289407
-0.44044766 -0.13598287 0.89800006 8223872
-0.44020286 -0.13643715 0.90100002 8158594
-0.43848667 -0.13643715 0.90100002 8093060
-0.43677047 -0.13643715 0.90100002 8092803
-0.43602002 -0.13674001 0.90300006 8027265
-0.43430001 -0.13674001 0.90300006 8027008
-0.43258002 -0.13674001 0.90300006 8027006
-0.43181431 -0.13704287 0.90500003 8026490
-0.43009049 -0.13704287 0.90500003 8026486
-0.42978668 -0.13749716 0.90800005 8026488
-0.42900002 -0.13780001 0.91000003 7961211
-0.42726666 -0.13780001 0.91000003 7895674
-0.42553335 -0.13780001 0.91000003 7895674
-0.42519715 -0.13825428 0.91300005 7895161
-0.42438573 -0.13855714 0.91500002 7829624
-0.42264289 -0.13855714 0.91500002 7763320
-0.42182004 -0.13886 0.91700006 7697784
-0.42144763 -0.13931428 0.92000002 7697527
-0.42060766 -0.13961715 0.92200005 7697526
-0.41885146 -0.13961715 0.92200005 7697013
-0.41709524 -0.13961715 0.92200005 7696756
-0.4166905 -0.14007144 0.92500007 7697269
-0.41582575 -0.14037429 0.92700005 7631735
-0.41406003 -0.14037429 0.92700005 7565940
-0.41451812 -0.14113143 0.93200004 7500401
-0.41495717 -0.14188857 0.93700004 7500402
-0.41537717 -0.14264572 0.94200003 7500403
-0.41358286 -0.14264572 0.94200003 7499890
-0.41441146 -0.1435543 0.94800007 7499890
-0.41260573 -0.1435543 0.94800007 7500149
-0.41166669 -0.14385715 0.95000005 7500152
-0.40985718 -0.14385715 0.95000005 7499890
-0.40933621 -0.14431143 0.95300007 7696237
-0.40837619 -0.14461428 0.95500004 7893102
-0.40783432 -0.14506857 0.95800006 7631216
-0.40728095 -0.14552286 0.96100003 7368803
-0.40629432 -0.14582571 0.96300006 6910039
-0.40698001 -0.14673428 0.96900004 6510427
-0.40513429 -0.14673428 0.96900004 7939935
-0.40328857 -0.14673428 0.96900004 9479854
-0.40144286 -0.14673428 0.96900004 12648190
-0.5305143 -0.13158095 0.88000005 10264741
-0.52763617 -0.13128191 0.87800002 9871010
-0.52596384 -0.13128191 0.87800002 9477281
-0.52250004 -0.13083334 0.87500006 9212065
-0.52083337 -0.13083334 0.87500006 8883863
-0.51916671 -0.13083334 0.87500006 8684942
-0.52164006 -0.13188 0.88200003 8552842
-0.51995999 -0.13188 0.88200003 8487047
-0.51828003 -0.13188 0.88200003 8421765
-0.51660001 -0.13188 0.88200003 8421763
-0.51608765 -0.13217905 0.88400006 8422016
-0.51440382 -0.13217905 0.88400006 8553086
-0.51271999 -0.13217905 0.88400006 8619135
-0.51103622 -0.13217905 0.88400006 8684673
-0.50935245 -0.13217905 0.88400006 8750976
-0.50766861 -0.13217905 0.88400006 8816768
-0.50598478 -0.13217905 0.88400006 8882818
-0.50430101 -0.13217905 0.88400006 8948612
-0.50432283 -0.13262762 0.88700002 9014406
-0.50263333 -0.13262762 0.88700002 9079689
-0.50094384 -0.13262762 0.88700002 9079689
-0.49925432 -0.13262762 0.88700002 9145225
-0.49588192 -0.13217905 0.88400006 9211271
-0.49587524 -0.13262762 0.88700002 9145477
-0.49530005 -0.13292667 0.88900006 9145222
-0.49360672 -0.13292667 0.88900006 9013895
-0.48804 -0.13188 0.88200003 8948102
-0.48746288 -0.13217905 0.88400006 8882310
-0.48577908 -0.13217905 0.88400006 8816268
-0.48409528 -0.13217905 0.88400006 8750482
-0.48241147 -0.13217905 0.88400006 8750477
-0.48072764 -0.13217905 0.88400006 8619401
-0.47904384 -0.13217905 0.88400006 8553609
-0.47736001 -0.13217905 0.88400006 8553353
-0.47567621 -0.13217905 0.88400006 8487816
-0.47292 -0.13188 0.88200003 8421767
-0.47123998 -0.13188 0.88200003 8421764
-0.46956003 -0.13188 0.88200003 8421762
-0.46894097 -0.13217905 0.88400006 8421765
-0.46725717 -0.13217905 0.88400006 8421768
-0.46557334 -0.13217905 0.88400006 8421768
-0.46388957 -0.13217905 0.88400006 8421768
-0.46377429 -0.13262762 0.88700002 8421768
-0.46052194 -0.13217905 0.88400006 8421768
-0.46143335 -0.13292667 0.88900006 8422024
-0.45974001 -0.13292667 0.88900006 8421768
-0.4580467 -0.13292667 0.88900006 8421766
-0.45635334 -0.13292667 0.88900006 8422021
-0.45466003 -0.13292667 0.88900006 8487558
-0.45296669 -0.13292667 0.88900006 8421768
-0.45228857 -0.13322572 0.89100003 8422022
-0.45059142 -0.13322572 0.89100003 8356229
-0.45040575 -0.13367428 0.89400005 8356230
-0.44870287 -0.13367428 0.89400005 8356231
-0.44800001 -0.13397333 0.89600003 8290693
-0.44629332 -0.13397333 0.89600003 8290436
-0.44458666 -0.13397333 0.89600003 8224896
-0.44288 -0.13397333 0.89600003 8224124
-0.4421581 -0.13427238 0.89800006 8224125
-0.44044766 -0.13427238 0.89800006 8158591
-0.44020286 -0.13472095 0.90100002 8158849
-0.43848667 -0.13472095 0.90100002 8093316
-0.43774 -0.13502 0.90300006 8028034
-0.4350543 -0.13472095 0.90100002 8027265
-0.43430001 -0.13502 0.90300006 8027008
-0.43258002 -0.13502 0.90300006 8027007
-0.43181431 -0.13531905 0.90500003 8026744
-0.43009049 -0.13531905 0.90500003 8026737
-0.42978668 -0.13576764 0.90800005 8026742
-0.42900002 -0.13606668 0.91000003 7961212
-0.42726666 -0.13606668 0.91000003 7895674
-0.42693621 -0.13651524 0.91300005 7895417
-0.42519715 -0.13651524 0.91300005 7895161
-0.42438573 -0.13681428 0.91500002 7829369
-0.42264289 -0.13681428 0.91500002 7829113
-0.42182004 -0.13711335 0.91700006 7763322
-0.42144763 -0.1375619 0.92000002 7697527
-0.42060766 -0.13786097 0.92200005 7631989
-0.41885146 -0.13786097 0.92200005 7631476
-0.41845241 -0.13830952 0.92500007 7631475
-0.4166905 -0.13830952 0.92500007 7697267
-0.41582575 -0.13860857 0.92700005 7631732
-0.41406003 -0.13860857 0.92700005 7631219
-0.41451812 -0.1393562 0.93200004 7565938
-0.41407144 -0.13980478 0.93500006 7566195
-0.41449526 -0.14055239 0.94000006 7565941
-0.41358286 -0.14085144 0.94200003 7499892
-0.41310003 -0.14130001 0.94500005 7499892
-0.41260573 -0.14174858 0.94800007 7500148
-0.41166669 -0.14204763 0.95000005 7499892
-0.40985718 -0.14204763 0.95000005 7499890
-0.40933621 -0.1424962 0.95300007 7565168
-0.40837619 -0.14279525 0.95500004 7630962
-0.40655714 -0.14279525 0.95500004 7434356
-0.40728095 -0.14369237 0.96100003 7303535
-0.40629432 -0.14399144 0.96300006 7041131
-0.40824002 -0.14533715 0.97200006 6842979
-0.40722477 -0.14563619 0.97400004 8029276
-0.40328857 -0.14488858 0.96900004 9215661
-0.40144286 -0.14488858 0.96900004 11791614
-0.39959717 -0.14488858 0.96900004 14409726
-0.39980382 -0.14563619 0.97400004 11582462
-0.39794856 -0.14563619 0.97400004 8757399
-0.52763617 -0.12960953 0.87800002 9607329
-0.52596384 -0.12960953 0.87800002 9278109
-0.52250004 -0.12916668 0.87500006 8949145
-0.52083337 -0.12916668 0.87500006 8620173
-0.51916671 -0.12916668 0.87500006 8486786
-0.52164006 -0.1302 0.88200003 8421251
-0.51995999 -0.1302 0.88200003 8421252
-0.51828003 -0.1302 0.88200003 8421507
-0.51777148 -0.13049524 0.88400006 8421762
-0.51608765 -0.13049524 0.88400006 8487552
-0.51440382 -0.13049524 0.88400006 8553343
-0.51271999 -0.13049524 0.88400006 8684416
-0.51277047 -0.1309381 0.88700002 8750465
-0.50935245 -0.13049524 0.88400006 8816768
-0.50939143 -0.1309381 0.88700002 8883072
-0.50770193 -0.1309381 0.88700002 9014402
-0.50430101 -0.13049524 0.88400006 9014660
-0.50546002 -0.13123335 0.88900006 9080197
-0.50263333 -0.1309381 0.88700002 9145735
-0.50094384 -0.1309381 0.88700002 9211015
-0.49925432 -0.1309381 0.88700002 9210759
-0.49756476 -0.1309381 0.88700002 9276550
-0.49699333 -0.13123335 0.88900006 9211269
-0.49530005 -0.13123335 0.88900006 9211014
-0.49249622 -0.1309381 0.88700002 9079687
-0.49080664 -0.1309381 0.88700002 8948102
-0.48911715 -0.1309381 0.88700002 8882310
-0.48577908 -0.13049524 0.88400006 8881801
-0.4857381 -0.1309381 0.88700002 8816268
-0.48404858 -0.1309381 0.88700002 8750473
-0.48235905 -0.1309381 0.88700002 8684933
-0.47904384 -0.13049524 0.88400006 8619397
-0.47736001 -0.13049524 0.88400006 8553862
-0.47567621 -0.13049524 0.88400006 8553605
-0.47399241 -0.13049524 0.88400006 8421765
-0.47123998 -0.1302 0.88200003 8356229
-0.46956003 -0.1302 0.88200003 8422020
-0.46894097 -0.13049524 0.88400006 8487558
-0.46725717 -0.13049524 0.88400006 8422024
-0.46557334 -0.13049524 0.88400006 8422024
-0.46388957 -0.13049524 0.88400006 8357001
-0.46377429 -0.1309381 0.88700002 8356232
-0.46052194 -0.13049524 0.88400006 8356230
-0.46143335 -0.13123335 0.88900006 8421766
-0.45974001 -0.13123335 0.88900006 8422023
-0.4580467 -0.13123335 0.88900006 8422021
-0.45635334 -0.13123335 0.88900006 8422020
-0.45466003 -0.13123335 0.88900006 8487557
-0.45296669 -0.13123335 0.88900006 8421766
-0.45228857 -0.13152859 0.89100003 8421764
-0.45210859 -0.13197143 0.89400005 8421763
-0.45040575 -0.13197143 0.89400005 8421766
-0.44870287 -0.13197143 0.89400005 8356234
-0.44800001 -0.13226667 0.89600003 8290695
-0.44629332 -0.13226667 0.89600003 8225157
-0.44458666 -0.13226667 0.89600003 8224642
-0.44288 -0.13226667 0.89600003 8224128
-0.4421581 -0.13256191 0.89800006 8224127
-0.44044766 -0.13256191 0.89800006 8158847
-0.44020286 -0.13300475 0.90100002 8158849
-0.43848667 -0.13300475 0.90100002 8093571
-0.43774 -0.13330001 0.90300006 8028034
-0.4350543 -0.13300475 0.90100002 8027521
-0.43430001 -0.13330001 0.90300006 8027008
-0.43258002 -0.13330001 0.90300006 8027007
-0.43181431 -0.13359524 0.90500003 8027003
-0.43009049 -0.13359524 0.90500003 8026999
-0.42978668 -0.13403811 0.90800005 8026746
-0.42900002 -0.13433333 0.91000003 7960957
-0.42726666 -0.13433333 0.91000003 7960699
-0.42693621 -0.1347762 0.91300005 7895162
-0.42612857 -0.13507143 0.91500002 7895161
-0.42438573 -0.13507143 0.91500002 7894904
-0.42264289 -0.13507143 0.91500002 7894648
-0.42182004 -0.13536668 0.91700006 7763321
-0.42144763 -0.13580953 0.92000002 7697527
-0.42060766 -0.13610476 0.92200005 7632246
-0.41885146 -0.13610476 0.92200005 7566195
-0.41845241 -0.13654763 0.92500007 7631473
-0.4166905 -0.13654763 0.92500007 7697267
-0.41582575 -0.13684286 0.92700005 7697269
-0.41406003 -0.13684286 0.92700005 7696756
-0.41362861 -0.13728572 0.93000007 7697011
-0.41274285 -0.13758096 0.93200004 7697012
-0.41317239 -0.13831905 0.93700004 7631477
-0.4127048 -0.13876191 0.94000006 7565684
-0.41310003 -0.13950001 0.94500005 7565683
-0.41260573 -0.13994287 0.94800007 7565426
-0.41166669 -0.14023809 0.95000005 7499890
-0.40985718 -0.14023809 0.95000005 7499632
-0.40933621 -0.14068097 0.95300007 7434094
-0.40837619 -0.14097619 0.95500004 7434351
-0.40655714 -0.14097619 0.95500004 7302769
-0.40728095 -0.1418619 0.96100003 7237743
-0.40629432 -0.14215715 0.96300006 7237998
-0.40698001 -0.14304286 0.96900004 7236708
-0.40513429 -0.14304286 0.96900004 8087387
-0.40328857 -0.14304286 0.96900004 8947877
