# .PCD v0.7 - Point Cloud Data file format
VERSION 0.7
FIELDS x y z rgba
SIZE 4 4 4 4
TYPE F F F U
COUNT 1 1 1 1
WIDTH 1095
HEIGHT 1
VIEWPOINT 0 0 0 1 0 0 0
POINTS 1095
DATA ascii
-0.47807813 -0.096641913 0.89800006 7764862
-0.47636765 -0.096641913 0.89800006 7896445
-0.47465718 -0.096641913 0.89800006 8027517
-0.47189334 -0.096426666 0.89600003 8093564
-0.47123623 -0.096641913 0.89800006 8159100
-0.46848002 -0.096426666 0.89600003 8225152
-0.46781525 -0.096641913 0.89800006 8290948
-0.46610478 -0.096641913 0.89800006 8356742
-0.46439433 -0.096641913 0.89800006 8357001
-0.46268383 -0.096641913 0.89800006 8422536
-0.46097335 -0.096641913 0.89800006 8356743
-0.45926291 -0.096641913 0.89800006 8356742
-0.45908096 -0.096964762 0.90100002 8290950
-0.45736477 -0.096964762 0.90100002 8290436
-0.45767143 -0.097395241 0.90500003 8224642
-0.45594764 -0.097395241 0.90500003 8159103
-0.45572954 -0.097718097 0.90800005 8027773
-0.454 -0.097718097 0.90800005 7961722
-0.45326668 -0.097933337 0.91000003 7960952
-0.45153335 -0.097933337 0.91000003 7960957
-0.44980001 -0.097933337 0.91000003 7960706
-0.44806665 -0.097933337 0.91000003 7960959
-0.44780478 -0.098256193 0.91300005 7829884
-0.44704288 -0.098471433 0.91500002 7698554
-0.44529998 -0.098471433 0.91500002 7764089
-0.44598094 -0.099009521 0.92000002 7828856
-0.44519433 -0.099224769 0.92200005 7828856
-0.44488096 -0.099547625 0.92500007 7763320
-0.44311908 -0.099547625 0.92500007 7697784
-0.4413572 -0.099547625 0.92500007 7697782
-0.44054574 -0.099762864 0.92700005 7631988
-0.43878001 -0.099762864 0.92700005 7631988
-0.43842861 -0.10008572 0.93000007 7697268
-0.4375962 -0.10030095 0.93200004 7762547
-0.43582097 -0.10030095 0.93200004 7631475
-0.43544286 -0.10062382 0.93500006 7565939
-0.43366194 -0.10062382 0.93500006 7500147
-0.43419048 -0.10116191 0.94000006 7434097
-0.43332002 -0.10137715 0.94200003 7499631
-0.43427432 -0.10202286 0.94800007 7630961
-0.43474954 -0.10256096 0.95300007 7631731
-0.4338429 -0.1027762 0.95500004 7631467
-0.43338096 -0.10309905 0.95800006 6778724
-0.43290761 -0.1034219 0.96100003 5925993
-0.43332002 -0.10396 0.96600002 4739182
-0.43416002 -0.10460572 0.97200006 3494506
-0.43230861 -0.10460572 0.97200006 5461095
-0.51604575 -0.090491436 0.85600007 8882835
-0.51441526 -0.090491436 0.85600007 8817039
-0.51278478 -0.090491436 0.85600007 8750734
-0.51115429 -0.090491436 0.85600007 8619404
-0.50952387 -0.090491436 0.85600007 8487817
-0.50789332 -0.090491436 0.85600007 8290182
-0.50744575 -0.090702862 0.85800004 8092545
-0.50463241 -0.090491436 0.85600007 7895421
-0.50300193 -0.090491436 0.85600007 7764088
-0.50020003 -0.090280004 0.85400003 7763828
-0.49857333 -0.090280004 0.85400003 7829365
-0.53651625 -0.09746857 0.92200005 7960695
-0.53476006 -0.09746857 0.92200005 8092282
-0.5318476 -0.097257145 0.92000002 8093309
-0.52836668 -0.096940003 0.91700006 8158587
-0.52662003 -0.096940003 0.91700006 8027001
-0.52487332 -0.096940003 0.91700006 7895413
-0.52198571 -0.096728571 0.91500002 7764082
-0.51910573 -0.096517146 0.91300005 7632238
-0.51736671 -0.096517146 0.91300005 7500650
-0.51393336 -0.096200004 0.91000003 7434088
-0.5110743 -0.095988572 0.90800005 7303014
-0.50934476 -0.095988572 0.90800005 7236969
-0.50761527 -0.095988572 0.90800005 7105643
-0.50588578 -0.095988572 0.90800005 7040105
-0.50415617 -0.095988572 0.90800005 6909288
-0.50076663 -0.09567143 0.90500003 6843491
-0.49904284 -0.09567143 0.90500003 6974303
-0.49621999 -0.095460005 0.90300006 7170919
-0.49450004 -0.095460005 0.90300006 7171183
-0.49278 -0.095460005 0.90300006 7237234
-0.48997238 -0.095248573 0.90100002 7237493
-0.48825619 -0.095248573 0.90100002 7303288
-0.48653999 -0.095248573 0.90100002 7369083
-0.48320955 -0.094931439 0.89800006 7500667
-0.48149908 -0.094931439 0.89800006 7501692
-0.47872001 -0.094719999 0.89600003 7567741
-0.47701335 -0.094719999 0.89600003 7764863
-0.47530669 -0.094719999 0.89600003 7961727
-0.47360003 -0.094719999 0.89600003 8027520
-0.47189334 -0.094719999 0.89600003 8158848
-0.46913716 -0.094508581 0.89400005 8224897
-0.46848002 -0.094719999 0.89600003 8290692
-0.46781525 -0.094931439 0.89800006 8356743
-0.46610478 -0.094931439 0.89800006 8422281
-0.46439433 -0.094931439 0.89800006 8422539
-0.46268383 -0.094931439 0.89800006 8487817
-0.46097335 -0.094931439 0.89800006 8422279
-0.45926291 -0.094931439 0.89800006 8356486
-0.45908096 -0.095248573 0.90100002 8290950
-0.45736477 -0.095248573 0.90100002 8290948
-0.45767143 -0.09567143 0.90500003 8225411
-0.45594764 -0.09567143 0.90500003 8158848
-0.45572954 -0.095988572 0.90800005 7962237
-0.45499998 -0.096200004 0.91000003 7830395
-0.45326668 -0.096200004 0.91000003 7895418
-0.45153335 -0.096200004 0.91000003 7960956
-0.44980001 -0.096200004 0.91000003 7960703
-0.44806665 -0.096200004 0.91000003 8026493
-0.44780478 -0.096517146 0.91300005 7829883
-0.44704288 -0.096728571 0.91500002 7633018
-0.44529998 -0.096728571 0.91500002 7698554
-0.44452667 -0.096940003 0.91700006 7829114
-0.44519433 -0.09746857 0.92200005 7828858
-0.44488096 -0.097785726 0.92500007 7828857
-0.44311908 -0.097785726 0.92500007 7763832
-0.44231147 -0.097997144 0.92700005 7697782
-0.44197145 -0.098314293 0.93000007 7697268
-0.44114667 -0.098525718 0.93200004 7697524
-0.43937144 -0.098525718 0.93200004 7697524
-0.43900478 -0.098842859 0.93500006 7697270
-0.43722382 -0.098842859 0.93500006 7566199
-0.43544286 -0.098842859 0.93500006 7500405
-0.43366194 -0.098842859 0.93500006 7369074
-0.43280476 -0.099054292 0.93700004 7303025
-0.43240002 -0.099371433 0.94000006 7433840
-0.43290001 -0.0999 0.94500005 7565169
-0.43474954 -0.10074572 0.95300007 7697522
-0.43293431 -0.10074572 0.95300007 7828847
-0.43338096 -0.10127429 0.95800006 6514540
-0.43515998 -0.10212 0.96600002 5268580
-0.43601146 -0.10275429 0.97200006 4280157
-0.43416002 -0.10275429 0.97200006 3363168
-0.43230861 -0.10275429 0.97200006 5395042
-0.51604575 -0.088860959 0.85600007 8817557
-0.51441526 -0.088860959 0.85600007 8751505
-0.51278478 -0.088860959 0.85600007 8685454
-0.51115429 -0.088860959 0.85600007 8554124
-0.50952387 -0.088860959 0.85600007 8422280
-0.50789332 -0.088860959 0.85600007 8224900
-0.50744575 -0.089068577 0.85800004 8027008
-0.50463241 -0.088860959 0.85600007 7829884
-0.50300193 -0.088860959 0.85600007 7633017
-0.5013715 -0.088860959 0.85600007 7698294
-0.49974096 -0.088860959 0.85600007 7829369
-0.53651625 -0.095712386 0.92200005 7960956
-0.53360003 -0.095504761 0.92000002 8092798
-0.5318476 -0.095504761 0.92000002 8159104
-0.52836668 -0.095193334 0.91700006 8159100
-0.52662003 -0.095193334 0.91700006 8027257
-0.52487332 -0.095193334 0.91700006 7961462
-0.52198571 -0.094985716 0.91500002 7764339
-0.51910573 -0.094778098 0.91300005 7632496
-0.51736671 -0.094778098 0.91300005 7566189
-0.51393336 -0.094466671 0.91000003 7499883
-0.5122 -0.094466671 0.91000003 7302762
-0.51046664 -0.094466671 0.91000003 7171436
-0.50873339 -0.094466671 0.91000003 7040110
-0.50588578 -0.094259053 0.90800005 6974570
-0.50415617 -0.094259053 0.90800005 6909031
-0.50242668 -0.094259053 0.90800005 6909029
-0.49904284 -0.093947619 0.90500003 6974308
-0.49621999 -0.093740009 0.90300006 7105386
-0.49450004 -0.093740009 0.90300006 7171185
-0.49278 -0.093740009 0.90300006 7171698
-0.48997238 -0.093532376 0.90100002 7171955
-0.48825619 -0.093532376 0.90100002 7238007
-0.48653999 -0.093532376 0.90100002 7303803
-0.48320955 -0.093220957 0.89800006 7435132
-0.48149908 -0.093220957 0.89800006 7501437
-0.47872001 -0.093013331 0.89600003 7567998
-0.47701335 -0.093013331 0.89600003 7764864
-0.47530669 -0.093013331 0.89600003 7961474
-0.47360003 -0.093013331 0.89600003 8027780
-0.47189334 -0.093013331 0.89600003 8158853
-0.47018668 -0.093013331 0.89600003 8224902
-0.46848002 -0.093013331 0.89600003 8290696
-0.46781525 -0.093220957 0.89800006 8290954
-0.46610478 -0.093220957 0.89800006 8356748
-0.46439433 -0.093220957 0.89800006 8356750
-0.46268383 -0.093220957 0.89800006 8422283
-0.46097335 -0.093220957 0.89800006 8356488
-0.45926291 -0.093220957 0.89800006 8356487
-0.45908096 -0.093532376 0.90100002 8290950
-0.45736477 -0.093532376 0.90100002 8290949
-0.45666003 -0.093740009 0.90300006 8224900
-0.45594764 -0.093947619 0.90500003 8158848
-0.45572954 -0.094259053 0.90800005 8027773
-0.454 -0.094259053 0.90800005 7895932
-0.45326668 -0.094466671 0.91000003 7895676
-0.45153335 -0.094466671 0.91000003 7895676
-0.44980001 -0.094466671 0.91000003 7895677
-0.44954383 -0.094778098 0.91300005 7895676
-0.44780478 -0.094778098 0.91300005 7829883
-0.44606572 -0.094778098 0.91300005 7764603
-0.44529998 -0.094985716 0.91500002 7764091
-0.44452667 -0.095193334 0.91700006 7829628
-0.44422856 -0.095504761 0.92000002 7829117
-0.44343811 -0.095712386 0.92200005 7829115
-0.44311908 -0.096023813 0.92500007 7763577
-0.44231147 -0.096231431 0.92700005 7763574
-0.44197145 -0.096542865 0.93000007 7697524
-0.44114667 -0.096750483 0.93200004 7697780
-0.43937144 -0.096750483 0.93200004 7697525
-0.43900478 -0.09706191 0.93500006 7697272
-0.43722382 -0.09706191 0.93500006 7566204
-0.43544286 -0.09706191 0.93500006 7500663
-0.43366194 -0.09706191 0.93500006 7434610
-0.43280476 -0.097269528 0.93700004 7368817
-0.43240002 -0.097580954 0.94000006 7433841
-0.43290001 -0.098100007 0.94500005 7499633
-0.43338096 -0.098619051 0.95000005 7566706
-0.43157145 -0.098619051 0.95000005 7698803
-0.43202382 -0.099138096 0.95500004 6251124
-0.43155622 -0.09944953 0.95800006 4873312
-0.42973143 -0.09944953 0.95800006 4215629
-0.43416002 -0.10090286 0.97200006 3625045
-0.43230861 -0.10090286 0.97200006 5394270
-0.51604575 -0.087230489 0.85600007 8817298
-0.51441526 -0.087230489 0.85600007 8751759
-0.51278478 -0.087230489 0.85600007 8685708
-0.51115429 -0.087230489 0.85600007 8488841
-0.50952387 -0.087230489 0.85600007 8356741
-0.50789332 -0.087230489 0.85600007 8159618
-0.5062629 -0.087230489 0.85600007 7961471
-0.50345337 -0.087026671 0.85400003 7698812
-0.5018267 -0.087026671 0.85400003 7501944
-0.50020003 -0.087026671 0.85400003 7633013
-0.53710479 -0.093752384 0.92000002 7829880
-0.53535235 -0.093752384 0.92000002 7961211
-0.53360003 -0.093752384 0.92000002 8158590
-0.5318476 -0.093752384 0.92000002 8159361
-0.52836668 -0.093446672 0.91700006 8224638
-0.52662003 -0.093446672 0.91700006 8093307
-0.52487332 -0.093446672 0.91700006 8026999
-0.52198571 -0.093242854 0.91500002 7830131
-0.51910573 -0.093039051 0.91300005 7698032
-0.51736671 -0.093039051 0.91300005 7631981
-0.51393336 -0.092733338 0.91000003 7565419
-0.5110743 -0.092529528 0.90800005 7302760
-0.50934476 -0.092529528 0.90800005 7105640
-0.50761527 -0.092529528 0.90800005 7040104
-0.50421429 -0.092223816 0.90500003 6974311
-0.50249046 -0.092223816 0.90500003 6974054
-0.50076663 -0.092223816 0.90500003 6974054
-0.49794003 -0.092020005 0.90300006 7039589
-0.49621999 -0.092020005 0.90300006 7105386
-0.49450004 -0.092020005 0.90300006 7105647
-0.49278 -0.092020005 0.90300006 7171696
-0.48997238 -0.091816194 0.90100002 7172209
-0.48825619 -0.091816194 0.90100002 7172469
-0.48492002 -0.091510482 0.89800006 7238522
-0.48320955 -0.091510482 0.89800006 7369595
-0.4804267 -0.091306664 0.89600003 7435644
-0.47872001 -0.091306664 0.89600003 7567741
-0.47701335 -0.091306664 0.89600003 7764862
-0.47530669 -0.091306664 0.89600003 7961729
-0.47360003 -0.091306664 0.89600003 8028036
-0.47084001 -0.091102861 0.89400005 8159109
-0.47018668 -0.091306664 0.89600003 8225159
-0.46848002 -0.091306664 0.89600003 8290696
-0.46781525 -0.091510482 0.89800006 8290953
-0.46610478 -0.091510482 0.89800006 8291208
-0.46439433 -0.091510482 0.89800006 8356999
-0.46268383 -0.091510482 0.89800006 8422024
-0.46097335 -0.091510482 0.89800006 8356489
-0.45926291 -0.091510482 0.89800006 8356487
-0.45908096 -0.091816194 0.90100002 8290950
-0.45736477 -0.091816194 0.90100002 8290693
-0.45666003 -0.092020005 0.90300006 8224644
-0.45594764 -0.092223816 0.90500003 8158849
-0.45572954 -0.092529528 0.90800005 8093309
-0.454 -0.092529528 0.90800005 8027261
-0.45326668 -0.092733338 0.91000003 7961469
-0.45153335 -0.092733338 0.91000003 7895676
-0.44980001 -0.092733338 0.91000003 7829883
-0.44806665 -0.092733338 0.91000003 7829880
-0.44780478 -0.093039051 0.91300005 7829877
-0.44606572 -0.093039051 0.91300005 7895415
-0.44529998 -0.093242854 0.91500002 7829882
-0.44355714 -0.093242854 0.91500002 7829627
-0.44422856 -0.093752384 0.92000002 7829372
-0.44343811 -0.093956195 0.92200005 7829114
-0.44311908 -0.094261907 0.92500007 7828599
-0.44231147 -0.094465718 0.92700005 7894387
-0.44197145 -0.094771437 0.93000007 7763054
-0.44114667 -0.094975241 0.93200004 7697521
-0.43937144 -0.094975241 0.93200004 7697780
-0.43900478 -0.09528096 0.93500006 7697270
-0.43722382 -0.09528096 0.93500006 7631737
-0.43637431 -0.095484763 0.93700004 7565941
-0.43458953 -0.095484763 0.93700004 7500145
-0.43419048 -0.095790483 0.94000006 7499886
-0.43332002 -0.095994294 0.94200003 7499372
-0.43290001 -0.096300006 0.94500005 7499892
-0.43246859 -0.096605718 0.94800007 7501436
-0.4306629 -0.096605718 0.94800007 7567730
-0.43111905 -0.097115248 0.95300007 5987688
-0.43020478 -0.097319052 0.95500004 4479325
-0.42838573 -0.097319052 0.95500004 4216658
-0.51604575 -0.085600004 0.85600007 8817294
-0.51441526 -0.085600004 0.85600007 8686221
-0.51278478 -0.085600004 0.85600007 8620426
-0.51115429 -0.085600004 0.85600007 8488839
-0.50952387 -0.085600004 0.85600007 8356995
-0.50789332 -0.085600004 0.85600007 8159616
-0.5062629 -0.085600004 0.85600007 7961470
-0.50463241 -0.085600004 0.85600007 7764348
-0.50300193 -0.085600004 0.85600007 7567480
-0.5013715 -0.085600004 0.85600007 7698548
-0.53710479 -0.092 0.92000002 7830135
-0.53535235 -0.092 0.92000002 8027002
-0.53360003 -0.092 0.92000002 8224638
-0.5318476 -0.092 0.92000002 8224642
-0.52836668 -0.091700003 0.91700006 8224895
-0.52662003 -0.091700003 0.91700006 8158845
-0.52372861 -0.091500007 0.91500002 8027256
-0.52198571 -0.091500007 0.91500002 7895667
-0.51910573 -0.091300003 0.91300005 7763824
-0.51566666 -0.091000006 0.91000003 7697518
-0.51393336 -0.091000006 0.91000003 7630954
-0.5110743 -0.090800002 0.90800005 7368295
-0.50934476 -0.090800002 0.90800005 7171173
-0.50761527 -0.090800002 0.90800005 7040099
-0.50421429 -0.090499997 0.90500003 6908772
-0.50249046 -0.090499997 0.90500003 6842982
-0.50076663 -0.090499997 0.90500003 6842982
-0.49904284 -0.090499997 0.90500003 6974055
-0.49621999 -0.090300001 0.90300006 7105386
-0.49450004 -0.090300001 0.90300006 7105646
-0.49278 -0.090300001 0.90300006 7171695
-0.49106002 -0.090300001 0.90300006 7171952
-0.48825619 -0.090100005 0.90100002 7238004
-0.48653999 -0.090100005 0.90100002 7238265
-0.48320955 -0.089800008 0.89800006 7304314
-0.48149908 -0.089800008 0.89800006 7435899
-0.4797886 -0.089800008 0.89800006 7567739
-0.47807813 -0.089800008 0.89800006 7764860
-0.47636765 -0.089800008 0.89800006 7961984
-0.47360003 -0.089600004 0.89600003 8028036
-0.47189334 -0.089600004 0.89600003 8159366
-0.47018668 -0.089600004 0.89600003 8159624
-0.46848002 -0.089600004 0.89600003 8225416
-0.46677336 -0.089600004 0.89600003 8291208
-0.46506667 -0.089600004 0.89600003 8291460
-0.46336001 -0.089600004 0.89600003 8356993
-0.46165335 -0.089600004 0.89600003 8422021
-0.45994666 -0.089600004 0.89600003 8356490
-0.46079713 -0.090100005 0.90100002 8356488
-0.45908096 -0.090100005 0.90100002 8290950
-0.45736477 -0.090100005 0.90100002 8290437
-0.45666003 -0.090300001 0.90300006 8224645
-0.45594764 -0.090499997 0.90500003 8224385
-0.45572954 -0.090800002 0.90800005 8093310
-0.454 -0.090800002 0.90800005 8027518
-0.45227051 -0.090800002 0.90800005 7961726
-0.45153335 -0.091000006 0.91000003 7896188
-0.44980001 -0.091000006 0.91000003 7895418
-0.44806665 -0.091000006 0.91000003 7830133
-0.44780478 -0.091300003 0.91300005 7830128
-0.44606572 -0.091300003 0.91300005 7830132
-0.44529998 -0.091500007 0.91500002 7829881
-0.44452667 -0.091700003 0.91700006 7829882
-0.44422856 -0.092 0.92000002 7763836
-0.44343811 -0.092200004 0.92200005 7763833
-0.44311908 -0.092500009 0.92500007 7763574
-0.4413572 -0.092500009 0.92500007 7829103
-0.44054574 -0.092700005 0.92700005 7763305
-0.44020003 -0.09300001 0.93000007 7697518
-0.43937144 -0.093199998 0.93200004 7697523
-0.43900478 -0.093500003 0.93500006 7631988
-0.43722382 -0.093500003 0.93500006 7631734
-0.43637431 -0.093699999 0.93700004 7565683
-0.43458953 -0.093699999 0.93700004 7565681
-0.43511429 -0.0942 0.94200003 7500140
-0.43470001 -0.094500005 0.94500005 7434599
-0.43427432 -0.09480001 0.94800007 7434871
-0.43246859 -0.09480001 0.94800007 7370631
-0.42930001 -0.094500005 0.94500005 7371377
-0.42976192 -0.095000006 0.95000005 5790300
-0.42795241 -0.095000006 0.95000005 4281945
-0.42838573 -0.0955 0.95500004 4019543
-0.51604575 -0.083969526 0.85600007 8817038
-0.51441526 -0.083969526 0.85600007 8686220
-0.51278478 -0.083969526 0.85600007 8620425
-0.51115429 -0.083969526 0.85600007 8488839
-0.50833333 -0.083773337 0.85400003 8356740
-0.50789332 -0.083969526 0.85600007 8159618
-0.50508004 -0.083773337 0.85400003 7961727
-0.50345337 -0.083773337 0.85400003 7830141
-0.5018267 -0.083773337 0.85400003 7698553
-0.5013715 -0.083969526 0.85600007 7764086
-0.53710479 -0.090247624 0.92000002 7895416
-0.53535235 -0.090247624 0.92000002 8092795
-0.53186005 -0.089953333 0.91700006 8290430
-0.5318476 -0.090247624 0.92000002 8290946
-0.52836668 -0.089953333 0.91700006 8290686
-0.52662003 -0.089953333 0.91700006 8158843
-0.52372861 -0.089757144 0.91500002 8092793
-0.52084476 -0.089560956 0.91300005 7961462
-0.51740003 -0.089266665 0.91000003 7829363
-0.51566666 -0.089266665 0.91000003 7763313
-0.51280385 -0.089070477 0.90800005 7696749
-0.5110743 -0.089070477 0.90800005 7434089
-0.50934476 -0.089070477 0.90800005 7236966
-0.50761527 -0.089070477 0.90800005 7040099
-0.50421429 -0.088776194 0.90500003 6842981
-0.50249046 -0.088776194 0.90500003 6776935
-0.50076663 -0.088776194 0.90500003 6777191
-0.49904284 -0.088776194 0.90500003 6908775
-0.49731904 -0.088776194 0.90500003 7105386
-0.49450004 -0.088580005 0.90300006 7105645
-0.49278 -0.088580005 0.90300006 7171438
-0.49106002 -0.088580005 0.90300006 7237487
-0.48825619 -0.088383809 0.90100002 7303283
-0.48653999 -0.088383809 0.90100002 7303799
-0.48320955 -0.088089526 0.89800006 7304313
-0.48149908 -0.088089526 0.89800006 7436154
-0.4797886 -0.088089526 0.89800006 7633276
-0.47807813 -0.088089526 0.89800006 7764862
-0.47530669 -0.087893337 0.89600003 7961985
-0.47360003 -0.087893337 0.89600003 8028292
-0.47189334 -0.087893337 0.89600003 8159366
-0.47123623 -0.088089526 0.89800006 8159881
-0.46848002 -0.087893337 0.89600003 8225416
-0.46677336 -0.087893337 0.89600003 8291464
-0.46506667 -0.087893337 0.89600003 8357000
-0.46336001 -0.087893337 0.89600003 8357257
-0.46165335 -0.087893337 0.89600003 8422537
-0.45994666 -0.087893337 0.89600003 8357002
-0.45824 -0.087893337 0.89600003 8356744
-0.4575524 -0.088089526 0.89800006 8291206
-0.45736477 -0.088383809 0.90100002 8290437
-0.45666003 -0.088580005 0.90300006 8290180
-0.45594764 -0.088776194 0.90500003 8289922
-0.45422384 -0.088776194 0.90500003 8158848
-0.45250002 -0.088776194 0.90500003 8093055
-0.45227051 -0.089070477 0.90800005 8027262
-0.45054096 -0.089070477 0.90800005 7961469
-0.44980001 -0.089266665 0.91000003 7895677
-0.44806665 -0.089266665 0.91000003 7895673
-0.44780478 -0.089560956 0.91300005 7830390
-0.44704288 -0.089757144 0.91500002 7830136
-0.44627336 -0.089953333 0.91700006 7829882
-0.44598094 -0.090247624 0.92000002 7829882
-0.44519433 -0.090443812 0.92200005 7764090
-0.44343811 -0.090443812 0.92200005 7698296
-0.44311908 -0.090738103 0.92500007 7698037
-0.4413572 -0.090738103 0.92500007 7763570
-0.44054574 -0.090934284 0.92700005 7763822
-0.44020003 -0.091228582 0.93000007 7763312
-0.43937144 -0.091424763 0.93200004 7697779
-0.43900478 -0.091719054 0.93500006 7631987
-0.43722382 -0.091719054 0.93500006 7631731
-0.43637431 -0.091915235 0.93700004 7631218
-0.43458953 -0.091915235 0.93700004 7565425
-0.43511429 -0.092405714 0.94200003 7565677
-0.43332002 -0.092405714 0.94200003 7434602
-0.43290001 -0.092700005 0.94500005 7369333
-0.43110001 -0.092700005 0.94500005 7240064
-0.42930001 -0.092700005 0.94500005 7173997
-0.43111905 -0.093484767 0.95300007 5658458
-0.42930385 -0.093484767 0.95300007 4150612
-0.51484001 -0.082146674 0.85400003 8817038
-0.51321334 -0.082146674 0.85400003 8685964
-0.51158667 -0.082146674 0.85400003 8554889
-0.50996 -0.082146674 0.85400003 8423303
-0.5071429 -0.081954293 0.85200006 8291205
-0.50670666 -0.082146674 0.85400003 8094084
-0.50508004 -0.082146674 0.85400003 7962241
-0.49991623 -0.081569523 0.84800005 7764862
-0.49830094 -0.081569523 0.84800005 7633019
-0.53710479 -0.088495232 0.92000002 7829882
-0.53535235 -0.088495232 0.92000002 8027260
-0.53186005 -0.088206671 0.91700006 8290687
-0.5318476 -0.088495232 0.92000002 8290690
-0.53009528 -0.088495232 0.92000002 8356478
-0.52662003 -0.088206671 0.91700006 8224890
-0.52372861 -0.088014282 0.91500002 8027514
-0.52198571 -0.088014282 0.91500002 7961466
-0.51740003 -0.087533332 0.91000003 7829367
-0.51566666 -0.087533332 0.91000003 7698036
-0.51280385 -0.087340958 0.90800005 7565935
-0.5110743 -0.087340958 0.90800005 7434347
-0.50934476 -0.087340958 0.90800005 7237223
-0.50761527 -0.087340958 0.90800005 7105892
-0.50588578 -0.087340958 0.90800005 6908262
-0.50249046 -0.087052383 0.90500003 6842728
-0.50076663 -0.087052383 0.90500003 6777191
-0.49904284 -0.087052383 0.90500003 6842983
-0.49731904 -0.087052383 0.90500003 6974569
-0.49450004 -0.086860001 0.90300006 7040108
-0.49278 -0.086860001 0.90300006 7105901
-0.49106002 -0.086860001 0.90300006 7171694
-0.48825619 -0.08666762 0.90100002 7237490
-0.48653999 -0.08666762 0.90100002 7238006
-0.48320955 -0.086379051 0.89800006 7304312
-0.48149908 -0.086379051 0.89800006 7435898
-0.4797886 -0.086379051 0.89800006 7633277
-0.47807813 -0.086379051 0.89800006 7764865
-0.47636765 -0.086379051 0.89800006 7896450
-0.47360003 -0.08618667 0.89600003 8028036
-0.47294667 -0.086379051 0.89800006 8159367
-0.47123623 -0.086379051 0.89800006 8225163
-0.46848002 -0.08618667 0.89600003 8225673
-0.46677336 -0.08618667 0.89600003 8291464
-0.46506667 -0.08618667 0.89600003 8423308
-0.46336001 -0.08618667 0.89600003 8422801
-0.46268383 -0.086379051 0.89800006 8488590
-0.45994666 -0.08618667 0.89600003 8422539
-0.45926291 -0.086379051 0.89800006 8357000
-0.4575524 -0.086379051 0.89800006 8356486
-0.45736477 -0.08666762 0.90100002 8290436
-0.45666003 -0.086860001 0.90300006 8290179
-0.45594764 -0.087052383 0.90500003 8223875
-0.45422384 -0.087052383 0.90500003 8158339
-0.454 -0.087340958 0.90800005 8093056
-0.45227051 -0.087340958 0.90800005 8027262
-0.45054096 -0.087340958 0.90800005 7961215
-0.44980001 -0.087533332 0.91000003 7895680
-0.44806665 -0.087533332 0.91000003 7830142
-0.44780478 -0.087821908 0.91300005 7764604
-0.44606572 -0.087821908 0.91300005 7764859
-0.44529998 -0.088014282 0.91500002 7764603
-0.44452667 -0.088206671 0.91700006 7829882
-0.44278002 -0.088206671 0.91700006 7764345
-0.44247618 -0.088495232 0.92000002 7698807
-0.44072381 -0.088495232 0.92000002 7698549
-0.4413572 -0.088976197 0.92500007 7698548
-0.44054574 -0.089168578 0.92700005 7698292
-0.44020003 -0.089457147 0.93000007 7698035
-0.43937144 -0.089649528 0.93200004 7632243
-0.43900478 -0.089938097 0.93500006 7566706
-0.43722382 -0.089938097 0.93500006 7566193
-0.43637431 -0.090130478 0.93700004 7565937
-0.43598098 -0.090419047 0.94000006 7500145
-0.43650001 -0.090900004 0.94500005 7500143
-0.43470001 -0.090900004 0.94500005 7369070
-0.43427432 -0.09118858 0.94800007 7303796
-0.43246859 -0.09118858 0.94800007 7041914
-0.4306629 -0.09118858 0.94800007 6780009
-0.43111905 -0.09166953 0.95300007 5592153
-0.43020478 -0.091861904 0.95500004 4411726
-0.42838573 -0.091861904 0.95500004 4018756
-0.51484001 -0.080520004 0.85400003 8882575
-0.51201147 -0.080331437 0.85200006 8686476
-0.51038861 -0.080331437 0.85200006 8554633
-0.50876576 -0.080331437 0.85200006 8423302
-0.50595236 -0.080142856 0.85000002 8291204
-0.50551999 -0.080331437 0.85200006 8094338
-0.50153148 -0.079954289 0.84800005 7962239
-0.49991623 -0.079954289 0.84800005 7765372
-0.49830094 -0.079954289 0.84800005 7567221
-0.53592861 -0.086271428 0.91500002 7698543
-0.53710479 -0.086742856 0.92000002 7829877
-0.53535235 -0.086742856 0.92000002 8027260
-0.53186005 -0.086460002 0.91700006 8290687
-0.53011334 -0.086460002 0.91700006 8357251
-0.53009528 -0.086742856 0.92000002 8487552
-0.52662003 -0.086460002 0.91700006 8225406
-0.52372861 -0.086271428 0.91500002 8027771
-0.52198571 -0.086271428 0.91500002 7961465
-0.51910573 -0.086082861 0.91300005 7895415
-0.51566666 -0.0858 0.91000003 7698549
-0.51393336 -0.0858 0.91000003 7500657
-0.5122 -0.0858 0.91000003 7369326
-0.51046664 -0.0858 0.91000003 7303018
-0.50873339 -0.0858 0.91000003 7171687
-0.50588578 -0.085611433 0.90800005 7039335
-0.50415617 -0.085611433 0.90800005 6908519
-0.50242668 -0.085611433 0.90800005 6842727
-0.5006972 -0.085611433 0.90800005 6842728
-0.49731904 -0.085328571 0.90500003 6842985
-0.49450004 -0.085140005 0.90300006 6908779
-0.49278 -0.085140005 0.90300006 7040110
-0.48997238 -0.084951431 0.90100002 7106160
-0.48825619 -0.084951431 0.90100002 7237491
-0.48653999 -0.084951431 0.90100002 7238006
-0.48320955 -0.084668577 0.89800006 7303800
-0.48149908 -0.084668577 0.89800006 7501178
-0.4797886 -0.084668577 0.89800006 7698813
-0.47807813 -0.084668577 0.89800006 7764864
-0.47636765 -0.084668577 0.89800006 7896450
-0.47465718 -0.084668577 0.89800006 8028037
-0.47294667 -0.084668577 0.89800006 8224906
-0.47123623 -0.084668577 0.89800006 8225167
-0.46848002 -0.084480003 0.89600003 8290957
-0.46677336 -0.084480003 0.89600003 8357003
-0.46506667 -0.084480003 0.89600003 8488077
-0.46336001 -0.084480003 0.89600003 8488336
-0.46268383 -0.084668577 0.89800006 8553869
-0.46097335 -0.084668577 0.89800006 8488075
-0.45926291 -0.084668577 0.89800006 8422281
-0.4575524 -0.084668577 0.89800006 8356487
-0.45736477 -0.084951431 0.90100002 8355973
-0.45666003 -0.085140005 0.90300006 8290180
-0.45594764 -0.085328571 0.90500003 8223875
-0.45422384 -0.085328571 0.90500003 8158337
-0.454 -0.085611433 0.90800005 8092799
-0.45227051 -0.085611433 0.90800005 8027261
-0.45153335 -0.0858 0.91000003 7961214
-0.44980001 -0.0858 0.91000003 7895679
-0.44806665 -0.0858 0.91000003 7829886
-0.44780478 -0.086082861 0.91300005 7764350
-0.44606572 -0.086082861 0.91300005 7699068
-0.44529998 -0.086271428 0.91500002 7764859
-0.44355714 -0.086271428 0.91500002 7829626
-0.44278002 -0.086460002 0.91700006 7764345
-0.44247618 -0.086742856 0.92000002 7698808
-0.44168192 -0.086931437 0.92200005 7698551
-0.4413572 -0.087214291 0.92500007 7698295
-0.44054574 -0.087402858 0.92700005 7698294
-0.44020003 -0.087685719 0.93000007 7698293
-0.43842861 -0.087685719 0.93000007 7632756
-0.4375962 -0.087874293 0.93200004 7566707
-0.43582097 -0.087874293 0.93200004 7500915
-0.43637431 -0.088345714 0.93700004 7500402
-0.4369086 -0.088817142 0.94200003 7434610
-0.43511429 -0.088817142 0.94200003 7434608
-0.43470001 -0.089100003 0.94500005 7303790
-0.43427432 -0.089382865 0.94800007 7238515
-0.43246859 -0.089382865 0.94800007 6780024
-0.42930001 -0.089100003 0.94500005 6385512
-0.42976192 -0.089571431 0.95000005 5525848
-0.42795241 -0.089571431 0.95000005 4739412
-0.42838573 -0.090042859 0.95500004 4215376
-0.51363432 -0.078708574 0.85200006 8817040
-0.51201147 -0.078708574 0.85200006 8685709
-0.51038861 -0.078708574 0.85200006 8554377
-0.50757146 -0.078523815 0.85000002 8423301
-0.50595236 -0.078523815 0.85000002 8291458
-0.50433332 -0.078523815 0.85000002 8159616
-0.50271434 -0.078523815 0.85000002 7962493
-0.50109524 -0.078523815 0.85000002 7699579
-0.53767139 -0.084528573 0.91500002 7501680
-0.53592861 -0.084528573 0.91500002 7632997
-0.53301811 -0.084343813 0.91300005 7829872
-0.53535235 -0.084990472 0.92000002 8027260
-0.53186005 -0.08471334 0.91700006 8225152
-0.53011334 -0.08471334 0.91700006 8357253
-0.52721429 -0.084528573 0.91500002 8422019
-0.52547139 -0.084528573 0.91500002 8290690
-0.52372861 -0.084528573 0.91500002 8093565
-0.52084476 -0.084343813 0.91300005 8027513
-0.51740003 -0.084066667 0.91000003 7895928
-0.51566666 -0.084066667 0.91000003 7698807
-0.51393336 -0.084066667 0.91000003 7566708
-0.5122 -0.084066667 0.91000003 7369585
-0.51046664 -0.084066667 0.91000003 7237741
-0.50873339 -0.084066667 0.91000003 7106154
-0.50588578 -0.083881907 0.90800005 6974056
-0.50415617 -0.083881907 0.90800005 6908007
-0.50242668 -0.083881907 0.90800005 6842216
-0.5006972 -0.083881907 0.90800005 6842217
-0.49731904 -0.083604768 0.90500003 6776938
-0.49450004 -0.083420001 0.90300006 6908779
-0.49278 -0.083420001 0.90300006 6974575
-0.48997238 -0.083235241 0.90100002 7040627
-0.48825619 -0.083235241 0.90100002 7171956
-0.48653999 -0.083235241 0.90100002 7238006
-0.48320955 -0.082958095 0.89800006 7303544
-0.48149908 -0.082958095 0.89800006 7435387
-0.4797886 -0.082958095 0.89800006 7633277
-0.47807813 -0.082958095 0.89800006 7764863
-0.47636765 -0.082958095 0.89800006 7896707
-0.47465718 -0.082958095 0.89800006 8028039
-0.47294667 -0.082958095 0.89800006 8224909
-0.47123623 -0.082958095 0.89800006 8224915
-0.46848002 -0.082773335 0.89600003 8290704
-0.46677336 -0.082773335 0.89600003 8421774
-0.46506667 -0.082773335 0.89600003 8487566
-0.46336001 -0.082773335 0.89600003 8553615
-0.46268383 -0.082958095 0.89800006 8619405
-0.46097335 -0.082958095 0.89800006 8488076
-0.45926291 -0.082958095 0.89800006 8422282
-0.45908096 -0.083235241 0.90100002 8356488
-0.45736477 -0.083235241 0.90100002 8356231
-0.45666003 -0.083420001 0.90300006 8290182
-0.45594764 -0.083604768 0.90500003 8223875
-0.45422384 -0.083604768 0.90500003 8158336
-0.45250002 -0.083604768 0.90500003 8093054
-0.45227051 -0.083881907 0.90800005 8027261
-0.45153335 -0.084066667 0.91000003 8027005
-0.44980001 -0.084066667 0.91000003 7961214
-0.44806665 -0.084066667 0.91000003 7895423
-0.44780478 -0.084343813 0.91300005 7829888
-0.44606572 -0.084343813 0.91300005 7830142
-0.44529998 -0.084528573 0.91500002 7829884
-0.44355714 -0.084528573 0.91500002 7895162
-0.44278002 -0.08471334 0.91700006 7764345
-0.44247618 -0.084990472 0.92000002 7633273
-0.44168192 -0.085175246 0.92200005 7698554
-0.4413572 -0.085452385 0.92500007 7763577
-0.44054574 -0.085637145 0.92700005 7763833
-0.43878001 -0.085637145 0.92700005 7698551
-0.43842861 -0.085914291 0.93000007 7632757
-0.4375962 -0.086099051 0.93200004 7566709
-0.43722382 -0.086376198 0.93500006 7566453
-0.43777147 -0.086838104 0.94000006 7500404
-0.4369086 -0.087022856 0.94200003 7500147
-0.43511429 -0.087022856 0.94200003 7434096
-0.43470001 -0.08730001 0.94500005 7238254
-0.43427432 -0.087577149 0.94800007 7107698
-0.43110001 -0.08730001 0.94500005 6582134
-0.4306629 -0.087577149 0.94800007 6122087
-0.42885718 -0.087577149 0.94800007 5394520
-0.42930385 -0.088039055 0.95300007 4738650
-0.42614287 -0.087761909 0.95000005 4149341
-0.42433333 -0.087761909 0.95000005 3623002
-0.51484001 -0.077266671 0.85400003 8817039
-0.51201147 -0.077085719 0.85200006 8685452
-0.51038861 -0.077085719 0.85200006 8619912
-0.50757146 -0.076904759 0.85000002 8488836
-0.50595236 -0.076904759 0.85000002 8356737
-0.50433332 -0.076904759 0.85000002 8159614
-0.50271434 -0.076904759 0.85000002 8027772
-0.50109524 -0.076904759 0.85000002 7699322
-0.53767139 -0.082785718 0.91500002 7436403
-0.53592861 -0.082785718 0.91500002 7633004
-0.53418571 -0.082785718 0.91500002 7895413
-0.53535235 -0.083238095 0.92000002 8027518
-0.53069997 -0.082785718 0.91500002 8225155
-0.52780098 -0.082604766 0.91300005 8291719
-0.52721429 -0.082785718 0.91500002 8422021
-0.52662003 -0.08296667 0.91700006 8290692
-0.52372861 -0.082785718 0.91500002 8224638
-0.52084476 -0.082604766 0.91300005 8093561
-0.51740003 -0.082333334 0.91000003 7961461
-0.51566666 -0.082333334 0.91000003 7764594
-0.51393336 -0.082333334 0.91000003 7632498
-0.5122 -0.082333334 0.91000003 7435378
-0.51046664 -0.082333334 0.91000003 7237997
-0.50873339 -0.082333334 0.91000003 7106152
-0.50588578 -0.082152382 0.90800005 6974310
-0.50415617 -0.082152382 0.90800005 6907493
-0.50242668 -0.082152382 0.90800005 6907492
-0.5006972 -0.082152382 0.90800005 6842211
-0.49731904 -0.081880957 0.90500003 6777190
-0.49450004 -0.081700005 0.90300006 6843497
-0.49278 -0.081700005 0.90300006 6974574
-0.48997238 -0.081519045 0.90100002 7040883
-0.48825619 -0.081519045 0.90100002 7106419
-0.48653999 -0.081519045 0.90100002 7172468
-0.48482379 -0.081519045 0.90100002 7303800
-0.48149908 -0.08124762 0.89800006 7435131
-0.4797886 -0.08124762 0.89800006 7633277
-0.47967526 -0.081519045 0.90100002 7764864
-0.47636765 -0.08124762 0.89800006 7961987
-0.47465718 -0.08124762 0.89800006 8093830
-0.47294667 -0.08124762 0.89800006 8224906
-0.47123623 -0.08124762 0.89800006 8290446
-0.46848002 -0.081066668 0.89600003 8356238
-0.46677336 -0.081066668 0.89600003 8421773
-0.46506667 -0.081066668 0.89600003 8553102
-0.46439433 -0.08124762 0.89800006 8618894
-0.46268383 -0.08124762 0.89800006 8684941
-0.46097335 -0.08124762 0.89800006 8553613
-0.46079713 -0.081519045 0.90100002 8422282
-0.45908096 -0.081519045 0.90100002 8356743
-0.45736477 -0.081519045 0.90100002 8356230
-0.45666003 -0.081700005 0.90300006 8290437
-0.45594764 -0.081880957 0.90500003 8224642
-0.45422384 -0.081880957 0.90500003 8158848
-0.45250002 -0.081880957 0.90500003 8093054
-0.45227051 -0.082152382 0.90800005 8092796
-0.45153335 -0.082333334 0.91000003 8092539
-0.44980001 -0.082333334 0.91000003 8026746
-0.44806665 -0.082333334 0.91000003 7960957
-0.44633335 -0.082333334 0.91000003 7961727
-0.44606572 -0.082604766 0.91300005 7961214
-0.44529998 -0.082785718 0.91500002 7960700
-0.44355714 -0.082785718 0.91500002 8026235
-0.44278002 -0.08296667 0.91700006 7829881
-0.44247618 -0.083238095 0.92000002 7633273
-0.44168192 -0.083419047 0.92200005 7764345
-0.4413572 -0.083690479 0.92500007 7895160
-0.44054574 -0.083871432 0.92700005 7829624
-0.43878001 -0.083871432 0.92700005 7763830
-0.43937144 -0.084323809 0.93200004 7698293
-0.4375962 -0.084323809 0.93200004 7632501
-0.43815905 -0.084776193 0.93700004 7566452
-0.43777147 -0.085047618 0.94000006 7566195
-0.4369086 -0.085228577 0.94200003 7500147
-0.43650001 -0.085500002 0.94500005 7500400
-0.43608004 -0.085771434 0.94800007 7238509
-0.43427432 -0.085771434 0.94800007 6976879
-0.43338096 -0.085952386 0.95000005 6383473
-0.43157145 -0.085952386 0.95000005 5858662
-0.43111905 -0.086223811 0.95300007 5263196
-0.43020478 -0.086404763 0.95500004 4738650
-0.42838573 -0.086404763 0.95500004 4148823
-0.42656669 -0.086404763 0.95500004 3556951
-0.51604575 -0.075817153 0.85600007 8751757
-0.51321334 -0.07564 0.85400003 8685963
-0.51158667 -0.07564 0.85400003 8620423
-0.50996 -0.07564 0.85400003 8488835
-0.50952387 -0.075817153 0.85600007 8356736
-0.50789332 -0.075817153 0.85600007 8159613
-0.50508004 -0.07564 0.85400003 8027771
-0.50345337 -0.07564 0.85400003 7764858
-0.5018267 -0.07564 0.85400003 7567734
-0.5347572 -0.080865718 0.91300005 7698803
-0.53301811 -0.080865718 0.91300005 7895418
-0.53651625 -0.081662856 0.92200005 8027265
-0.53360003 -0.081485718 0.92000002 8225157
-0.5318476 -0.081485718 0.92000002 8357258
-0.53009528 -0.081485718 0.92000002 8487816
-0.52547139 -0.081042856 0.91500002 8356230
-0.52258384 -0.080865718 0.91300005 8224640
-0.52084476 -0.080865718 0.91300005 8093306
-0.51740003 -0.080600001 0.91000003 7961715
-0.51566666 -0.080600001 0.91000003 7830381
-0.51393336 -0.080600001 0.91000003 7698544
-0.5122 -0.080600001 0.91000003 7500915
-0.51046664 -0.080600001 0.91000003 7303788
-0.50873339 -0.080600001 0.91000003 7106150
-0.50700003 -0.080600001 0.91000003 6974820
-0.50415617 -0.080422863 0.90800005 6908259
-0.50242668 -0.080422863 0.90800005 6908256
-0.5006972 -0.080422863 0.90800005 6842206
-0.49731904 -0.080157146 0.90500003 6777699
-0.49450004 -0.079980001 0.90300006 6843240
-0.49278 -0.079980001 0.90300006 6909293
-0.48997238 -0.079802856 0.90100002 7040627
-0.48825619 -0.079802856 0.90100002 7106675
-0.48653999 -0.079802856 0.90100002 7238259
-0.48482379 -0.079802856 0.90100002 7304311
-0.48310763 -0.079802856 0.90100002 7501436
-0.48139143 -0.079802856 0.90100002 7698814
-0.47967526 -0.079802856 0.90100002 7830401
-0.47636765 -0.079537146 0.89800006 7961987
-0.47465718 -0.079537146 0.89800006 8093318
-0.47294667 -0.079537146 0.89800006 8224648
-0.47123623 -0.079537146 0.89800006 8290442
-0.46848002 -0.079360001 0.89600003 8356235
-0.46677336 -0.079360001 0.89600003 8422029
-0.46506667 -0.079360001 0.89600003 8487821
-0.46439433 -0.079537146 0.89800006 8553614
-0.46268383 -0.079537146 0.89800006 8619406
-0.46251333 -0.079802856 0.90100002 8488078
-0.46079713 -0.079802856 0.90100002 8422282
-0.45908096 -0.079802856 0.90100002 8356487
-0.45736477 -0.079802856 0.90100002 8356485
-0.45666003 -0.079980001 0.90300006 8290436
-0.45594764 -0.080157146 0.90500003 8224898
-0.45422384 -0.080157146 0.90500003 8158848
-0.45250002 -0.080157146 0.90500003 8093053
-0.45077619 -0.080157146 0.90500003 8092795
-0.45153335 -0.080600001 0.91000003 8092537
-0.44980001 -0.080600001 0.91000003 8026743
-0.44806665 -0.080600001 0.91000003 7961211
-0.44633335 -0.080600001 0.91000003 7961215
-0.44606572 -0.080865718 0.91300005 7961470
-0.44529998 -0.081042856 0.91500002 7960957
-0.44355714 -0.081042856 0.91500002 7960699
-0.44181427 -0.081042856 0.91500002 7829882
-0.44247618 -0.081485718 0.92000002 7699065
-0.44168192 -0.081662856 0.92200005 7764344
-0.4413572 -0.081928581 0.92500007 7829879
-0.44054574 -0.082105719 0.92700005 7764087
-0.44020003 -0.082371436 0.93000007 7763830
-0.43937144 -0.082548574 0.93200004 7763830
-0.4375962 -0.082548574 0.93200004 7764085
-0.43722382 -0.082814291 0.93500006 7566708
-0.43777147 -0.083257146 0.94000006 7435635
-0.4369086 -0.083434291 0.94200003 7435123
-0.43650001 -0.083700001 0.94500005 7434864
-0.43608004 -0.083965719 0.94800007 7304045
-0.43519047 -0.084142864 0.95000005 7173740
-0.43338096 -0.084142864 0.95000005 6251884
-0.43157145 -0.084142864 0.95000005 5398886
-0.43111905 -0.084408574 0.95300007 5001569
-0.43020478 -0.084585719 0.95500004 4673881
-0.42838573 -0.084585719 0.95500004 4149074
-0.42656669 -0.084585719 0.95500004 3556693
-0.51604575 -0.074186668 0.85600007 8686220
-0.51201147 -0.073840007 0.85200006 8686218
-0.51038861 -0.073840007 0.85200006 8685703
-0.50876576 -0.073840007 0.85200006 8554628
-0.5071429 -0.073840007 0.85200006 8422274
-0.50670666 -0.074013337 0.85400003 8225407
-0.50508004 -0.074013337 0.85400003 8027772
-0.50345337 -0.074013337 0.85400003 7896186
-0.5018267 -0.074013337 0.85400003 7764341
-0.53299999 -0.078866668 0.91000003 7829104
-0.53126669 -0.078866668 0.91000003 7895160
-0.53651625 -0.079906672 0.92200005 8092800
-0.52780002 -0.078866668 0.91000003 8290697
-0.52606666 -0.078866668 0.91000003 8422802
-0.5243333 -0.078866668 0.91000003 8553612
-0.52547139 -0.079300001 0.91500002 8421767
-0.52258384 -0.079126671 0.91300005 8290435
-0.52084476 -0.079126671 0.91300005 8158846
-0.51910573 -0.079126671 0.91300005 8027257
-0.51566666 -0.078866668 0.91000003 7896179
-0.51562768 -0.079126671 0.91300005 7763827
-0.5122 -0.078866668 0.91000003 7566707
-0.51046664 -0.078866668 0.91000003 7434861
-0.50873339 -0.078866668 0.91000003 7171943
-0.50700003 -0.078866668 0.91000003 6974566
-0.50526667 -0.078866668 0.91000003 6908517
-0.50242668 -0.078693338 0.90800005 6908258
-0.5006972 -0.078693338 0.90800005 6842208
-0.49731904 -0.078433335 0.90500003 6777188
-0.49450004 -0.078260005 0.90300006 6843240
-0.49168858 -0.078086674 0.90100002 6909036
-0.48997238 -0.078086674 0.90100002 7040625
-0.48825619 -0.078086674 0.90100002 7171955
-0.48653999 -0.078086674 0.90100002 7238517
-0.48482379 -0.078086674 0.90100002 7370104
-0.48310763 -0.078086674 0.90100002 7567484
-0.48139143 -0.078086674 0.90100002 7829631
-0.47967526 -0.078086674 0.90100002 7895938
-0.47636765 -0.077826671 0.89800006 7961988
-0.47465718 -0.077826671 0.89800006 8093318
-0.47294667 -0.077826671 0.89800006 8224648
-0.47123623 -0.077826671 0.89800006 8290443
-0.46848002 -0.077653334 0.89600003 8356492
-0.46677336 -0.077653334 0.89600003 8422285
-0.46506667 -0.077653334 0.89600003 8488077
-0.46439433 -0.077826671 0.89800006 8488333
-0.46268383 -0.077826671 0.89800006 8553869
-0.46097335 -0.077826671 0.89800006 8488078
-0.45926291 -0.077826671 0.89800006 8422282
-0.45908096 -0.078086674 0.90100002 8356486
-0.45736477 -0.078086674 0.90100002 8356485
-0.45666003 -0.078260005 0.90300006 8290436
-0.45594764 -0.078433335 0.90500003 8290178
-0.45422384 -0.078433335 0.90500003 8158849
-0.45250002 -0.078433335 0.90500003 8093054
-0.45227051 -0.078693338 0.90800005 8093052
-0.45153335 -0.078866668 0.91000003 8092539
-0.44980001 -0.078866668 0.91000003 8026746
-0.44806665 -0.078866668 0.91000003 8026748
-0.44633335 -0.078866668 0.91000003 7961213
-0.44606572 -0.079126671 0.91300005 7961213
-0.4443267 -0.079126671 0.91300005 7895677
-0.44355714 -0.079300001 0.91500002 7895419
-0.44278002 -0.079473339 0.91700006 7829881
-0.44247618 -0.079733334 0.92000002 7764345
-0.44168192 -0.079906672 0.92200005 7764345
-0.4413572 -0.080166668 0.92500007 7764342
-0.44054574 -0.080339998 0.92700005 7764083
-0.43878001 -0.080339998 0.92700005 7763830
-0.43937144 -0.080773339 0.93200004 7829370
-0.4375962 -0.080773339 0.93200004 7894647
-0.43722382 -0.081033342 0.93500006 7632501
-0.43637431 -0.081206672 0.93700004 7369844
-0.43598098 -0.081466675 0.94000006 7369843
-0.43511429 -0.081639998 0.94200003 7434863
-0.43608004 -0.082160003 0.94800007 7435115
-0.43427432 -0.082160003 0.94800007 7435371
-0.43338096 -0.082333334 0.95000005 6185835
-0.43293431 -0.082593337 0.95300007 4938853
-0.43202382 -0.082766674 0.95500004 4805727
-0.43020478 -0.082766674 0.95500004 4674139
-0.42973143 -0.083026677 0.95800006 4149334
-0.42790669 -0.083026677 0.95800006 3622487
-0.51363432 -0.072217144 0.85200006 8685963
-0.51201147 -0.072217144 0.85200006 8685706
-0.51158667 -0.072386667 0.85400003 8620168
-0.50996 -0.072386667 0.85400003 8488582
-0.50833333 -0.072386667 0.85400003 8356740
-0.50670666 -0.072386667 0.85400003 8225154
-0.50508004 -0.072386667 0.85400003 8027774
-0.50345337 -0.072386667 0.85400003 7830394
-0.5018267 -0.072386667 0.85400003 7698804
-0.50254291 -0.072725721 0.85800004 7764078
-0.50090861 -0.072725721 0.85800004 7895158
-0.53651625 -0.078150481 0.92200005 8092799
-0.53360003 -0.077980958 0.92000002 8290956
-0.52780098 -0.077387623 0.91300005 8422810
-0.52721429 -0.077557147 0.91500002 8619409
-0.52547139 -0.077557147 0.91500002 8421769
-0.52258384 -0.077387623 0.91300005 8290694
-0.52084476 -0.077387623 0.91300005 8158851
-0.51910573 -0.077387623 0.91300005 8092798
-0.51566666 -0.077133335 0.91000003 7895930
-0.51562768 -0.077387623 0.91300005 7763830
-0.5122 -0.077133335 0.91000003 7566963
-0.51046664 -0.077133335 0.91000003 7435118
-0.50873339 -0.077133335 0.91000003 7172201
-0.50700003 -0.077133335 0.91000003 6974568
-0.50415617 -0.076963812 0.90800005 6908519
-0.50242668 -0.076963812 0.90800005 6842725
-0.5006972 -0.076963812 0.90800005 6711395
-0.49731904 -0.076709531 0.90500003 6645862
-0.49450004 -0.076540001 0.90300006 6777449
-0.49168858 -0.076370478 0.90100002 6909036
-0.48997238 -0.076370478 0.90100002 6974831
-0.48825619 -0.076370478 0.90100002 7106419
-0.48653999 -0.076370478 0.90100002 7238264
-0.48482379 -0.076370478 0.90100002 7370618
-0.48310763 -0.076370478 0.90100002 7567484
-0.4797886 -0.076116197 0.89800006 7764095
-0.47807813 -0.076116197 0.89800006 7895939
-0.47636765 -0.076116197 0.89800006 7961988
-0.47465718 -0.076116197 0.89800006 8093574
-0.47294667 -0.076116197 0.89800006 8224905
-0.47018668 -0.075946666 0.89600003 8290444
-0.46848002 -0.075946666 0.89600003 8356748
-0.46677336 -0.075946666 0.89600003 8488077
-0.46506667 -0.075946666 0.89600003 8619661
-0.46439433 -0.076116197 0.89800006 8553869
-0.46268383 -0.076116197 0.89800006 8553869
-0.46097335 -0.076116197 0.89800006 8553614
-0.46079713 -0.076370478 0.90100002 8553353
-0.45908096 -0.076370478 0.90100002 8422021
-0.45736477 -0.076370478 0.90100002 8356485
-0.45666003 -0.076540001 0.90300006 8290437
-0.45594764 -0.076709531 0.90500003 8290179
-0.45422384 -0.076709531 0.90500003 8158850
-0.45250002 -0.076709531 0.90500003 8027264
-0.45227051 -0.076963812 0.90800005 8027262
-0.45153335 -0.077133335 0.91000003 8027006
-0.44980001 -0.077133335 0.91000003 8026494
-0.44806665 -0.077133335 0.91000003 8026493
-0.44633335 -0.077133335 0.91000003 7961212
-0.44606572 -0.077387623 0.91300005 7961213
-0.4443267 -0.077387623 0.91300005 7895678
-0.44355714 -0.077557147 0.91500002 7895675
-0.44278002 -0.07772667 0.91700006 7829881
-0.44343811 -0.078150481 0.92200005 7764089
-0.44168192 -0.078150481 0.92200005 7764090
-0.4413572 -0.078404762 0.92500007 7764341
-0.44054574 -0.078574292 0.92700005 7698544
-0.44020003 -0.078828573 0.93000007 7698551
-0.43937144 -0.078998096 0.93200004 7763582
-0.4375962 -0.078998096 0.93200004 7828602
-0.43722382 -0.079252385 0.93500006 7631734
-0.43544286 -0.079252385 0.93500006 7500661
-0.43598098 -0.079676196 0.94000006 7434868
-0.43511429 -0.079845719 0.94200003 7434606
-0.43470001 -0.0801 0.94500005 7435113
-0.43519047 -0.080523811 0.95000005 7435114
-0.43338096 -0.080523811 0.95000005 6119275
-0.43293431 -0.0807781 0.95300007 4872036
-0.43111905 -0.0807781 0.95300007 4805982
-0.43020478 -0.080947623 0.95500004 4805724
-0.42838573 -0.080947623 0.95500004 4346459
-0.42790669 -0.081201911 0.95800006 3885145
-0.42608193 -0.081201911 0.95800006 5653592
-0.51363432 -0.070594296 0.85200006 8751245
-0.51321334 -0.070760004 0.85400003 8685707
-0.51278478 -0.07092572 0.85600007 8619912
-0.50996 -0.070760004 0.85400003 8488326
-0.50952387 -0.07092572 0.85600007 8356740
-0.50789332 -0.07092572 0.85600007 8225155
-0.5062629 -0.07092572 0.85600007 8093054
-0.50463241 -0.07092572 0.85600007 7830394
-0.5065276 -0.07142286 0.86200005 7633526
-0.50488573 -0.07142286 0.86200005 7764082
-0.5032438 -0.07142286 0.86200005 7895162
-0.53826195 -0.076642863 0.92500007 8092801
-0.53650004 -0.076642863 0.92500007 8290698
-0.52895719 -0.075814284 0.91500002 8488339
-0.52721429 -0.075814284 0.91500002 8684941
-0.52547139 -0.075814284 0.91500002 8487304
-0.52258384 -0.075648576 0.91300005 8290693
-0.52084476 -0.075648576 0.91300005 8224386
-0.51910573 -0.075648576 0.91300005 8158334
-0.51736671 -0.075648576 0.91300005 7961467
-0.51562768 -0.075648576 0.91300005 7764087
-0.5138886 -0.075648576 0.91300005 7567219
-0.51214951 -0.075648576 0.91300005 7435118
-0.50873339 -0.075400002 0.91000003 7237993
-0.50700003 -0.075400002 0.91000003 7040360
-0.50415617 -0.075234286 0.90800005 6908776
-0.50076663 -0.074985713 0.90500003 6842727
-0.49904284 -0.074985713 0.90500003 6645863
-0.49621999 -0.074820004 0.90300006 6514793
-0.49450004 -0.074820004 0.90300006 6711916
-0.49168858 -0.074654289 0.90100002 6908782
-0.48997238 -0.074654289 0.90100002 6974576
-0.48825619 -0.074654289 0.90100002 7106165
-0.48653999 -0.074654289 0.90100002 7238009
-0.48482379 -0.074654289 0.90100002 7436154
-0.48310763 -0.074654289 0.90100002 7567483
-0.4797886 -0.074405722 0.89800006 7764351
-0.47807813 -0.074405722 0.89800006 7896195
-0.47636765 -0.074405722 0.89800006 8027524
-0.47465718 -0.074405722 0.89800006 8093830
-0.47294667 -0.074405722 0.89800006 8224904
-0.47018668 -0.074239999 0.89600003 8290698
-0.46848002 -0.074239999 0.89600003 8357002
-0.46677336 -0.074239999 0.89600003 8553867
-0.46506667 -0.074239999 0.89600003 8750474
-0.46336001 -0.074239999 0.89600003 8684938
-0.46268383 -0.074405722 0.89800006 8619148
-0.46097335 -0.074405722 0.89800006 8684686
-0.46079713 -0.074654289 0.90100002 8750218
-0.45908096 -0.074654289 0.90100002 8553606
-0.45736477 -0.074654289 0.90100002 8356486
-0.45666003 -0.074820004 0.90300006 8290694
-0.45594764 -0.074985713 0.90500003 8290179
-0.45422384 -0.074985713 0.90500003 8159103
-0.454 -0.075234286 0.90800005 8027518
-0.45326668 -0.075400002 0.91000003 7961726
