# .PCD v0.7 - Point Cloud Data file format
VERSION 0.7
FIELDS x y z rgba
SIZE 4 4 4 4
TYPE F F F U
COUNT 1 1 1 1
WIDTH 1094
HEIGHT 1
VIEWPOINT 0 0 0 1 0 0 0
POINTS 1094
DATA ascii
-0.54220575 -0.045832384 0.90800005 8949916
-0.53869045 -0.045680951 0.90500003 9343898
-0.53696668 -0.045680951 0.90500003 9607065
-0.53524286 -0.045680951 0.90500003 9804443
-0.53234005 -0.04558 0.90300006 9870237
-0.53062004 -0.04558 0.90300006 9936287
-0.53007144 -0.045680951 0.90500003 9936033
-0.49273717 -0.043308575 0.85800004 9342367
-0.49110287 -0.043308575 0.85800004 8948887
-0.49060953 -0.043409526 0.86000001 8882831
-0.4878343 -0.043308575 0.85800004 8817547
-0.4862 -0.043308575 0.85800004 8817288
-0.48456573 -0.043308575 0.85800004 8882569
-0.48293146 -0.043308575 0.85800004 8816778
-0.48241904 -0.043409526 0.86000001 8751497
-0.48078096 -0.043409526 0.86000001 8750985
-0.47914284 -0.043409526 0.86000001 8750983
-0.47750476 -0.043409526 0.86000001 8750726
-0.47586668 -0.043409526 0.86000001 8685188
-0.47312573 -0.043308575 0.85800004 8684931
-0.47149143 -0.043308575 0.85800004 8619138
-0.46985719 -0.043308575 0.85800004 8553346
-0.46822289 -0.043308575 0.85800004 8487808
-0.46767619 -0.043409526 0.86000001 8421758
-0.46712193 -0.043510478 0.86200005 8355708
-0.46710005 -0.043661907 0.86500007 8224122
-0.4654524 -0.043661907 0.86500007 8092278
-0.46380478 -0.043661907 0.86500007 7961203
-0.46215719 -0.043661907 0.86500007 7895924
-0.46050954 -0.043661907 0.86500007 7829878
-0.45886195 -0.043661907 0.86500007 7829365
-0.48258573 -0.046084765 0.91300005 7632500
-0.48190001 -0.046185717 0.91500002 7501169
-0.47910762 -0.046084765 0.91300005 7435119
-0.47736859 -0.046084765 0.91300005 7369325
-0.47562954 -0.046084765 0.91300005 7369324
-0.47389048 -0.046084765 0.91300005 7369581
-0.47215146 -0.046084765 0.91300005 7369327
-0.4704124 -0.046084765 0.91300005 7434866
-0.46867335 -0.046084765 0.91300005 7434869
-0.46795714 -0.046185717 0.91500002 7500405
-0.46723336 -0.046286669 0.91700006 7500918
-0.46548668 -0.046286669 0.91700006 7567221
-0.46374002 -0.046286669 0.91700006 7566965
-0.46350479 -0.046438098 0.92000002 7632501
-0.46275619 -0.04653905 0.92200005 7698550
-0.46250004 -0.046690479 0.92500007 7829364
-0.46173429 -0.046791431 0.92700005 7763827
-0.46145716 -0.04694286 0.93000007 7764085
-0.46067429 -0.047043812 0.93200004 7763576
-0.4603762 -0.047195241 0.93500006 7763579
-0.45957622 -0.047296192 0.93700004 7829118
-0.45925716 -0.047447622 0.94000006 7894135
-0.45746669 -0.047447622 0.94000006 7763057
-0.45664573 -0.047548573 0.94200003 7631986
-0.45630002 -0.047700003 0.94500005 7632499
-0.45450002 -0.047700003 0.94500005 7698291
-0.45653242 -0.048103813 0.95300007 7829364
-0.45567143 -0.048204765 0.95500004 7960444
-0.45670381 -0.04850762 0.96100003 7043716
-0.45487332 -0.04850762 0.96100003 6187098
-0.45398575 -0.048608571 0.96300006 3416112
-0.45215145 -0.048608571 0.96300006 660018
-0.44938192 -0.04850762 0.96100003 1317941
-0.54566479 -0.044102859 0.90800005 7700079
-0.54393524 -0.044102859 0.90800005 8553093
-0.54220575 -0.044102859 0.90800005 8949916
-0.54047626 -0.044102859 0.90800005 9409436
-0.53696668 -0.043957144 0.90500003 9672604
-0.53524286 -0.043957144 0.90500003 9935261
-0.53351903 -0.043957144 0.90500003 10001567
-0.53179526 -0.043957144 0.90500003 10067105
-0.49388573 -0.041771431 0.86000001 9342105
-0.49224761 -0.041771431 0.86000001 8883089
-0.49060953 -0.041771431 0.86000001 8882824
-0.48897141 -0.041771431 0.86000001 8882824
-0.4862 -0.04167429 0.85800004 8882825
-0.48569524 -0.041771431 0.86000001 8882569
-0.48405716 -0.041771431 0.86000001 8816777
-0.48241904 -0.041771431 0.86000001 8816775
-0.48078096 -0.041771431 0.86000001 8816774
-0.47914284 -0.041771431 0.86000001 8816518
-0.47750476 -0.041771431 0.86000001 8750726
-0.47476 -0.04167429 0.85800004 8750727
-0.47312573 -0.04167429 0.85800004 8685193
-0.47149143 -0.04167429 0.85800004 8684677
-0.46985719 -0.04167429 0.85800004 8618882
-0.46822289 -0.04167429 0.85800004 8618880
-0.46767619 -0.041771431 0.86000001 8487294
-0.46712193 -0.041868571 0.86200005 8355964
-0.46710005 -0.042014286 0.86500007 8224121
-0.4654524 -0.042014286 0.86500007 8092532
-0.46380478 -0.042014286 0.86500007 7961198
-0.46215719 -0.042014286 0.86500007 7895666
-0.46050954 -0.042014286 0.86500007 7895670
-0.48538572 -0.044442859 0.91500002 7895158
-0.48364288 -0.044442859 0.91500002 7698294
-0.48190001 -0.044442859 0.91500002 7566964
-0.47910762 -0.044345718 0.91300005 7500658
-0.47736859 -0.044345718 0.91300005 7435120
-0.47667143 -0.044442859 0.91500002 7435119
-0.47492859 -0.044442859 0.91500002 7500912
-0.47318572 -0.044442859 0.91500002 7501168
-0.4704124 -0.044345718 0.91300005 7500914
-0.46867335 -0.044345718 0.91300005 7500917
-0.46795714 -0.044442859 0.91500002 7566709
-0.4662143 -0.044442859 0.91500002 7567222
-0.46447143 -0.044442859 0.91500002 7632757
-0.46525717 -0.044685714 0.92000002 7632245
-0.46350479 -0.044685714 0.92000002 7698294
-0.46275619 -0.044782858 0.92200005 7764088
-0.46250004 -0.044928573 0.92500007 7894902
-0.46173429 -0.045025714 0.92700005 7829109
-0.46145716 -0.045171432 0.93000007 7829110
-0.46067429 -0.045268573 0.93200004 7763575
-0.4603762 -0.045414288 0.93500006 7763576
-0.45957622 -0.045511432 0.93700004 7829114
-0.45925716 -0.045657143 0.94000006 7894390
-0.45746669 -0.045657143 0.94000006 7763058
-0.45664573 -0.045754284 0.94200003 7631986
-0.45630002 -0.045900002 0.94500005 7698035
-0.4569048 -0.046142858 0.95000005 7763573
-0.4574905 -0.046385717 0.95500004 7828856
-0.45710289 -0.046531431 0.95800006 7960446
-0.4576543 -0.046774287 0.96300006 7109764
-0.45582002 -0.046774287 0.96300006 6251863
-0.45398575 -0.046774287 0.96300006 3546921
-0.45355999 -0.046920002 0.96600002 925485
-0.45172 -0.046920002 0.96600002 1449777
-0.54566479 -0.042373337 0.90800005 7830890
-0.54513335 -0.042466667 0.91000003 8487811
-0.54220575 -0.042373337 0.90800005 8884380
-0.54047626 -0.042373337 0.90800005 9343901
-0.53696668 -0.042233333 0.90500003 9606815
-0.53701717 -0.042373337 0.90800005 9935264
-0.53351903 -0.042233333 0.90500003 10001570
-0.53179526 -0.042233333 0.90500003 10133156
-0.49503428 -0.040226668 0.86200005 9408148
-0.49224761 -0.040133331 0.86000001 8685963
-0.49060953 -0.040133331 0.86000001 8751746
-0.48897141 -0.040133331 0.86000001 8883078
-0.48733333 -0.040133331 0.86000001 8882826
-0.48569524 -0.040133331 0.86000001 8882825
-0.48405716 -0.040133331 0.86000001 8882568
-0.48354095 -0.040226668 0.86200005 8882566
-0.48078096 -0.040133331 0.86000001 8816772
-0.48025715 -0.040226668 0.86200005 8816773
-0.47750476 -0.040133331 0.86000001 8750471
-0.47586668 -0.040133331 0.86000001 8750219
-0.47422856 -0.040133331 0.86000001 8684687
-0.47259048 -0.040133331 0.86000001 8684681
-0.47095236 -0.040133331 0.86000001 8618883
-0.46822289 -0.040040001 0.85800004 8618881
-0.46767619 -0.040133331 0.86000001 8487295
-0.46712193 -0.040226668 0.86200005 8356220
-0.46710005 -0.040366668 0.86500007 8224377
-0.4654524 -0.040366668 0.86500007 8092785
-0.46380478 -0.040366668 0.86500007 7961450
-0.4605543 -0.040226668 0.86200005 7895920
-0.4589124 -0.040226668 0.86200005 7895670
-0.48538572 -0.042700004 0.91500002 7895671
-0.48364288 -0.042700004 0.91500002 7764088
-0.48190001 -0.042700004 0.91500002 7698294
-0.47910762 -0.04260667 0.91300005 7632245
-0.47736859 -0.04260667 0.91300005 7566452
-0.47667143 -0.042700004 0.91500002 7566195
-0.47492859 -0.042700004 0.91500002 7566962
-0.47215146 -0.04260667 0.91300005 7566706
-0.4704124 -0.04260667 0.91300005 7566963
-0.46867335 -0.04260667 0.91300005 7632501
-0.46898001 -0.042793334 0.91700006 7698293
-0.4662143 -0.042700004 0.91500002 7698294
-0.46548668 -0.042793334 0.91700006 7698294
-0.46525717 -0.042933334 0.92000002 7698294
-0.46350479 -0.042933334 0.92000002 7698552
-0.46275619 -0.043026667 0.92200005 7763834
-0.46250004 -0.043166671 0.92500007 7894905
-0.46173429 -0.043260004 0.92700005 7829112
-0.46145716 -0.043400005 0.93000007 7829367
-0.46067429 -0.043493334 0.93200004 7829110
-0.45889908 -0.043493334 0.93200004 7829110
-0.45859525 -0.043633334 0.93500006 7763575
-0.45779145 -0.043726668 0.93700004 7763829
-0.45746669 -0.043866668 0.94000006 7697524
-0.45664573 -0.043960001 0.94200003 7631987
-0.45774862 -0.044240002 0.94800007 7697779
-0.45834765 -0.044473335 0.95300007 7829111
-0.4574905 -0.044566669 0.95500004 7894140
-0.45710289 -0.044706669 0.95800006 7960704
-0.4576543 -0.044940002 0.96300006 7109509
-0.45582002 -0.044940002 0.96300006 6251348
-0.45540002 -0.045079999 0.96600002 3547427
-0.45355999 -0.045079999 0.96600002 791848
-0.45172 -0.045079999 0.96600002 1383981
-0.54393524 -0.040643811 0.90800005 8487297
-0.54041427 -0.040509522 0.90500003 8884378
-0.54047626 -0.040643811 0.90800005 9277851
-0.53696668 -0.040509522 0.90500003 9606812
-0.53524286 -0.040509522 0.90500003 9935775
-0.53351903 -0.040509522 0.90500003 10067106
-0.53179526 -0.040509522 0.90500003 10198694
-0.49675718 -0.038719051 0.86500007 9539989
-0.49224761 -0.038495239 0.86000001 8554639
-0.49060953 -0.038495239 0.86000001 8686473
-0.48897141 -0.038495239 0.86000001 8883081
-0.48733333 -0.038495239 0.86000001 8883082
-0.48569524 -0.038495239 0.86000001 8882825
-0.48405716 -0.038495239 0.86000001 8948105
-0.48354095 -0.038584765 0.86200005 9013383
-0.48189905 -0.038584765 0.86200005 8882309
-0.48025715 -0.038584765 0.86200005 8816518
-0.47861525 -0.038584765 0.86200005 8750471
-0.47586668 -0.038495239 0.86000001 8750216
-0.47422856 -0.038495239 0.86000001 8684938
-0.47368953 -0.038584765 0.86200005 8684678
-0.47095236 -0.038495239 0.86000001 8619139
-0.46931428 -0.038495239 0.86000001 8618880
-0.46767619 -0.038495239 0.86000001 8487550
-0.46603808 -0.038495239 0.86000001 8421757
-0.46710005 -0.038719051 0.86500007 8224635
-0.4654524 -0.038719051 0.86500007 8092789
-0.4621962 -0.038584765 0.86200005 8026991
-0.4605543 -0.038584765 0.86200005 7961459
-0.4589124 -0.038584765 0.86200005 7961975
-0.48644671 -0.041046668 0.91700006 7961208
-0.48364288 -0.040957142 0.91500002 7895929
-0.48190001 -0.040957142 0.91500002 7829880
-0.47910762 -0.040867623 0.91300005 7764088
-0.47736859 -0.040867623 0.91300005 7697783
-0.47667143 -0.040957142 0.91500002 7697526
-0.47492859 -0.040957142 0.91500002 7697524
-0.47318572 -0.040957142 0.91500002 7697779
-0.47144288 -0.040957142 0.91500002 7698037
-0.46867335 -0.040867623 0.91300005 7764087
-0.46898001 -0.041046668 0.91700006 7894903
-0.46723336 -0.041046668 0.91700006 7829111
-0.46548668 -0.041046668 0.91700006 7763831
-0.46525717 -0.041180953 0.92000002 7763832
-0.46350479 -0.041180953 0.92000002 7764091
-0.46275619 -0.04127048 0.92200005 7830142
-0.46250004 -0.041404765 0.92500007 7894907
-0.46173429 -0.041494284 0.92700005 7894649
-0.46145716 -0.041628573 0.93000007 7894647
-0.45968574 -0.041628573 0.93000007 7894902
-0.45889908 -0.041718096 0.93200004 7894645
-0.45859525 -0.041852385 0.93500006 7764085
-0.45779145 -0.041941907 0.93700004 7698292
-0.45746669 -0.042076193 0.94000006 7697779
-0.45810002 -0.042300001 0.94500005 7697778
-0.45774862 -0.04243429 0.94800007 7763313
-0.45834765 -0.042658098 0.95300007 7894388
-0.4574905 -0.04274762 0.95500004 7959671
-0.45853427 -0.043016192 0.96100003 8025980
-0.4576543 -0.043105714 0.96300006 7174786
-0.45582002 -0.043105714 0.96300006 6317395
-0.45540002 -0.04324 0.96600002 3482405
-0.45355999 -0.04324 0.96600002 726056
-0.45172 -0.04324 0.96600002 1318444
-0.5421381 -0.038785715 0.90500003 8421504
-0.54041427 -0.038785715 0.90500003 8818585
-0.54047626 -0.038914286 0.90800005 9212057
-0.53696668 -0.038785715 0.90500003 9607321
-0.53524286 -0.038785715 0.90500003 9936286
-0.53351903 -0.038785715 0.90500003 10067619
-0.49675718 -0.037071433 0.86500007 9670294
-0.49224761 -0.036857143 0.86000001 8489107
-0.49060953 -0.036857143 0.86000001 8686480
-0.48897141 -0.036857143 0.86000001 8883085
-0.48733333 -0.036857143 0.86000001 8817546
-0.48569524 -0.036857143 0.86000001 8817290
-0.48518288 -0.036942858 0.86200005 8882314
-0.48354095 -0.036942858 0.86200005 8947336
-0.48189905 -0.036942858 0.86200005 8816262
-0.48192862 -0.037071433 0.86500007 8750726
-0.480281 -0.037071433 0.86500007 8750471
-0.47697335 -0.036942858 0.86200005 8750214
-0.47533146 -0.036942858 0.86200005 8684678
-0.47368953 -0.036942858 0.86200005 8684676
-0.47204763 -0.036942858 0.86200005 8619139
-0.47040573 -0.036942858 0.86200005 8618880
-0.46876383 -0.036942858 0.86200005 8553086
-0.46874765 -0.037071433 0.86500007 8421758
-0.46710005 -0.037071433 0.86500007 8290174
-0.4654524 -0.037071433 0.86500007 8158329
-0.46380478 -0.037071433 0.86500007 8092788
-0.4605543 -0.036942858 0.86200005 8027254
-0.4589124 -0.036942858 0.86200005 7961720
-0.48644671 -0.039300002 0.91700006 7961209
-0.48364288 -0.039214283 0.91500002 7961210
-0.48190001 -0.039214283 0.91500002 7961211
-0.47910762 -0.039128575 0.91300005 7895420
-0.47736859 -0.039128575 0.91300005 7829371
-0.47667143 -0.039214283 0.91500002 7829370
-0.47492859 -0.039214283 0.91500002 7895159
-0.47318572 -0.039214283 0.91500002 7829876
-0.47144288 -0.039214283 0.91500002 7830134
-0.46969998 -0.039214283 0.91500002 7830137
-0.46898001 -0.039300002 0.91700006 7895673
-0.46723336 -0.039300002 0.91700006 7829881
-0.46548668 -0.039300002 0.91700006 7829625
-0.46525717 -0.039428573 0.92000002 7829626
-0.46350479 -0.039428573 0.92000002 7829630
-0.46275619 -0.039514288 0.92200005 7829379
-0.46250004 -0.039642859 0.92500007 7829374
-0.46073812 -0.039642859 0.92500007 7829114
-0.45996857 -0.039728574 0.92700005 7894648
-0.45968574 -0.039857145 0.93000007 7894647
-0.45791429 -0.039857145 0.93000007 7960181
-0.45859525 -0.040071432 0.93500006 7763571
-0.45779145 -0.040157143 0.93700004 7567219
-0.45746669 -0.040285718 0.94000006 7632755
-0.45664573 -0.040371433 0.94200003 7698289
-0.45774862 -0.040628575 0.94800007 7763568
-0.45834765 -0.040842857 0.95300007 7828849
-0.45892763 -0.041057147 0.95800006 7959666
-0.45853427 -0.041185718 0.96100003 8025977
-0.4576543 -0.04127143 0.96300006 7043968
-0.45724002 -0.0414 0.96600002 6121299
-0.45540002 -0.0414 0.96600002 3218215
-0.45355999 -0.0414 0.96600002 398377
-0.45172 -0.0414 0.96600002 923948
-0.54145807 -0.036898095 0.90100002 7567732
-0.53794479 -0.036775239 0.89800006 8355972
-0.53623432 -0.036775239 0.89800006 8752788
-0.53452384 -0.036775239 0.89800006 9211799
-0.53281337 -0.036775239 0.89800006 9608090
-0.5311029 -0.036775239 0.89800006 10001823
-0.52821332 -0.036693335 0.89600003 10133412
-0.52650666 -0.036693335 0.89600003 10330539
-0.49840477 -0.035423812 0.86500007 11121579
-0.49790573 -0.035505716 0.86700004 9800850
-0.49339238 -0.035300955 0.86200005 8489361
-0.49175048 -0.035300955 0.86200005 8686479
-0.49010858 -0.035300955 0.86200005 8883084
-0.48846668 -0.035300955 0.86200005 8817802
-0.48682478 -0.035300955 0.86200005 8751753
-0.48518288 -0.035300955 0.86200005 8816521
-0.48354095 -0.035300955 0.86200005 8882055
-0.48189905 -0.035300955 0.86200005 8816517
-0.48025715 -0.035300955 0.86200005 8750726
-0.480281 -0.035423812 0.86500007 8750982
-0.47697335 -0.035300955 0.86200005 8750469
-0.47533146 -0.035300955 0.86200005 8684677
-0.47533813 -0.035423812 0.86500007 8684676
-0.47369051 -0.035423812 0.86500007 8684675
-0.47204289 -0.035423812 0.86500007 8684416
-0.47039527 -0.035423812 0.86500007 8553342
-0.46874765 -0.035423812 0.86500007 8487294
-0.46818 -0.035505716 0.86700004 8355709
-0.46652856 -0.035505716 0.86700004 8289656
-0.46487716 -0.035505716 0.86700004 8158323
-0.4605543 -0.035300955 0.86200005 8092789
-0.45784763 -0.035219047 0.86000001 8027256
-0.45620954 -0.035219047 0.86000001 7961464
-0.48364288 -0.037471429 0.91500002 8027001
-0.4808467 -0.037389524 0.91300005 8092283
-0.47753334 -0.037266668 0.91000003 8026750
-0.47580001 -0.037266668 0.91000003 7961214
-0.47562954 -0.037389524 0.91300005 8026750
-0.47389048 -0.037389524 0.91300005 8092027
-0.47318572 -0.037471429 0.91500002 8026231
-0.4704124 -0.037389524 0.91300005 7961208
-0.46969998 -0.037471429 0.91500002 7961466
-0.46898001 -0.037553336 0.91700006 7961210
-0.46723336 -0.037553336 0.91700006 7895418
-0.46548668 -0.037553336 0.91700006 7895418
-0.46525717 -0.037676193 0.92000002 7895419
-0.46451241 -0.037758097 0.92200005 7895165
-0.46275619 -0.037758097 0.92200005 7829632
-0.46250004 -0.037880953 0.92500007 7763837
-0.46073812 -0.037880953 0.92500007 7829113
-0.46145716 -0.038085714 0.93000007 7894647
-0.45968574 -0.038085714 0.93000007 7960438
-0.45791429 -0.038085714 0.93000007 8025461
-0.45859525 -0.038290478 0.93500006 7763316
-0.45779145 -0.038372383 0.93700004 7501684
-0.45600668 -0.038372383 0.93700004 7632756
-0.45664573 -0.038577143 0.94200003 7763827
-0.45630002 -0.038700003 0.94500005 7763826
-0.45930955 -0.039109524 0.95500004 7828852
-0.45892763 -0.039232384 0.95800006 7959670
-0.4594886 -0.039437145 0.96300006 8091513
-0.45907998 -0.039560001 0.96600002 6978684
-0.45724002 -0.039560001 0.96600002 5922635
-0.45822862 -0.039805714 0.97200006 2954010
-0.45637718 -0.039805714 0.97200006 70173
-0.45452574 -0.039805714 0.97200006 528672
-0.54145807 -0.035181906 0.90100002 7830145
-0.53974187 -0.035181906 0.90100002 8421768
-0.53623432 -0.035064761 0.89800006 8818319
-0.53452384 -0.035064761 0.89800006 9211541
-0.53281337 -0.035064761 0.89800006 9607836
-0.5311029 -0.035064761 0.89800006 10001825
-0.52821332 -0.034986667 0.89600003 10199206
-0.52356857 -0.034791429 0.89100003 10397102
-0.52187145 -0.034791429 0.89100003 10659766
-0.49840477 -0.033776194 0.86500007 10728111
-0.49790573 -0.033854287 0.86700004 9603215
-0.4962543 -0.033854287 0.86700004 8488847
-0.49346197 -0.033776194 0.86500007 8686479
-0.49181432 -0.033776194 0.86500007 8883340
-0.48846668 -0.033659048 0.86200005 8883082
-0.48682478 -0.033659048 0.86200005 8882825
-0.48518288 -0.033659048 0.86200005 8816521
-0.48522386 -0.033776194 0.86500007 8816519
-0.48189905 -0.033659048 0.86200005 8750725
-0.48025715 -0.033659048 0.86200005 8685189
-0.47861525 -0.033659048 0.86200005 8750982
-0.47697335 -0.033659048 0.86200005 8750981
-0.47533146 -0.033659048 0.86200005 8750724
-0.47368953 -0.033659048 0.86200005 8685187
-0.47369051 -0.033776194 0.86500007 8685187
-0.47204289 -0.033776194 0.86500007 8619649
-0.47039527 -0.033776194 0.86500007 8553343
-0.46874765 -0.033776194 0.86500007 8487550
-0.46710005 -0.033776194 0.86500007 8355965
-0.46652856 -0.033854287 0.86700004 8289911
-0.46487716 -0.033854287 0.86700004 8158322
-0.46215719 -0.033776194 0.86500007 8026997
-0.45784763 -0.033580955 0.86000001 7961720
-0.45620954 -0.033580955 0.86000001 7961976
-0.45457146 -0.033580955 0.86000001 8027513
-0.47926667 -0.035533335 0.91000003 8158844
-0.47753334 -0.035533335 0.91000003 8224384
-0.4747543 -0.035455238 0.90800005 8289921
-0.47406667 -0.035533335 0.91000003 8355203
-0.47389048 -0.035650477 0.91300005 8420479
-0.47318572 -0.03572857 0.91500002 8223611
-0.4704124 -0.035650477 0.91300005 8092539
-0.46969998 -0.03572857 0.91500002 8027003
-0.46898001 -0.035806671 0.91700006 8027259
-0.46723336 -0.035806671 0.91700006 7895931
-0.46548668 -0.035806671 0.91700006 7830395
-0.46525717 -0.035923809 0.92000002 7830140
-0.46350479 -0.035923809 0.92000002 7895165
-0.46175238 -0.035923809 0.92000002 7829630
-0.46100003 -0.036001906 0.92200005 7829627
-0.46073812 -0.036119051 0.92500007 7763833
-0.45996857 -0.036197145 0.92700005 7764087
-0.45968574 -0.036314286 0.93000007 7829621
-0.45889908 -0.036392383 0.93200004 7894389
-0.45859525 -0.036509525 0.93500006 7763574
-0.45779145 -0.036587618 0.93700004 7632757
-0.45600668 -0.036587618 0.93700004 7698037
-0.45664573 -0.036782857 0.94200003 7697780
-0.45774862 -0.037017144 0.94800007 7763316
-0.45834765 -0.037212383 0.95300007 7829111
-0.45892763 -0.037407622 0.95800006 7829115
-0.45853427 -0.037524763 0.96100003 7894905
-0.45907998 -0.037719999 0.96600002 7305592
-0.45724002 -0.037719999 0.96600002 6772803
-0.45822862 -0.037954286 0.97200006 4927246
-0.45731619 -0.038032383 0.97400004 3080465
-0.45546097 -0.038032383 0.97400004 3080725
-0.45360571 -0.038032383 0.97400004 3080974
-0.53794479 -0.03335429 0.89800006 8487814
-0.53623432 -0.03335429 0.89800006 8883860
-0.53452384 -0.03335429 0.89800006 9276569
-0.53162664 -0.03328 0.89600003 9607582
-0.5311029 -0.03335429 0.89800006 10001571
-0.52821332 -0.03328 0.89600003 10265001
-0.52650666 -0.03328 0.89600003 10528431
-0.5248 -0.03328 0.89600003 10726070
-0.50301433 -0.032425717 0.87300003 10396074
-0.49905431 -0.032277141 0.86900002 9405579
-0.4962543 -0.032202858 0.86700004 8488844
-0.49346197 -0.032128576 0.86500007 8686733
-0.49181432 -0.032128576 0.86500007 8948619
-0.49016669 -0.032128576 0.86500007 8948361
-0.4885191 -0.032128576 0.86500007 9013641
-0.48518288 -0.032017142 0.86200005 8882057
-0.48522386 -0.032128576 0.86500007 8816520
-0.48189905 -0.032017142 0.86200005 8750727
-0.48025715 -0.032017142 0.86200005 8685190
-0.480281 -0.032128576 0.86500007 8750982
-0.47697335 -0.032017142 0.86200005 8816518
-0.47533146 -0.032017142 0.86200005 8750983
-0.47368953 -0.032017142 0.86200005 8750469
-0.47369051 -0.032128576 0.86500007 8684931
-0.47204289 -0.032128576 0.86500007 8619138
-0.47039527 -0.032128576 0.86500007 8553600
-0.46874765 -0.032128576 0.86500007 8487551
-0.46710005 -0.032128576 0.86500007 8356221
-0.46652856 -0.032202858 0.86700004 8289913
-0.46487716 -0.032202858 0.86700004 8158326
-0.46215719 -0.032128576 0.86500007 8027256
-0.46050954 -0.032128576 0.86500007 7960954
-0.45886195 -0.032128576 0.86500007 7961723
-0.47994289 -0.033725716 0.90800005 8093308
-0.47821334 -0.033725716 0.90800005 8224638
-0.47648382 -0.033725716 0.90800005 8421505
-0.47318575 -0.033614289 0.90500003 8618882
-0.47302479 -0.033725716 0.90800005 8688003
-0.47389048 -0.033911429 0.91300005 8749953
-0.47215146 -0.033911429 0.91300005 8487038
-0.4704124 -0.033911429 0.91300005 8290173
-0.46969998 -0.033985715 0.91500002 8158844
-0.46795714 -0.033985715 0.91500002 8093309
-0.46723336 -0.034060001 0.91700006 7896702
-0.46548668 -0.034060001 0.91700006 7765118
-0.46374002 -0.034060001 0.91700006 7830397
-0.46350479 -0.034171429 0.92000002 7960957
-0.46175238 -0.034171429 0.92000002 7895165
-0.46100003 -0.034245715 0.92200005 7894907
-0.46073812 -0.034357145 0.92500007 7763578
-0.45996857 -0.034431428 0.92700005 7632762
-0.45968574 -0.034542862 0.93000007 7698810
-0.45889908 -0.034617145 0.93200004 7829624
-0.45859525 -0.034728575 0.93500006 7829622
-0.45779145 -0.034802862 0.93700004 7829109
-0.45600668 -0.034802862 0.93700004 7763316
-0.45664573 -0.034988575 0.94200003 7697778
-0.45774862 -0.035211433 0.94800007 7763312
-0.45930955 -0.035471432 0.95500004 7894644
-0.45892763 -0.035582859 0.95800006 7763576
-0.4594886 -0.035768572 0.96300006 7698039
-0.45907998 -0.035879999 0.96600002 7698038
-0.45724002 -0.035879999 0.96600002 7695197
-0.45822862 -0.036102857 0.97200006 6900804
-0.45731619 -0.036177143 0.97400004 6110270
-0.45546097 -0.036177143 0.97400004 5647672
-0.45360571 -0.036177143 0.97400004 5248814
-0.53794479 -0.031643812 0.89800006 8422788
-0.53623432 -0.031643812 0.89800006 8817050
-0.53452384 -0.031643812 0.89800006 9210525
-0.53162664 -0.031573333 0.89600003 9541792
-0.5311029 -0.031643812 0.89800006 9935782
-0.52821332 -0.031573333 0.89600003 10265261
-0.52533144 -0.031502858 0.89400005 10528689
-0.52362859 -0.031502858 0.89400005 10791606
-0.50416672 -0.030833337 0.87500006 9736613
-0.50020283 -0.030692382 0.87100005 9208711
-0.49739903 -0.030621905 0.86900002 8685705
-0.49460286 -0.03055143 0.86700004 8817547
-0.49181432 -0.030480953 0.86500007 8883082
-0.49016669 -0.030480953 0.86500007 8882825
-0.4885191 -0.030480953 0.86500007 8947849
-0.48687145 -0.030480953 0.86500007 8882314
-0.48522386 -0.030480953 0.86500007 8816777
-0.48357621 -0.030480953 0.86500007 8750985
-0.48192862 -0.030480953 0.86500007 8685191
-0.480281 -0.030480953 0.86500007 8750982
-0.47863337 -0.030480953 0.86500007 8816520
-0.47698575 -0.030480953 0.86500007 8750730
-0.47533813 -0.030480953 0.86500007 8750215
-0.47369051 -0.030480953 0.86500007 8684676
-0.47204289 -0.030480953 0.86500007 8619139
-0.47039527 -0.030480953 0.86500007 8553346
-0.46874765 -0.030480953 0.86500007 8487552
-0.46710005 -0.030480953 0.86500007 8421758
-0.4654524 -0.030480953 0.86500007 8355708
-0.46487716 -0.03055143 0.86700004 8223866
-0.46322572 -0.03055143 0.86700004 8093051
-0.46157429 -0.03055143 0.86700004 7895421
-0.45992288 -0.03055143 0.86700004 7699326
-0.45827144 -0.03055143 0.86700004 7962240
-0.47558004 -0.031820003 0.90300006 8225409
-0.47386003 -0.031820003 0.90300006 8422530
-0.47214004 -0.031820003 0.90300006 8685955
-0.47146189 -0.031890478 0.90500003 8948100
-0.4697381 -0.031890478 0.90500003 9276035
-0.47060001 -0.032066669 0.91000003 8881026
-0.46886668 -0.032066669 0.91000003 8487295
-0.46867335 -0.032172382 0.91300005 8290429
-0.46795714 -0.032242857 0.91500002 8159359
-0.46723336 -0.032313332 0.91700006 8093570
-0.46548668 -0.032313332 0.91700006 7961984
-0.46374002 -0.032313332 0.91700006 7961471
-0.46350479 -0.032419048 0.92000002 7961213
-0.46175238 -0.032419048 0.92000002 7895164
-0.46100003 -0.032489527 0.92200005 7894907
-0.46073812 -0.03259524 0.92500007 7763579
-0.45996857 -0.032665718 0.92700005 7698301
-0.45968574 -0.032771431 0.93000007 7698304
-0.45889908 -0.032841906 0.93200004 7763835
-0.45859525 -0.032947619 0.93500006 7763574
-0.45779145 -0.033018097 0.93700004 7763317
-0.45746669 -0.03312381 0.94000006 7697780
-0.45664573 -0.033194285 0.94200003 7697776
-0.45774862 -0.033405717 0.94800007 7829101
-0.45834765 -0.033581905 0.95300007 7960433
-0.45892763 -0.033758096 0.95800006 7894390
-0.45853427 -0.033863809 0.96100003 7828853
-0.4576543 -0.033934284 0.96300006 7894901
-0.45724002 -0.03404 0.96600002 8028024
-0.45681432 -0.034145713 0.96900004 7964283
-0.45637718 -0.034251429 0.97200006 7900523
-0.45546097 -0.034321908 0.97400004 7835484
-0.45360571 -0.034321908 0.97400004 7704911
-0.53794479 -0.029933335 0.89800006 8356229
-0.53623432 -0.029933335 0.89800006 8751508
-0.53452384 -0.029933335 0.89800006 9144985
-0.53281337 -0.029933335 0.89800006 9541791
-0.5311029 -0.029933335 0.89800006 9936037
-0.52821332 -0.029866667 0.89600003 10265515
-0.52533144 -0.0298 0.89400005 10594481
-0.52362859 -0.0298 0.89400005 10857400
-0.52192575 -0.0298 0.89400005 11120574
-0.50583339 -0.029166669 0.87500006 10265524
-0.50416672 -0.029166669 0.87500006 9146780
-0.50020283 -0.029033335 0.87100005 9012101
-0.4985438 -0.029033335 0.87100005 8947847
-0.49460286 -0.028900001 0.86700004 8883081
-0.49295142 -0.028900001 0.86700004 8883081
-0.49016669 -0.028833335 0.86500007 8883081
-0.4885191 -0.028833335 0.86500007 8882826
-0.48687145 -0.028833335 0.86500007 8817036
-0.48522386 -0.028833335 0.86500007 8817035
-0.48357621 -0.028833335 0.86500007 8751497
-0.48192862 -0.028833335 0.86500007 8750727
-0.480281 -0.028833335 0.86500007 8816518
-0.47863337 -0.028833335 0.86500007 8882054
-0.47698575 -0.028833335 0.86500007 8816262
-0.47533813 -0.028833335 0.86500007 8750468
-0.47369051 -0.028833335 0.86500007 8684931
-0.47204289 -0.028833335 0.86500007 8619140
-0.47039527 -0.028833335 0.86500007 8553349
-0.46874765 -0.028833335 0.86500007 8553089
-0.46710005 -0.028833335 0.86500007 8487293
-0.46652856 -0.028900001 0.86700004 8487035
-0.46594954 -0.028966667 0.86900002 8289658
-0.46536291 -0.029033335 0.87100005 8158586
-0.46476859 -0.029100001 0.87300003 7830139
-0.4641667 -0.029166669 0.87500006 7502718
-0.46250004 -0.029166669 0.87500006 7896705
-0.47452667 -0.030033333 0.90100002 8290692
-0.47386003 -0.030100001 0.90300006 8488838
-0.47214004 -0.030100001 0.90300006 8752014
-0.47042003 -0.030100001 0.90300006 9276823
-0.4697381 -0.030166667 0.90500003 9800080
-0.46956575 -0.030266669 0.90800005 9209481
-0.4678362 -0.030266669 0.90800005 8684422
-0.46610668 -0.030266669 0.90800005 8487555
-0.46795714 -0.0305 0.91500002 8290691
-0.4662143 -0.0305 0.91500002 8224899
-0.46548668 -0.030566668 0.91700006 8224385
-0.46374002 -0.030566668 0.91700006 8092799
-0.46199334 -0.030566668 0.91700006 8027005
-0.46024668 -0.030566668 0.91700006 7960956
-0.4585 -0.030566668 0.91700006 7895164
-0.45924383 -0.030733334 0.92200005 7829116
-0.45897624 -0.030833337 0.92500007 7763836
-0.4582029 -0.0309 0.92700005 7764093
-0.45643717 -0.0309 0.92700005 7763830
-0.45859525 -0.031166669 0.93500006 7698032
-0.45779145 -0.031233335 0.93700004 7697778
-0.45600668 -0.031233335 0.93700004 7697525
-0.45664573 -0.031400003 0.94200003 7698037
-0.45774862 -0.031600002 0.94800007 7894901
-0.45834765 -0.031766668 0.95300007 8091254
-0.45892763 -0.031933334 0.95800006 8025207
-0.45853427 -0.032033335 0.96100003 8025208
-0.4576543 -0.032100003 0.96300006 8157306
-0.45724002 -0.032200001 0.96600002 8354937
-0.45540002 -0.032200001 0.96600002 9016440
-0.45496857 -0.032299999 0.96900004 9735802
-0.45452574 -0.032400001 0.97200006 9935228
-0.45267433 -0.032400001 0.97200006 10195313
-0.53974187 -0.028317144 0.90100002 8289926
-0.53623432 -0.028222859 0.89800006 8685455
-0.53452384 -0.028222859 0.89800006 9079702
-0.53162664 -0.02816 0.89600003 9475230
-0.52991998 -0.02816 0.89600003 9871012
-0.52821332 -0.02816 0.89600003 10266026
-0.52533144 -0.028097145 0.89400005 10594738
-0.52187145 -0.028002858 0.89100003 10791866
-0.51900667 -0.027940001 0.88900006 10924227
-0.51731336 -0.027940001 0.88900006 10990029
-0.50750005 -0.027500002 0.87500006 11056056
-0.50583339 -0.027500002 0.87500006 9935524
-0.50416672 -0.027500002 0.87500006 8884628
-0.50135142 -0.027437143 0.87300003 8881540
-0.49739903 -0.027311428 0.86900002 8882566
-0.49574381 -0.027311428 0.86900002 8883336
-0.49295142 -0.027248573 0.86700004 8817800
-0.49130005 -0.027248573 0.86700004 8817545
-0.4885191 -0.027185716 0.86500007 8883084
-0.48687145 -0.027185716 0.86500007 8817295
-0.48522386 -0.027185716 0.86500007 8817292
-0.48357621 -0.027185716 0.86500007 8751754
-0.48192862 -0.027185716 0.86500007 8750984
-0.480281 -0.027185716 0.86500007 8750982
-0.47863337 -0.027185716 0.86500007 8751236
-0.47698575 -0.027185716 0.86500007 8685443
-0.47533813 -0.027185716 0.86500007 8685186
-0.47369051 -0.027185716 0.86500007 8619394
-0.47313431 -0.027248573 0.86700004 8619141
-0.47148287 -0.027248573 0.86700004 8619144
-0.46983144 -0.027248573 0.86700004 8619138
-0.46818 -0.027248573 0.86700004 8553085
-0.46760479 -0.027311428 0.86900002 8487291
-0.46702191 -0.027374288 0.87100005 8355706
-0.46536291 -0.027374288 0.87100005 8224121
-0.46583337 -0.027500002 0.87500006 7961721
-0.46575812 -0.027594287 0.87800002 7699582
-0.46408573 -0.027594287 0.87800002 7961731
-0.47294667 -0.028222859 0.89800006 8224903
-0.47281048 -0.028317144 0.90100002 8488075
-0.47109431 -0.028317144 0.90100002 8687002
-0.47042003 -0.028380001 0.90300006 9080490
-0.46870002 -0.028380001 0.90300006 9542045
-0.4680143 -0.028442858 0.90500003 9144976
-0.46629047 -0.028442858 0.90500003 8750476
-0.46713334 -0.0286 0.91000003 8553609
-0.46795714 -0.028757144 0.91500002 8422278
-0.4662143 -0.028757144 0.91500002 8356228
-0.46447143 -0.028757144 0.91500002 8290178
-0.46374002 -0.028820001 0.91700006 8158592
-0.46199334 -0.028820001 0.91700006 8027262
-0.46024668 -0.028820001 0.91700006 7960956
-0.46000001 -0.028914286 0.92000002 7895421
-0.45924383 -0.028977145 0.92200005 7829118
-0.45897624 -0.02907143 0.92500007 7829372
-0.45721433 -0.02907143 0.92500007 7763834
-0.45791429 -0.029228574 0.93000007 7763826
-0.45859525 -0.029385716 0.93500006 7763562
-0.45681432 -0.029385716 0.93500006 7763568
-0.45600668 -0.029448573 0.93700004 7697527
-0.4556762 -0.02954286 0.94000006 7698554
-0.45630002 -0.029700002 0.94500005 7829373
-0.45450002 -0.029700002 0.94500005 7960186
-0.45653242 -0.029951429 0.95300007 7894392
-0.4594886 -0.030265715 0.96300006 7894140
-0.4576543 -0.030265715 0.96300006 8026240
-0.45724002 -0.03036 0.96600002 8157819
-0.45681432 -0.030454287 0.96900004 8553846
-0.45496857 -0.030454287 0.96900004 9015433
-0.45312288 -0.030454287 0.96900004 9212317
-0.45127717 -0.030454287 0.96900004 9343636
-0.53974187 -0.026600951 0.90100002 8290181
-0.53623432 -0.026512383 0.89800006 8619662
-0.53452384 -0.026512383 0.89800006 9013907
-0.53162664 -0.026453335 0.89600003 9408665
-0.52991998 -0.026453335 0.89600003 9869987
-0.52821332 -0.026453335 0.89600003 10266797
-0.52533144 -0.026394285 0.89400005 10660018
-0.52187145 -0.026305715 0.89100003 10726327
-0.51900667 -0.026246669 0.88900006 10793150
-0.51731336 -0.026246669 0.88900006 10793413
-0.51562005 -0.026246669 0.88900006 10792369
-0.50988001 -0.026040001 0.88200003 9671326
-0.50589526 -0.025921905 0.87800002 8621205
-0.50020283 -0.025715239 0.87100005 8751243
-0.49739903 -0.025656192 0.86900002 8882570
-0.49574381 -0.025656192 0.86900002 8818057
-0.49295142 -0.025597144 0.86700004 8817801
-0.49130005 -0.025597144 0.86700004 8817801
-0.4885191 -0.025538098 0.86500007 8883082
-0.48687145 -0.025538098 0.86500007 8817547
-0.48522386 -0.025538098 0.86500007 8817289
-0.48357621 -0.025538098 0.86500007 8752007
-0.48192862 -0.025538098 0.86500007 8751494
-0.48139146 -0.025597144 0.86700004 8685957
-0.47863337 -0.025538098 0.86500007 8685700
-0.47808859 -0.025597144 0.86700004 8620163
-0.47533813 -0.025538098 0.86500007 8619650
-0.47478575 -0.025597144 0.86700004 8619649
-0.47313431 -0.025597144 0.86700004 8619138
-0.47148287 -0.025597144 0.86700004 8619140
-0.46983144 -0.025597144 0.86700004 8684417
-0.46818 -0.025597144 0.86700004 8618878
-0.46868098 -0.025715239 0.87100005 8552828
-0.46702191 -0.025715239 0.87100005 8421754
-0.46643144 -0.025774287 0.87300003 8289911
-0.46583337 -0.025833335 0.87500006 8093044
-0.4641667 -0.025833335 0.87500006 7961721
-0.46725717 -0.026099049 0.88400006 8092543
-0.46557334 -0.026099049 0.88400006 8224132
-0.47123623 -0.026512383 0.89800006 8421769
-0.47109431 -0.026600951 0.90100002 8685971
-0.46937811 -0.026600951 0.90100002 8949662
-0.46870002 -0.026660001 0.90300006 9277079
-0.4680143 -0.026719047 0.90500003 9080464
-0.46629047 -0.026719047 0.90500003 8882061
-0.46456668 -0.026719047 0.90500003 8685193
-0.46437716 -0.026807619 0.90800005 8553863
-0.46519524 -0.026955239 0.91300005 8422533
-0.46345621 -0.026955239 0.91300005 8355970
-0.46272859 -0.027014285 0.91500002 8159103
-0.46199334 -0.027073335 0.91700006 8027006
-0.45924288 -0.027014285 0.91500002 7961213
-0.46000001 -0.027161906 0.92000002 7895165
-0.45924383 -0.027220953 0.92200005 7894909
-0.45897624 -0.027309526 0.92500007 7894908
-0.45968574 -0.027457144 0.93000007 7829372
-0.45889908 -0.027516192 0.93200004 7829366
-0.45859525 -0.027604764 0.93500006 7829360
-0.45681432 -0.027604764 0.93500006 7829107
-0.45600668 -0.02766381 0.93700004 7763318
-0.4556762 -0.027752383 0.94000006 7763575
-0.45630002 -0.027900001 0.94500005 7829625
-0.4569048 -0.028047619 0.95000005 7894904
-0.4574905 -0.02819524 0.95500004 7829111
-0.4594886 -0.02843143 0.96300006 7763066
-0.45907998 -0.028520001 0.96600002 7829630
-0.45866001 -0.028608572 0.96900004 7961212
-0.45822862 -0.028697144 0.97200006 8158330
-0.45637718 -0.028697144 0.97200006 8355462
-0.45452574 -0.028697144 0.97200006 8421522
-0.45127717 -0.028608572 0.96900004 8552076
-0.53974187 -0.024884764 0.90100002 8290693
-0.53623432 -0.024801906 0.89800006 8619661
-0.53452384 -0.024801906 0.89800006 9013905
-0.53162664 -0.024746668 0.89600003 9277077
-0.52873713 -0.024691431 0.89400005 9541282
-0.52821332 -0.024746668 0.89600003 10266544
-0.52533144 -0.024691431 0.89400005 10921906
-0.52362859 -0.024691431 0.89400005 10726580
-0.52017432 -0.024608571 0.89100003 10531000
-0.51731336 -0.024553334 0.88900006 10333373
-0.51562005 -0.024553334 0.88900006 10201259
-0.50988001 -0.024360001 0.88200003 9407641
-0.50820005 -0.024360001 0.88200003 8685462
-0.50020283 -0.024056191 0.87100005 8751507
-0.49739903 -0.024000952 0.86900002 8882830
-0.49574381 -0.024000952 0.86900002 8817290
-0.49295142 -0.023945715 0.86700004 8817546
-0.49130005 -0.023945715 0.86700004 8817546
-0.48964861 -0.023945715 0.86700004 8817800
-0.48687145 -0.023890479 0.86500007 8817287
-0.48522386 -0.023890479 0.86500007 8882821
-0.48357621 -0.023890479 0.86500007 8817028
-0.48192862 -0.023890479 0.86500007 8751492
-0.48139146 -0.023945715 0.86700004 8685701
-0.47974002 -0.023945715 0.86700004 8620164
-0.47808859 -0.023945715 0.86700004 8619908
-0.47643718 -0.023945715 0.86700004 8619650
-0.47478575 -0.023945715 0.86700004 8619648
-0.47313431 -0.023945715 0.86700004 8619136
-0.47148287 -0.023945715 0.86700004 8619136
-0.47091523 -0.024000952 0.86900002 8618879
-0.47034001 -0.024056191 0.87100005 8553343
-0.46975717 -0.024111429 0.87300003 8487292
-0.46809429 -0.024111429 0.87300003 8356218
-0.46643144 -0.024111429 0.87300003 8224628
-0.46583337 -0.024166668 0.87500006 8093039
-0.4641667 -0.024166668 0.87500006 7960949
-0.46408573 -0.024249524 0.87800002 7960956
-0.46241331 -0.024249524 0.87800002 8026754
-0.47123623 -0.024801906 0.89800006 8224136
-0.46952575 -0.024801906 0.89800006 8488333
-0.46781525 -0.024801906 0.89800006 8685970
-0.46766192 -0.024884764 0.90100002 8949393
-0.46698004 -0.024940003 0.90300006 8883601
-0.46526003 -0.024940003 0.90300006 8817293
-0.46456668 -0.024995239 0.90500003 8685706
-0.46284288 -0.024995239 0.90500003 8619912
-0.46366668 -0.025133334 0.91000003 8422534
-0.46345621 -0.025216192 0.91300005 8290946
-0.46272859 -0.025271429 0.91500002 8159103
-0.46098572 -0.025271429 0.91500002 7961470
-0.45924288 -0.025271429 0.91500002 7895422
-0.46000001 -0.025409523 0.92000002 7829117
-0.45924383 -0.025464762 0.92200005 7894908
-0.45897624 -0.025547622 0.92500007 7960445
-0.45968574 -0.025685715 0.93000007 7894911
-0.45889908 -0.025740953 0.93200004 7829626
-0.45859525 -0.025823811 0.93500006 7829110
-0.45779145 -0.025879048 0.93700004 7763573
-0.45600668 -0.025879048 0.93700004 7763317
-0.4556762 -0.025961906 0.94000006 7697525
-0.45630002 -0.0261 0.94500005 7763574
-0.4569048 -0.026238097 0.95000005 7895158
-0.4574905 -0.026376192 0.95500004 7763318
-0.4594886 -0.026597144 0.96300006 7697785
-0.45907998 -0.02668 0.96600002 7829373
-0.45724002 -0.02668 0.96600002 7961214
-0.45917141 -0.026900953 0.97400004 8092799
-0.45731619 -0.026900953 0.97400004 8223875
-0.45546097 -0.026900953 0.97400004 8355976
-0.53974187 -0.023168571 0.90100002 8290177
-0.53623432 -0.02309143 0.89800006 8619655
-0.53452384 -0.02309143 0.89800006 9014413
-0.53162664 -0.02304 0.89600003 9145491
-0.52873713 -0.022988571 0.89400005 9278628
-0.52703434 -0.022988571 0.89400005 10266292
-0.52533144 -0.022988571 0.89400005 11250101
-0.52362859 -0.022988571 0.89400005 10726838
-0.52192575 -0.022988571 0.89400005 10267566
-0.50800288 -0.022448571 0.87300003 9937063
-0.50634003 -0.022448571 0.87300003 9671583
-0.50988001 -0.022680001 0.88200003 9209752
-0.50070953 -0.022345716 0.86900002 8751251
-0.49905431 -0.022345716 0.86900002 8817295
-0.49739903 -0.022345716 0.86900002 8882827
-0.49460286 -0.022294287 0.86700004 8883080
-0.49295142 -0.022294287 0.86700004 8882824
-0.49016669 -0.022242859 0.86500007 8817289
-0.4885191 -0.022242859 0.86500007 8751495
-0.48687145 -0.022242859 0.86500007 8817029
-0.48522386 -0.022242859 0.86500007 8948099
-0.4846943 -0.022294287 0.86700004 8882560
-0.4830429 -0.022294287 0.86700004 8816770
-0.48139146 -0.022294287 0.86700004 8685700
-0.47974002 -0.022294287 0.86700004 8619909
-0.47808859 -0.022294287 0.86700004 8619653
-0.47643718 -0.022294287 0.86700004 8619652
-0.47478575 -0.022294287 0.86700004 8619650
-0.47422573 -0.022345716 0.86900002 8619393
-0.47257048 -0.022345716 0.86900002 8553856
-0.47091523 -0.022345716 0.86900002 8553344
-0.47142002 -0.022448571 0.87300003 8487808
-0.46975717 -0.022448571 0.87300003 8422013
-0.46809429 -0.022448571 0.87300003 8290939
-0.46643144 -0.022448571 0.87300003 8224632
-0.46583337 -0.022500001 0.87500006 8093045
-0.4641667 -0.022500001 0.87500006 8026488
-0.46408573 -0.022577144 0.87800002 7895419
-0.46715334 -0.022808572 0.88700002 7829887
-0.46546382 -0.022808572 0.88700002 8026499
-0.46743432 -0.022988571 0.89400005 8289671
-0.46677336 -0.02304 0.89600003 8487563
-0.46766192 -0.023168571 0.90100002 8685967
-0.46698004 -0.023220003 0.90300006 8752532
-0.46422952 -0.023168571 0.90100002 8817550
-0.46354005 -0.023220003 0.90300006 8751497
-0.46182004 -0.023220003 0.90300006 8685189
-0.46264765 -0.023348572 0.90800005 8488322
-0.46193331 -0.023400001 0.91000003 8290943
-0.46171719 -0.023477143 0.91300005 8093820
-0.46098572 -0.02352857 0.91500002 7961211
-0.45924288 -0.02352857 0.91500002 7829627
-0.46000001 -0.023657143 0.92000002 7764091
-0.45924383 -0.023708573 0.92200005 7895163
-0.45748764 -0.023708573 0.92200005 8091771
-0.45968574 -0.023914289 0.93000007 7960956
-0.45889908 -0.023965714 0.93200004 7894905
-0.45957622 -0.024094287 0.93700004 7828854
-0.45925716 -0.024171429 0.94000006 7763573
-0.45746669 -0.024171429 0.94000006 7698292
-0.45664573 -0.024222856 0.94200003 7697779
-0.45630002 -0.024300002 0.94500005 7763315
-0.4559429 -0.024377145 0.94800007 7894643
-0.46036479 -0.024711428 0.96100003 7763315
-0.46092001 -0.024840001 0.96600002 7697784
-0.46050572 -0.024917144 0.96900004 7829116
-0.45866001 -0.024917144 0.96900004 7961212
-0.45917141 -0.025045713 0.97400004 8027260
-0.45731619 -0.025045713 0.97400004 8093312
-0.45546097 -0.025045713 0.97400004 8225156
-0.53974187 -0.021452382 0.90100002 8289918
-0.53623432 -0.021380953 0.89800006 8620418
-0.53452384 -0.021380953 0.89800006 8949386
-0.53162664 -0.021333335 0.89600003 9080210
-0.52873713 -0.021285716 0.89400005 9278117
-0.52703434 -0.021285716 0.89400005 9871545
-0.52533144 -0.021285716 0.89400005 10531512
-0.52362859 -0.021285716 0.89400005 10202296
-0.52192575 -0.021285716 0.89400005 9938597
-0.50800288 -0.020785715 0.87300003 9607058
-0.50634003 -0.020785715 0.87300003 9342100
-0.50236481 -0.020690477 0.86900002 9013911
-0.50070953 -0.020690477 0.86900002 8685969
-0.49905431 -0.020690477 0.86900002 8817036
-0.49739903 -0.020690477 0.86900002 8948361
-0.49460286 -0.020642858 0.86700004 8883334
-0.49181432 -0.020595239 0.86500007 8818055
-0.49016669 -0.020595239 0.86500007 8751753
-0.4885191 -0.020595239 0.86500007 8751750
-0.48687145 -0.020595239 0.86500007 8751492
-0.48522386 -0.020595239 0.86500007 8816768
-0.48357621 -0.020595239 0.86500007 8816765
-0.48192862 -0.020595239 0.86500007 8816512
-0.48139146 -0.020642858 0.86700004 8750980
-0.47974002 -0.020642858 0.86700004 8685445
-0.47808859 -0.020642858 0.86700004 8619655
-0.47643718 -0.020642858 0.86700004 8619142
-0.47478575 -0.020642858 0.86700004 8619397
-0.47313431 -0.020642858 0.86700004 8684931
-0.47257048 -0.020690477 0.86900002 8619137
-0.47199908 -0.020738097 0.87100005 8553345
-0.47142002 -0.020785715 0.87300003 8487553
-0.46975717 -0.020785715 0.87300003 8422015
-0.46809429 -0.020785715 0.87300003 8356221
-0.46750003 -0.020833336 0.87500006 8290428
-0.46583337 -0.020833336 0.87500006 8158587
-0.46575812 -0.020904763 0.87800002 8092283
-0.46408573 -0.020904763 0.87800002 7960955
-0.46452001 -0.021000002 0.88200003 7895421
-0.46756285 -0.021214288 0.89100003 8026751
-0.46586573 -0.021214288 0.89100003 8158081
-0.46573147 -0.021285716 0.89400005 8290436
-0.46610478 -0.021380953 0.89800006 8422542
-0.46594572 -0.021452382 0.90100002 8555160
-0.46422952 -0.021452382 0.90100002 8622224
-0.46251333 -0.021452382 0.90100002 8553864
-0.46182004 -0.021500001 0.90300006 8553347
-0.46264765 -0.021619048 0.90800005 8356478
-0.46193331 -0.021666666 0.91000003 8225403
-0.46171719 -0.021738095 0.91300005 8093049
-0.46098572 -0.021785714 0.91500002 7960952
-0.45924288 -0.021785714 0.91500002 7895160
-0.46000001 -0.021904761 0.92000002 7829625
-0.45924383 -0.021952381 0.92200005 7895162
-0.45748764 -0.021952381 0.92200005 8026234
-0.4582029 -0.022071429 0.92700005 7960442
-0.4603762 -0.022261906 0.93500006 7894648
-0.46104765 -0.022380954 0.94000006 7763574
-0.45925716 -0.022380954 0.94000006 7632756
-0.45844004 -0.022428572 0.94200003 7632755
-0.45664573 -0.022428572 0.94200003 7698034
-0.45630002 -0.022500001 0.94500005 7763825
-0.4559429 -0.022571431 0.94800007 7829617
-0.46036479 -0.022880953 0.96100003 7764081
-0.4594886 -0.022928571 0.96300006 7764086
-0.45907998 -0.023 0.96600002 7829116
-0.45866001 -0.023071429 0.96900004 7961210
-0.45681432 -0.023071429 0.96900004 7962233
-0.53623432 -0.019670477 0.89800006 8621441
-0.53452384 -0.019670477 0.89800006 8949130
-0.53281337 -0.019670477 0.89800006 9080467
-0.52873713 -0.019582856 0.89400005 9277339
-0.52703434 -0.019582856 0.89400005 9542563
-0.52533144 -0.019582856 0.89400005 9804195
-0.52362859 -0.019582856 0.89400005 9672866
-0.50467718 -0.019122858 0.87300003 8817811
-0.50186193 -0.019079048 0.87100005 8621199
-0.49905431 -0.019035237 0.86900002 8817803
-0.49739903 -0.019035237 0.86900002 9079946
-0.49574381 -0.019035237 0.86900002 8883592
-0.49295142 -0.018991429 0.86700004 8752521
-0.49016669 -0.018947622 0.86500007 8752009
-0.48964861 -0.018991429 0.86700004 8751752
-0.48687145 -0.018947622 0.86500007 8751751
-0.48634574 -0.018991429 0.86700004 8751236
-0.48357621 -0.018947622 0.86500007 8751233
-0.48192862 -0.018947622 0.86500007 8816516
-0.48139146 -0.018991429 0.86700004 8750982
-0.47974002 -0.018991429 0.86700004 8750984
-0.47808859 -0.018991429 0.86700004 8685450
-0.47643718 -0.018991429 0.86700004 8619912
-0.47478575 -0.018991429 0.86700004 8685446
-0.47422573 -0.019035237 0.86900002 8816001
-0.47257048 -0.019035237 0.86900002 8684669
-0.47199908 -0.019079048 0.87100005 8553343
-0.47142002 -0.019122858 0.87300003 8487553
-0.46975717 -0.019122858 0.87300003 8421761
-0.46809429 -0.019122858 0.87300003 8356226
-0.46750003 -0.019166669 0.87500006 8355710
-0.46583337 -0.019166669 0.87500006 8224379
-0.4641667 -0.019166669 0.87500006 8158331
-0.46408573 -0.019232381 0.87800002 8092283
-0.46452001 -0.019320002 0.88200003 8026492
-0.46546382 -0.019429525 0.88700002 8027004
-0.46482003 -0.019473333 0.88900006 8027006
-0.46416858 -0.019517142 0.89100003 8093312
-0.46506667 -0.019626666 0.89600003 8224647
-0.46594572 -0.019736189 0.90100002 8355982
-0.46422952 -0.019736189 0.90100002 8487305
-0.46251333 -0.019736189 0.90100002 8422020
-0.46182004 -0.019780001 0.90300006 8421760
-0.46264765 -0.019889524 0.90800005 8290428
-0.46193331 -0.019933334 0.91000003 8158585
-0.46171719 -0.019999048 0.91300005 8092535
-0.46199334 -0.020086668 0.91700006 8026229
-0.46175238 -0.020152381 0.92000002 7960691
-0.46100003 -0.020196192 0.92200005 7960696
-0.45924383 -0.020196192 0.92200005 7960702
-0.45748764 -0.020196192 0.92200005 7960700
-0.45721433 -0.020261906 0.92500007 7894906
-0.45791429 -0.02037143 0.93000007 7894904
-0.45957622 -0.020524763 0.93700004 7698551
-0.45925716 -0.020590477 0.94000006 7567222
-0.45844004 -0.020634286 0.94200003 7632757
-0.45664573 -0.020634286 0.94200003 7698292
-0.45630002 -0.0207 0.94500005 7764338
-0.4559429 -0.020765714 0.94800007 7829618
-0.45270002 -0.0207 0.94500005 7829618
-0.4594886 -0.021094287 0.96300006 7829364
-0.45907998 -0.021160001 0.96600002 7894903
-0.45866001 -0.021225715 0.96900004 8026487
-0.45681432 -0.021225715 0.96900004 7897462
-0.53452384 -0.017960001 0.89800006 8883339
-0.53162664 -0.01792 0.89600003 9014421
-0.52873713 -0.017880002 0.89400005 9145489
-0.52526569 -0.017820001 0.89100003 9277582
-0.52356857 -0.017820001 0.89100003 9475213
-0.52362859 -0.017880002 0.89400005 9409677
-0.50467718 -0.01746 0.87300003 8817552
-0.50186193 -0.017419999 0.87100005 8686477
-0.50020283 -0.017419999 0.87100005 8817547
-0.4985438 -0.017419999 0.87100005 8949131
-0.49574381 -0.017380001 0.86900002 8883595
-0.49295142 -0.017340001 0.86700004 8752522
-0.49130005 -0.017340001 0.86700004 8752010
-0.48964861 -0.017340001 0.86700004 8751754
-0.48687145 -0.0173 0.86500007 8751754
-0.48522386 -0.0173 0.86500007 8817032
-0.48357621 -0.0173 0.86500007 8751238
-0.48192862 -0.0173 0.86500007 8750983
-0.48139146 -0.017340001 0.86700004 8685449
-0.47974002 -0.017340001 0.86700004 8685195
-0.47808859 -0.017340001 0.86700004 8619662
-0.47643718 -0.017340001 0.86700004 8554122
