# .PCD v0.7 - Point Cloud Data file format
VERSION 0.7
FIELDS x y z rgba
SIZE 4 4 4 4
TYPE F F F U
COUNT 1 1 1 1
WIDTH 1098
HEIGHT 1
VIEWPOINT 0 0 0 1 0 0 0
POINTS 1098
DATA ascii
-0.2604 -0.07373333 0.98000002 8221349
-0.25853333 -0.07373333 0.98000002 9611729
-0.25666666 -0.07373333 0.98000002 12445438
-0.43202382 -0.070033334 0.95500004 4346984
-0.43020478 -0.070033334 0.95500004 8029823
-0.42838573 -0.070033334 0.95500004 8556438
-0.42567337 -0.06988667 0.95300007 9145236
-0.42385811 -0.06988667 0.95300007 9145234
-0.42204288 -0.06988667 0.95300007 9145495
-0.41890478 -0.069666669 0.95000005 9212572
-0.41709524 -0.069666669 0.95000005 9279372
-0.41441146 -0.069520004 0.94800007 7306877
-0.40912381 -0.068933338 0.94000006 5399915
-0.40603334 -0.068713337 0.93700004 5265497
-0.4042486 -0.068713337 0.93700004 5069924
-0.38227716 -0.067980006 0.92700005 5265270
-0.38256383 -0.068346664 0.93200004 6844538
-0.38078856 -0.068346664 0.93200004 8422796
-0.38023335 -0.068566665 0.93500006 9017502
-0.37845242 -0.068566665 0.93500006 9607068
-0.37667146 -0.068566665 0.93500006 9475227
-0.37489051 -0.068566665 0.93500006 9344407
-0.37310952 -0.068566665 0.93500006 9344403
-0.37132859 -0.068566665 0.93500006 9344661
-0.36836192 -0.068346664 0.93200004 9344408
-0.36658669 -0.068346664 0.93200004 9409945
-0.36481142 -0.068346664 0.93200004 9278362
-0.36420479 -0.068566665 0.93500006 9212314
-0.36242381 -0.068566665 0.93500006 9212314
-0.36064288 -0.068566665 0.93500006 9277594
-0.35886192 -0.068566665 0.93500006 9146267
-0.35708097 -0.068566665 0.93500006 9080473
-0.35530004 -0.068566665 0.93500006 9080472
-0.35427526 -0.068713337 0.93700004 9146264
-0.35249048 -0.068713337 0.93700004 9146264
-0.35070574 -0.068713337 0.93700004 9145493
-0.34892094 -0.068713337 0.93700004 9079954
-0.3471362 -0.068713337 0.93700004 9079954
-0.34535143 -0.068713337 0.93700004 9014419
-0.34356669 -0.068713337 0.93700004 8948882
-0.34178191 -0.068713337 0.93700004 8949138
-0.33999714 -0.068713337 0.93700004 9013903
-0.3382124 -0.068713337 0.93700004 8948364
-0.33642763 -0.068713337 0.93700004 8883082
-0.33464286 -0.068713337 0.93700004 8751753
-0.33285809 -0.068713337 0.93700004 8685704
-0.33107334 -0.068713337 0.93700004 8554119
-0.33034286 -0.068933338 0.94000006 8488069
-0.32925144 -0.069080003 0.94200003 8290947
-0.3285 -0.069300003 0.94500005 8159104
-0.32670003 -0.069300003 0.94500005 8093310
-0.32593146 -0.069520004 0.94800007 7961981
-0.32583526 -0.06988667 0.95300007 7961468
-0.32470003 -0.070033334 0.95500004 7961211
-0.32288098 -0.070033334 0.95500004 7960954
-0.32207048 -0.070253342 0.95800006 7960699
-0.32191718 -0.07062 0.96300006 7763580
-0.32307431 -0.071280003 0.97200006 7632248
-0.32386667 -0.071866661 0.98000002 7566452
-0.32298571 -0.07208667 0.98300004 7500915
-0.32176667 -0.072233342 0.98500007 7368818
-0.32086477 -0.072453335 0.98800004 7302513
-0.31995144 -0.072673336 0.99100006 7237233
-0.31806383 -0.072673336 0.99100006 7171939
-0.31713334 -0.072893336 0.99400002 5919573
-0.31524 -0.072893336 0.99400002 4602281
-0.31334668 -0.072893336 0.99400002 10074878
-0.28234288 -0.071280003 0.97200006 15531756
-0.28049144 -0.071280003 0.97200006 11908827
-0.27864003 -0.071280003 0.97200006 8353468
-0.27678859 -0.071280003 0.97200006 9017245
-0.27408856 -0.071060002 0.96900004 9673885
-0.27224287 -0.071060002 0.96900004 9410718
-0.27039716 -0.071060002 0.96900004 9213851
-0.26855144 -0.071060002 0.96900004 8949401
-0.26670572 -0.071060002 0.96900004 8686741
-0.26486 -0.071060002 0.96900004 8357009
-0.26301429 -0.071060002 0.96900004 8094599
-0.26197717 -0.071280003 0.97200006 7501950
-0.26146382 -0.071646668 0.97700006 6908817
-0.2604 -0.071866661 0.98000002 8286116
-0.25932476 -0.07208667 0.98300004 9742801
-0.2574524 -0.07208667 0.98300004 12511486
-0.43202382 -0.068214282 0.95500004 4149093
-0.42930385 -0.068071432 0.95300007 7832189
-0.4274886 -0.068071432 0.95300007 8424854
-0.42567337 -0.068071432 0.95300007 9079443
-0.42252383 -0.067857139 0.95000005 9013904
-0.42071432 -0.067857139 0.95000005 8949395
-0.4180229 -0.067714289 0.94800007 9081239
-0.41621718 -0.067714289 0.94800007 9278865
-0.41310003 -0.06750001 0.94500005 7437963
-0.4099943 -0.067285717 0.94200003 5664116
-0.40733334 -0.067142867 0.94000006 5200478
-0.40554288 -0.067142867 0.94000006 4742246
-0.40933621 -0.068071432 0.95300007 5136238
-0.40752098 -0.068071432 0.95300007 5529460
-0.38227716 -0.066214286 0.92700005 5265780
-0.38256383 -0.066571429 0.93200004 6581108
-0.38078856 -0.066571429 0.93200004 7964041
-0.38023335 -0.066785723 0.93500006 8755615
-0.37845242 -0.066785723 0.93500006 9606813
-0.37667146 -0.066785723 0.93500006 9475227
-0.37489051 -0.066785723 0.93500006 9344153
-0.37310952 -0.066785723 0.93500006 9344407
-0.37132859 -0.066785723 0.93500006 9409944
-0.36836192 -0.066571429 0.93200004 9409946
-0.36658669 -0.066571429 0.93200004 9409691
-0.36481142 -0.066571429 0.93200004 9212828
-0.36420479 -0.066785723 0.93500006 9081244
-0.36242381 -0.066785723 0.93500006 9147036
-0.36064288 -0.066785723 0.93500006 9212060
-0.35886192 -0.066785723 0.93500006 9080989
-0.35708097 -0.066785723 0.93500006 9015451
-0.35530004 -0.066785723 0.93500006 9015449
-0.35427526 -0.066928573 0.93700004 9080728
-0.3517381 -0.066785723 0.93500006 9146262
-0.35070574 -0.066928573 0.93700004 9211285
-0.34892094 -0.066928573 0.93700004 9145492
-0.3471362 -0.066928573 0.93700004 9079956
-0.34535143 -0.066928573 0.93700004 9014676
-0.34356669 -0.066928573 0.93700004 8949139
-0.34178191 -0.066928573 0.93700004 8883603
-0.33999714 -0.066928573 0.93700004 8818063
-0.3382124 -0.066928573 0.93700004 8818060
-0.33642763 -0.066928573 0.93700004 8817546
-0.33464286 -0.066928573 0.93700004 8751752
-0.33285809 -0.066928573 0.93700004 8751495
-0.33107334 -0.066928573 0.93700004 8619655
-0.33034286 -0.067142867 0.94000006 8488325
-0.3285524 -0.067142867 0.94000006 8356740
-0.3285 -0.06750001 0.94500005 8225154
-0.32670003 -0.06750001 0.94500005 8093825
-0.32593146 -0.067714289 0.94800007 8027519
-0.32583526 -0.068071432 0.95300007 7961470
-0.32470003 -0.068214282 0.95500004 7961212
-0.32288098 -0.068214282 0.95500004 7961211
-0.32207048 -0.068428576 0.95800006 8026492
-0.32191718 -0.06878572 0.96300006 7894908
-0.32307431 -0.069428571 0.97200006 7763833
-0.32386667 -0.07 0.98000002 7698551
-0.32298571 -0.070214294 0.98300004 7632502
-0.32176667 -0.070357151 0.98500007 7500661
-0.32086477 -0.07057143 0.98800004 7368561
-0.31898287 -0.07057143 0.98800004 7237230
-0.31806383 -0.070785716 0.99100006 7171682
-0.31713334 -0.071000002 0.99400002 5854294
-0.31524 -0.071000002 0.99400002 4602794
-0.31334668 -0.071000002 0.99400002 10008062
-0.28234288 -0.069428571 0.97200006 15466219
-0.28049144 -0.069428571 0.97200006 11842520
-0.27864003 -0.069428571 0.97200006 8288187
-0.27678859 -0.069428571 0.97200006 8951711
-0.27408856 -0.069214284 0.96900004 9608350
-0.27224287 -0.069214284 0.96900004 9345438
-0.27039716 -0.069214284 0.96900004 9148571
-0.26855144 -0.069214284 0.96900004 8882841
-0.26670572 -0.069214284 0.96900004 8685713
-0.26486 -0.069214284 0.96900004 8357514
-0.26301429 -0.069214284 0.96900004 8094338
-0.2611686 -0.069214284 0.96900004 7501946
-0.26066095 -0.069571428 0.97400004 6974095
-0.2604 -0.07 0.98000002 8416420
-0.25932476 -0.070214294 0.98300004 9875153
-0.2574524 -0.070214294 0.98300004 12643326
-0.42930385 -0.066256195 0.95300007 7503484
-0.4274886 -0.066256195 0.95300007 8227990
-0.42433333 -0.066047624 0.95000005 9013650
-0.42252383 -0.066047624 0.95000005 9014158
-0.41850001 -0.065700002 0.94500005 8949904
-0.41670004 -0.065700002 0.94500005 9146771
-0.4149 -0.065700002 0.94500005 9344150
-0.41310003 -0.065700002 0.94500005 7569817
-0.4099943 -0.06549143 0.94200003 5797502
-0.40820003 -0.06549143 0.94200003 5396835
-0.4077 -0.065700002 0.94500005 5004392
-0.40590003 -0.065700002 0.94500005 5201262
-0.40752098 -0.066256195 0.95300007 5398650
-0.38351431 -0.064657152 0.93000007 5266289
-0.38256383 -0.064796194 0.93200004 6448751
-0.3820143 -0.065004766 0.93500006 7702151
-0.38023335 -0.065004766 0.93500006 8689824
-0.37845242 -0.065004766 0.93500006 9672349
-0.37667146 -0.065004766 0.93500006 9474971
-0.37489051 -0.065004766 0.93500006 9343899
-0.37310952 -0.065004766 0.93500006 9344412
-0.37132859 -0.065004766 0.93500006 9409692
-0.36836192 -0.064796194 0.93200004 9344156
-0.36658669 -0.064796194 0.93200004 9344157
-0.36481142 -0.064796194 0.93200004 9278366
-0.36303622 -0.064796194 0.93200004 9146782
-0.36126095 -0.064796194 0.93200004 9146527
-0.35948575 -0.064796194 0.93200004 9212063
-0.35771048 -0.064796194 0.93200004 9146527
-0.35708097 -0.065004766 0.93500006 9080989
-0.35530004 -0.065004766 0.93500006 9080987
-0.35351908 -0.065004766 0.93500006 9080984
-0.3517381 -0.065004766 0.93500006 9146261
-0.35070574 -0.065143809 0.93700004 9211797
-0.34892094 -0.065143809 0.93700004 9145750
-0.3471362 -0.065143809 0.93700004 9080469
-0.34535143 -0.065143809 0.93700004 9014933
-0.34356669 -0.065143809 0.93700004 9014932
-0.34178191 -0.065143809 0.93700004 8949140
-0.33999714 -0.065143809 0.93700004 8883600
-0.3382124 -0.065143809 0.93700004 8817805
-0.33642763 -0.065143809 0.93700004 8817546
-0.33464286 -0.065143809 0.93700004 8751752
-0.33285809 -0.065143809 0.93700004 8686215
-0.33107334 -0.065143809 0.93700004 8620167
-0.33034286 -0.06535238 0.94000006 8488838
-0.3285524 -0.06535238 0.94000006 8356998
-0.3285 -0.065700002 0.94500005 8290949
-0.32670003 -0.065700002 0.94500005 8159108
-0.32593146 -0.065908574 0.94800007 8027522
-0.32583526 -0.066256195 0.95300007 7961728
-0.32470003 -0.066395238 0.95500004 7961726
-0.32288098 -0.066395238 0.95500004 7961469
-0.32207048 -0.066603817 0.95800006 7961469
-0.32191718 -0.066951431 0.96300006 7895421
-0.32307431 -0.067577146 0.97200006 7829883
-0.32386667 -0.068133332 0.98000002 7764090
-0.32298571 -0.068341903 0.98300004 7698553
-0.32176667 -0.068480961 0.98500007 7566713
-0.32086477 -0.068689525 0.98800004 7434610
-0.31898287 -0.068689525 0.98800004 7237483
-0.31806383 -0.068898097 0.99100006 7106145
-0.31617621 -0.068898097 0.99100006 5789271
-0.31524 -0.069106668 0.99400002 4472490
-0.31334668 -0.069106668 0.99400002 9743102
-0.31145334 -0.069106668 0.99400002 15073022
-0.28234288 -0.067577146 0.97200006 15073001
-0.28049144 -0.067577146 0.97200006 11775189
-0.27864003 -0.067577146 0.97200006 8485051
-0.27678859 -0.067577146 0.97200006 9017249
-0.27408856 -0.067368567 0.96900004 9608352
-0.27224287 -0.067368567 0.96900004 9410719
-0.27039716 -0.067368567 0.96900004 9148828
-0.26855144 -0.067368567 0.96900004 8883097
-0.26670572 -0.067368567 0.96900004 8619918
-0.26486 -0.067368567 0.96900004 8357252
-0.26301429 -0.067368567 0.96900004 8094077
-0.26197717 -0.067577146 0.97200006 7501686
-0.26146382 -0.067924768 0.97700006 6842765
-0.2604 -0.068133332 0.98000002 8351908
-0.25932476 -0.068341903 0.98300004 9941969
-0.2574524 -0.068341903 0.98300004 12643326
-0.43020478 -0.064576194 0.95500004 7174778
-0.4274886 -0.064440951 0.95300007 8096661
-0.42433333 -0.064238101 0.95000005 9013905
-0.42252383 -0.064238101 0.95000005 9014414
-0.41982859 -0.064102866 0.94800007 9014928
-0.41670004 -0.063900001 0.94500005 9212306
-0.4149 -0.063900001 0.94500005 9474965
-0.41310003 -0.063900001 0.94500005 7701656
-0.4113 -0.063900001 0.94500005 5994109
-0.40950003 -0.063900001 0.94500005 5593443
-0.4077 -0.063900001 0.94500005 5266023
-0.40590003 -0.063900001 0.94500005 5266284
-0.40752098 -0.064440951 0.95300007 5332594
-0.38497621 -0.062547624 0.92500007 5398126
-0.38321432 -0.062547624 0.92500007 5332851
-0.38351431 -0.062885717 0.93000007 5267057
-0.38256383 -0.063020959 0.93200004 6381934
-0.3820143 -0.063223809 0.93500006 7503751
-0.38023335 -0.063223809 0.93500006 8624288
-0.37845242 -0.063223809 0.93500006 9737885
-0.37667146 -0.063223809 0.93500006 9540251
-0.37489051 -0.063223809 0.93500006 9409437
-0.37310952 -0.063223809 0.93500006 9409952
-0.37132859 -0.063223809 0.93500006 9409694
-0.36836192 -0.063020959 0.93200004 9344156
-0.36658669 -0.063020959 0.93200004 9344156
-0.36481142 -0.063020959 0.93200004 9278365
-0.36420479 -0.063223809 0.93500006 9277853
-0.36242381 -0.063223809 0.93500006 9212061
-0.36064288 -0.063223809 0.93500006 9212060
-0.35886192 -0.063223809 0.93500006 9146524
-0.35708097 -0.063223809 0.93500006 9146267
-0.35530004 -0.063223809 0.93500006 9146010
-0.35351908 -0.063223809 0.93500006 9146006
-0.35249048 -0.063359044 0.93700004 9211538
-0.34995717 -0.063223809 0.93500006 9277075
-0.34892094 -0.063359044 0.93700004 9211285
-0.3471362 -0.063359044 0.93700004 9145749
-0.34535143 -0.063359044 0.93700004 9080469
-0.34356669 -0.063359044 0.93700004 9080214
-0.34178191 -0.063359044 0.93700004 9014680
-0.33999714 -0.063359044 0.93700004 8948884
-0.3382124 -0.063359044 0.93700004 8883343
-0.33642763 -0.063359044 0.93700004 8883084
-0.33571431 -0.063561909 0.94000006 8752010
-0.33392382 -0.063561909 0.94000006 8685961
-0.33107334 -0.063359044 0.93700004 8620424
-0.33034286 -0.063561909 0.94000006 8554375
-0.3285524 -0.063561909 0.94000006 8422790
-0.32745716 -0.063697144 0.94200003 8356485
-0.32670003 -0.063900001 0.94500005 8224388
-0.32593146 -0.064102866 0.94800007 8093057
-0.32583526 -0.064440951 0.95300007 8027263
-0.32470003 -0.064576194 0.95500004 7961469
-0.32389525 -0.064779051 0.95800006 7961468
-0.32207048 -0.064779051 0.95800006 7961468
-0.32191718 -0.065117143 0.96300006 7895420
-0.32207713 -0.065522857 0.96900004 7895420
-0.32287526 -0.066063814 0.97700006 7829884
-0.322 -0.066266671 0.98000002 7829626
-0.32176667 -0.066604763 0.98500007 7632760
-0.32086477 -0.06680762 0.98800004 7500915
-0.31898287 -0.06680762 0.98800004 7303791
-0.31806383 -0.067010485 0.99100006 7106660
-0.31617621 -0.067010485 0.99100006 5724250
-0.31524 -0.067213327 0.99400002 4406954
-0.31334668 -0.067213327 0.99400002 9543931
-0.31145334 -0.067213327 0.99400002 14745340
-0.28234288 -0.065725714 0.97200006 14676710
-0.28049144 -0.065725714 0.97200006 11642318
-0.27778 -0.065522857 0.96900004 8691384
-0.27593431 -0.065522857 0.96900004 9148578
-0.27408856 -0.065522857 0.96900004 9672864
-0.27224287 -0.065522857 0.96900004 9410719
-0.27039716 -0.065522857 0.96900004 9213339
-0.26855144 -0.065522857 0.96900004 8883607
-0.26670572 -0.065522857 0.96900004 8619918
-0.26486 -0.065522857 0.96900004 8356997
-0.26301429 -0.065522857 0.96900004 8159615
-0.26197717 -0.065725714 0.97200006 7435897
-0.26066095 -0.065860949 0.97400004 6780304
-0.26119715 -0.06646952 0.98300004 8352936
-0.25985241 -0.066604763 0.98500007 10006739
-0.2579762 -0.066604763 0.98500007 12708862
-0.43020478 -0.062757149 0.95500004 6911608
-0.4274886 -0.062625714 0.95300007 7899029
-0.42567337 -0.062625714 0.95300007 8947857
-0.42385811 -0.062625714 0.95300007 8948110
-0.42071432 -0.062428575 0.95000005 8948624
-0.4180229 -0.062297143 0.94800007 9146258
-0.4149 -0.062100001 0.94500005 9409428
-0.41310003 -0.062100001 0.94500005 7899031
-0.4113 -0.062100001 0.94500005 6387325
-0.40950003 -0.062100001 0.94500005 5658724
-0.4077 -0.062100001 0.94500005 5003367
-0.40590003 -0.062100001 0.94500005 5135210
-0.40410003 -0.062100001 0.94500005 5266795
-0.38705719 -0.061114289 0.93000007 5398125
-0.38735718 -0.061442863 0.93500006 5463667
-0.38557622 -0.061442863 0.93500006 5463408
-0.38379526 -0.061442863 0.93500006 6184814
-0.3820143 -0.061442863 0.93500006 6846855
-0.38023335 -0.061442863 0.93500006 8229793
-0.37926191 -0.061574284 0.93700004 9672350
-0.37667146 -0.061442863 0.93500006 9540763
-0.37489051 -0.061442863 0.93500006 9409695
-0.37310952 -0.061442863 0.93500006 9409700
-0.37132859 -0.061442863 0.93500006 9475232
-0.36954764 -0.061442863 0.93500006 9409692
-0.36658669 -0.061245721 0.93200004 9409692
-0.36481142 -0.061245721 0.93200004 9278365
-0.36303622 -0.061245721 0.93200004 9212316
-0.36126095 -0.061245721 0.93200004 9212059
-0.35948575 -0.061245721 0.93200004 9212058
-0.35886192 -0.061442863 0.93500006 9211801
-0.35708097 -0.061442863 0.93500006 9145753
-0.35530004 -0.061442863 0.93500006 9145753
-0.35351908 -0.061442863 0.93500006 9145748
-0.3517381 -0.061442863 0.93500006 9145744
-0.35070574 -0.061574284 0.93700004 9211538
-0.34892094 -0.061574284 0.93700004 9145748
-0.3471362 -0.061574284 0.93700004 9080212
-0.34535143 -0.061574284 0.93700004 9080213
-0.34356669 -0.061574284 0.93700004 9014681
-0.34178191 -0.061574284 0.93700004 8949149
-0.33999714 -0.061574284 0.93700004 8948887
-0.3382124 -0.061574284 0.93700004 8948882
-0.3375048 -0.06177143 0.94000006 8948623
-0.33571431 -0.06177143 0.94000006 8817292
-0.33392382 -0.06177143 0.94000006 8751498
-0.33213335 -0.06177143 0.94000006 8620425
-0.33034286 -0.06177143 0.94000006 8554631
-0.3285524 -0.06177143 0.94000006 8422790
-0.32745716 -0.061902858 0.94200003 8356485
-0.32670003 -0.062100001 0.94500005 8224645
-0.32593146 -0.062297143 0.94800007 8093313
-0.32583526 -0.062625714 0.95300007 8027774
-0.32470003 -0.062757149 0.95500004 8027772
-0.32389525 -0.062954292 0.95800006 8027259
-0.32307905 -0.063151427 0.96100003 7961467
-0.32191718 -0.063282862 0.96300006 7960955
-0.32207713 -0.06367714 0.96900004 7960956
-0.32188383 -0.064005718 0.97400004 7895422
-0.322 -0.064400002 0.98000002 7895419
-0.32176667 -0.064728573 0.98500007 7764088
-0.32086477 -0.064925715 0.98800004 7632757
-0.31898287 -0.064925715 0.98800004 7369587
-0.31806383 -0.065122865 0.99100006 7172712
-0.31617621 -0.065122865 0.99100006 5921629
-0.31524 -0.06532 0.99400002 4669355
-0.31334668 -0.06532 0.99400002 9475065
-0.28049144 -0.063874289 0.97200006 11443144
-0.27864003 -0.063874289 0.97200006 8818613
-0.27593431 -0.06367714 0.96900004 9214115
-0.27408856 -0.06367714 0.96900004 9607585
-0.27224287 -0.06367714 0.96900004 9344928
-0.27039716 -0.06367714 0.96900004 9081498
-0.26855144 -0.06367714 0.96900004 8818069
-0.26670572 -0.06367714 0.96900004 8554637
-0.26486 -0.06367714 0.96900004 8356998
-0.26301429 -0.06367714 0.96900004 8094337
-0.26197717 -0.063874289 0.97200006 7436156
-0.26146382 -0.06420286 0.97700006 6844564
-0.26119715 -0.064597145 0.98300004 8418988
-0.25985241 -0.064728573 0.98500007 10005973
-0.2579762 -0.064728573 0.98500007 12576254
-0.43020478 -0.060938098 0.95500004 6648174
-0.4274886 -0.06081048 0.95300007 7767188
-0.42567337 -0.06081048 0.95300007 8882065
-0.42385811 -0.06081048 0.95300007 8882318
-0.42071432 -0.060619049 0.95000005 8883091
-0.41670004 -0.0603 0.94500005 9080217
-0.4149 -0.0603 0.94500005 9343640
-0.41310003 -0.0603 0.94500005 8096408
-0.4113 -0.0603 0.94500005 6845822
-0.40950003 -0.0603 0.94500005 5789795
-0.40640572 -0.060108572 0.94200003 4741477
-0.40590003 -0.0603 0.94500005 4938599
-0.40410003 -0.0603 0.94500005 5201001
-0.4023 -0.0603 0.94500005 5266538
-0.38705719 -0.059342861 0.93000007 5463659
-0.38735718 -0.05966191 0.93500006 5594736
-0.38557622 -0.05966191 0.93500006 5725548
-0.38379526 -0.05966191 0.93500006 5987689
-0.3820143 -0.05966191 0.93500006 6255493
-0.38104668 -0.059789527 0.93700004 7901089
-0.37926191 -0.059789527 0.93700004 9607070
-0.37667146 -0.05966191 0.93500006 9475226
-0.37489051 -0.05966191 0.93500006 9409436
-0.37310952 -0.05966191 0.93500006 9475743
-0.37132859 -0.05966191 0.93500006 9606044
-0.36954764 -0.05966191 0.93500006 9540506
-0.36658669 -0.059470478 0.93200004 9474971
-0.36481142 -0.059470478 0.93200004 9344156
-0.36303622 -0.059470478 0.93200004 9212315
-0.36242381 -0.05966191 0.93500006 9212315
-0.36064288 -0.05966191 0.93500006 9277337
-0.35886192 -0.05966191 0.93500006 9211544
-0.35708097 -0.05966191 0.93500006 9211288
-0.35530004 -0.05966191 0.93500006 9211032
-0.35427526 -0.059789527 0.93700004 9211029
-0.35249048 -0.059789527 0.93700004 9145746
-0.34995717 -0.05966191 0.93500006 9146002
-0.34817621 -0.05966191 0.93500006 9080979
-0.3471362 -0.059789527 0.93700004 9080211
-0.34535143 -0.059789527 0.93700004 9014420
-0.34356669 -0.059789527 0.93700004 9014677
-0.34178191 -0.059789527 0.93700004 8949143
-0.34108573 -0.059980955 0.94000006 8948885
-0.33929524 -0.059980955 0.94000006 8948883
-0.3375048 -0.059980955 0.94000006 9013904
-0.33571431 -0.059980955 0.94000006 8882829
-0.33392382 -0.059980955 0.94000006 8817035
-0.33213335 -0.059980955 0.94000006 8685961
-0.33034286 -0.059980955 0.94000006 8554632
-0.3285524 -0.059980955 0.94000006 8488326
-0.32745716 -0.060108572 0.94200003 8422277
-0.32670003 -0.0603 0.94500005 8225155
-0.32593146 -0.060491435 0.94800007 8093312
-0.32583526 -0.06081048 0.95300007 8093054
-0.32470003 -0.060938098 0.95500004 8158588
-0.32389525 -0.061129529 0.95800006 8093051
-0.32307905 -0.061320953 0.96100003 8027259
-0.32191718 -0.061448574 0.96300006 8026491
-0.32207713 -0.061831433 0.96900004 8026492
-0.32188383 -0.062150478 0.97400004 8026749
-0.32101431 -0.06234191 0.97700006 8026491
-0.32111335 -0.062724762 0.98300004 7895417
-0.32086477 -0.06304381 0.98800004 7764086
-0.31898287 -0.06304381 0.98800004 7501172
-0.31806383 -0.063235238 0.99100006 7303530
-0.31617621 -0.063235238 0.99100006 6119264
-0.31524 -0.063426666 0.99400002 4998568
-0.31334668 -0.063426666 0.99400002 9471984
-0.31145334 -0.063426666 0.99400002 13957111
-0.28049144 -0.062022857 0.97200006 11243960
-0.27778 -0.061831433 0.96900004 9015984
-0.27593431 -0.061831433 0.96900004 9279911
-0.27408856 -0.061831433 0.96900004 9607330
-0.27224287 -0.061831433 0.96900004 9279389
-0.27039716 -0.061831433 0.96900004 9016216
-0.26855144 -0.061831433 0.96900004 8752788
-0.26670572 -0.061831433 0.96900004 8554381
-0.26486 -0.061831433 0.96900004 8291719
-0.26301429 -0.061831433 0.96900004 8094082
-0.26197717 -0.062022857 0.97200006 7502204
-0.26146382 -0.06234191 0.97700006 6912151
-0.26119715 -0.062724762 0.98300004 8419507
-0.25932476 -0.062724762 0.98300004 10007512
-0.2574524 -0.062724762 0.98300004 12443645
-0.43564287 -0.05961429 0.96300006 3618359
-0.43020478 -0.059119053 0.95500004 6450277
-0.42838573 -0.059119053 0.95500004 7701908
-0.42567337 -0.058995239 0.95300007 8947601
-0.42474762 -0.059119053 0.95500004 8948110
-0.42204288 -0.058995239 0.95300007 8883351
-0.4180229 -0.05868572 0.94800007 9146016
-0.41621718 -0.05868572 0.94800007 9343645
-0.41310003 -0.058500003 0.94500005 8228506
-0.4113 -0.058500003 0.94500005 7107966
-0.40950003 -0.058500003 0.94500005 5986403
-0.4077 -0.058500003 0.94500005 4872804
-0.40590003 -0.058500003 0.94500005 5069925
-0.40410003 -0.058500003 0.94500005 5267047
-0.4023 -0.058500003 0.94500005 5266793
-0.38882858 -0.057571433 0.93000007 5332581
-0.38705719 -0.057571433 0.93000007 5463401
-0.38735718 -0.057880957 0.93500006 5529197
-0.38557622 -0.057880957 0.93500006 5660520
-0.38379526 -0.057880957 0.93500006 5791076
-0.38283145 -0.058004763 0.93700004 5991811
-0.38104668 -0.058004763 0.93700004 7835810
-0.37926191 -0.058004763 0.93700004 9607582
-0.37747714 -0.058004763 0.93700004 9475226
-0.37489051 -0.057880957 0.93500006 9409434
-0.37310952 -0.057880957 0.93500006 9474970
-0.37132859 -0.057880957 0.93500006 9540505
-0.36954764 -0.057880957 0.93500006 9474968
-0.36658669 -0.05769524 0.93200004 9409434
-0.36481142 -0.05769524 0.93200004 9278364
-0.36303622 -0.05769524 0.93200004 9147035
-0.36242381 -0.057880957 0.93500006 9212059
-0.36064288 -0.057880957 0.93500006 9276825
-0.35886192 -0.057880957 0.93500006 9211288
-0.35708097 -0.057880957 0.93500006 9211543
-0.35530004 -0.057880957 0.93500006 9146007
-0.35351908 -0.057880957 0.93500006 9146261
-0.3517381 -0.057880957 0.93500006 9080468
-0.34995717 -0.057880957 0.93500006 9080467
-0.34817621 -0.057880957 0.93500006 9014674
-0.34639525 -0.057880957 0.93500006 8949138
-0.34535143 -0.058004763 0.93700004 8949139
-0.34356669 -0.058004763 0.93700004 8949138
-0.3428762 -0.058190476 0.94000006 8883602
-0.34108573 -0.058190476 0.94000006 8883603
-0.33929524 -0.058190476 0.94000006 8948884
-0.33822286 -0.05831429 0.94200003 9013649
-0.33642858 -0.05831429 0.94200003 8882830
-0.33463427 -0.05831429 0.94200003 8817548
-0.33213335 -0.058190476 0.94000006 8751498
-0.33034286 -0.058190476 0.94000006 8620168
-0.32925144 -0.05831429 0.94200003 8488327
-0.32745716 -0.05831429 0.94200003 8422532
-0.32670003 -0.058500003 0.94500005 8290690
-0.32593146 -0.05868572 0.94800007 8158848
-0.32583526 -0.058995239 0.95300007 8158846
-0.32470003 -0.059119053 0.95500004 8093308
-0.32288098 -0.059119053 0.95500004 8093051
-0.32307905 -0.059490476 0.96100003 8027515
-0.32191718 -0.05961429 0.96300006 8027260
-0.32207713 -0.05998572 0.96900004 8027004
-0.32122287 -0.060171433 0.97200006 8027005
-0.322 -0.060666665 0.98000002 8027003
-0.32176667 -0.060976192 0.98500007 7895674
-0.32086477 -0.061161906 0.98800004 7829880
-0.31898287 -0.061161906 0.98800004 7566710
-0.31806383 -0.061347619 0.99100006 7303533
-0.31713334 -0.061533332 0.99400002 6185572
-0.31524 -0.061533332 0.99400002 5131429
-0.31334668 -0.061533332 0.99400002 9139943
-0.31145334 -0.061533332 0.99400002 13234674
-0.27962574 -0.05998572 0.96900004 10981033
-0.27778 -0.05998572 0.96900004 9148074
-0.27593431 -0.05998572 0.96900004 9345452
-0.27408856 -0.05998572 0.96900004 9541795
-0.27224287 -0.05998572 0.96900004 9279387
-0.27039716 -0.05998572 0.96900004 9016471
-0.26855144 -0.05998572 0.96900004 8752019
-0.26670572 -0.05998572 0.96900004 8488846
-0.26568002 -0.060171433 0.97200006 8291465
-0.26382858 -0.060171433 0.97200006 8028547
-0.26197717 -0.060171433 0.97200006 7501437
-0.26146382 -0.060480956 0.97700006 6972571
-0.26172861 -0.060976192 0.98500007 8552378
-0.25985241 -0.060976192 0.98500007 10205659
-0.2579762 -0.060976192 0.98500007 12640509
-0.43564287 -0.057780001 0.96300006 3617589
-0.43155622 -0.057480004 0.95800006 6252643
-0.42838573 -0.057300001 0.95500004 7636626
-0.42567337 -0.057180006 0.95300007 9078672
-0.42474762 -0.057300001 0.95500004 9013903
-0.42204288 -0.057180006 0.95300007 8948628
-0.4180229 -0.056880001 0.94800007 9146522
-0.41621718 -0.056880001 0.94800007 9408921
-0.41310003 -0.056700002 0.94500005 8360600
-0.4113 -0.056700002 0.94500005 7370876
-0.40950003 -0.056700002 0.94500005 6183008
-0.4077 -0.056700002 0.94500005 5004128
-0.40590003 -0.056700002 0.94500005 5136225
-0.40410003 -0.056700002 0.94500005 5332836
-0.4023 -0.056700002 0.94500005 5332840
-0.39060003 -0.055800002 0.93000007 5332582
-0.38882858 -0.055800002 0.93000007 5398116
-0.38997048 -0.056220002 0.93700004 5463655
-0.38735718 -0.056100003 0.93500006 5529194
-0.38557622 -0.056100003 0.93500006 5594725
-0.38379526 -0.056100003 0.93500006 5660257
-0.38283145 -0.056220002 0.93700004 5794176
-0.38104668 -0.056220002 0.93700004 7704992
-0.37926191 -0.056220002 0.93700004 9672092
-0.37747714 -0.056220002 0.93700004 9540761
-0.37489051 -0.056100003 0.93500006 9409689
-0.37310952 -0.056100003 0.93500006 9409946
-0.37132859 -0.056100003 0.93500006 9474970
-0.36954764 -0.056100003 0.93500006 9409434
-0.36776668 -0.056100003 0.93500006 9343898
-0.36598575 -0.056100003 0.93500006 9212826
-0.36420479 -0.056100003 0.93500006 9146778
-0.36242381 -0.056100003 0.93500006 9211801
-0.36064288 -0.056100003 0.93500006 9277336
-0.35886192 -0.056100003 0.93500006 9212055
-0.35708097 -0.056100003 0.93500006 9211542
-0.35530004 -0.056100003 0.93500006 9146006
-0.35351908 -0.056100003 0.93500006 9080468
-0.3517381 -0.056100003 0.93500006 9014931
-0.34995717 -0.056100003 0.93500006 9014930
-0.34892094 -0.056220002 0.93700004 8883858
-0.34639525 -0.056100003 0.93500006 8818066
-0.34535143 -0.056220002 0.93700004 8884115
-0.34466669 -0.056400005 0.94000006 8949650
-0.3428762 -0.056400005 0.94000006 8884114
-0.34108573 -0.056400005 0.94000006 8818066
-0.33929524 -0.056400005 0.94000006 8883346
-0.33822286 -0.05652 0.94200003 9014160
-0.33642858 -0.05652 0.94200003 8948621
-0.33463427 -0.05652 0.94200003 8883084
-0.33213335 -0.056400005 0.94000006 8817290
-0.33104575 -0.05652 0.94200003 8751239
-0.32925144 -0.05652 0.94200003 8554117
-0.3285 -0.056700002 0.94500005 8422531
-0.32670003 -0.056700002 0.94500005 8356482
-0.32593146 -0.056880001 0.94800007 8290176
-0.32583526 -0.057180006 0.95300007 8158846
-0.32470003 -0.057300001 0.95500004 8093309
-0.32389525 -0.057480004 0.95800006 8093563
-0.32307905 -0.057660002 0.96100003 8093308
-0.32191718 -0.057780001 0.96300006 8027517
-0.32207713 -0.058139998 0.96900004 8027517
-0.32122287 -0.058320004 0.97200006 8027517
-0.322 -0.058800001 0.98000002 8092796
-0.32111335 -0.058979999 0.98300004 7961723
-0.3198905 -0.059100002 0.98500007 7895674
-0.31898287 -0.059280004 0.98800004 7632504
-0.31710097 -0.059280004 0.98800004 7369329
-0.31617621 -0.059460003 0.99100006 6317674
-0.31428859 -0.059460003 0.99100006 5269142
-0.31240097 -0.059460003 0.99100006 8873666
-0.31051335 -0.059460003 0.99100006 12573408
-0.28049144 -0.058320004 0.97200006 10783651
-0.27778 -0.058139998 0.96900004 9279398
-0.27593431 -0.058139998 0.96900004 9345705
-0.27408856 -0.058139998 0.96900004 9476001
-0.27224287 -0.058139998 0.96900004 9213849
-0.27039716 -0.058139998 0.96900004 9016469
-0.26855144 -0.058139998 0.96900004 8751249
-0.26753145 -0.058320004 0.97200006 8488843
-0.26568002 -0.058320004 0.97200006 8225925
-0.26382858 -0.058320004 0.97200006 8028029
-0.26197717 -0.058320004 0.97200006 7500660
-0.26226667 -0.058800001 0.98000002 7039385
-0.2604 -0.058800001 0.98000002 8685503
-0.25853333 -0.058800001 0.98000002 10402013
-0.2579762 -0.059100002 0.98500007 12837628
-0.43564287 -0.055945717 0.96300006 3483443
-0.43290761 -0.055829525 0.96100003 5923937
-0.42838573 -0.055480953 0.95500004 7438992
-0.42656669 -0.055480953 0.95500004 9013392
-0.42474762 -0.055480953 0.95500004 8948112
-0.42292857 -0.055480953 0.95500004 8883090
-0.42022765 -0.055364765 0.95300007 9146260
-0.41709524 -0.055190481 0.95000005 9408917
-0.41441146 -0.055074289 0.94800007 8491927
-0.41260573 -0.055074289 0.94800007 7568250
-0.40950003 -0.054900002 0.94500005 6249053
-0.4077 -0.054900002 0.94500005 4939101
-0.40590003 -0.054900002 0.94500005 5135965
-0.40281716 -0.054725714 0.94200003 5267298
-0.40102285 -0.054725714 0.94200003 5332839
-0.39448097 -0.05431905 0.93500006 5332585
-0.39270002 -0.05431905 0.93500006 5267046
-0.39175525 -0.054435238 0.93700004 5332580
-0.38913813 -0.05431905 0.93500006 5398117
-0.38735718 -0.05431905 0.93500006 5463655
-0.38557622 -0.05431905 0.93500006 5529699
-0.38379526 -0.05431905 0.93500006 5528671
-0.38283145 -0.054435238 0.93700004 5465470
-0.38104668 -0.054435238 0.93700004 7506078
-0.37926191 -0.054435238 0.93700004 9606811
-0.37747714 -0.054435238 0.93700004 9475480
-0.3756924 -0.054435238 0.93700004 9344153
-0.37390766 -0.054435238 0.93700004 9409691
-0.37212285 -0.054435238 0.93700004 9409691
-0.37033811 -0.054435238 0.93700004 9409692
-0.36776668 -0.05431905 0.93500006 9344410
-0.36598575 -0.05431905 0.93500006 9278361
-0.36420479 -0.05431905 0.93500006 9277848
-0.36242381 -0.05431905 0.93500006 9212056
-0.36064288 -0.05431905 0.93500006 9211799
-0.35886192 -0.05431905 0.93500006 9211542
-0.35708097 -0.05431905 0.93500006 9146005
-0.35530004 -0.05431905 0.93500006 9080213
-0.35351908 -0.05431905 0.93500006 9014676
-0.3517381 -0.05431905 0.93500006 9080467
-0.34995717 -0.05431905 0.93500006 9146002
-0.34817621 -0.05431905 0.93500006 9014930
-0.34639525 -0.05431905 0.93500006 8883602
-0.34535143 -0.054435238 0.93700004 8949139
-0.34356669 -0.054435238 0.93700004 9014931
-0.3428762 -0.054609526 0.94000006 8949395
-0.34108573 -0.054609526 0.94000006 8883858
-0.33929524 -0.054609526 0.94000006 8948881
-0.3375048 -0.054609526 0.94000006 8948879
-0.33642858 -0.054725714 0.94200003 8883085
-0.33463427 -0.054725714 0.94200003 8817548
-0.33284003 -0.054725714 0.94200003 8817291
-0.33104575 -0.054725714 0.94200003 8751495
-0.32925144 -0.054725714 0.94200003 8619907
-0.3285 -0.054900002 0.94500005 8488067
-0.32670003 -0.054900002 0.94500005 8422019
-0.32593146 -0.055074289 0.94800007 8290433
-0.32583526 -0.055364765 0.95300007 8224895
-0.32402003 -0.055364765 0.95300007 8159613
-0.32389525 -0.055655241 0.95800006 8093308
-0.32307905 -0.055829525 0.96100003 8093565
-0.32191718 -0.055945717 0.96300006 8093566
-0.32207713 -0.056294285 0.96900004 8093566
-0.32122287 -0.056468572 0.97200006 8093310
-0.32101431 -0.056759052 0.97700006 8158845
-0.32013336 -0.056933336 0.98000002 8027517
-0.3198905 -0.057223812 0.98500007 7961724
-0.31898287 -0.057398096 0.98800004 7698555
-0.31710097 -0.057398096 0.98800004 7435126
-0.31617621 -0.057572383 0.99100006 6777713
-0.31428859 -0.057572383 0.99100006 6184839
-0.31240097 -0.057572383 0.99100006 7890077
-0.31051335 -0.057572383 0.99100006 9618637
-0.28379524 -0.056759052 0.97700006 10991309
-0.28049144 -0.056468572 0.97200006 10326429
-0.27864003 -0.056468572 0.97200006 9673121
-0.27593431 -0.056294285 0.96900004 9542310
-0.27408856 -0.056294285 0.96900004 9475999
-0.27224287 -0.056294285 0.96900004 9213336
-0.27039716 -0.056294285 0.96900004 9016468
-0.26855144 -0.056294285 0.96900004 8751504
-0.26670572 -0.056294285 0.96900004 8488841
-0.26568002 -0.056468572 0.97200006 8225666
-0.26382858 -0.056468572 0.97200006 8027767
-0.2625162 -0.056584764 0.97400004 7697004
-0.26066095 -0.056584764 0.97400004 7368344
-0.25960287 -0.056759052 0.97700006 8884420
-0.25774193 -0.056759052 0.97700006 10402016
-0.43747714 -0.054111432 0.96300006 1056052
-0.43564287 -0.054111432 0.96300006 3349296
-0.43290761 -0.053999048 0.96100003 5661021
-0.42973143 -0.053830478 0.95800006 7307146
-0.42656669 -0.053661905 0.95500004 8947343
-0.42608193 -0.053830478 0.95800006 8882580
-0.42292857 -0.053661905 0.95500004 8883092
-0.42110953 -0.053661905 0.95500004 9146003
-0.41841242 -0.053549528 0.95300007 9408661
-0.41528574 -0.053380955 0.95000005 8623256
-0.4134762 -0.053380955 0.95000005 7830909
-0.40950003 -0.053100005 0.94500005 6380642
-0.4077 -0.053100005 0.94500005 4939106
-0.40590003 -0.053100005 0.94500005 5070434
-0.40410003 -0.053100005 0.94500005 5267045
-0.40102285 -0.052931432 0.94200003 5332584
-0.39321524 -0.052369528 0.93200004 5332590
-0.39144 -0.052369528 0.93200004 5267051
-0.39091906 -0.052538101 0.93500006 5332584
-0.38913813 -0.052538101 0.93500006 5398119
-0.38735718 -0.052538101 0.93500006 5463911
-0.38557622 -0.052538101 0.93500006 5529445
-0.38379526 -0.052538101 0.93500006 5331555
-0.38283145 -0.052650478 0.93700004 5201277
-0.38104668 -0.052650478 0.93700004 7372952
-0.37926191 -0.052650478 0.93700004 9541787
-0.37747714 -0.052650478 0.93700004 9410206
-0.3756924 -0.052650478 0.93700004 9343901
-0.37390766 -0.052650478 0.93700004 9343899
-0.37212285 -0.052650478 0.93700004 9409692
-0.37033811 -0.052650478 0.93700004 9409692
-0.36855334 -0.052650478 0.93700004 9409692
-0.3667686 -0.052650478 0.93700004 9409693
-0.3649838 -0.052650478 0.93700004 9408923
-0.36242381 -0.052538101 0.93500006 9277849
-0.36064288 -0.052538101 0.93500006 9211543
-0.35886192 -0.052538101 0.93500006 9146005
-0.35708097 -0.052538101 0.93500006 9145746
-0.35530004 -0.052538101 0.93500006 9080208
-0.35351908 -0.052538101 0.93500006 9014673
-0.3517381 -0.052538101 0.93500006 9146002
-0.34995717 -0.052538101 0.93500006 9277073
-0.34817621 -0.052538101 0.93500006 9146257
-0.34639525 -0.052538101 0.93500006 9014674
-0.34535143 -0.052650478 0.93700004 9080211
-0.34356669 -0.052650478 0.93700004 9145746
-0.34178191 -0.052650478 0.93700004 9079954
-0.33999714 -0.052650478 0.93700004 9014419
-0.3382124 -0.052650478 0.93700004 8948883
-0.3375048 -0.052819051 0.94000006 8948880
-0.33571431 -0.052819051 0.94000006 8883342
-0.33392382 -0.052819051 0.94000006 8817548
-0.33213335 -0.052819051 0.94000006 8817547
-0.33104575 -0.052931432 0.94200003 8817032
-0.32925144 -0.052931432 0.94200003 8685958
-0.32745716 -0.052931432 0.94200003 8619140
-0.32670003 -0.053100005 0.94500005 8487555
-0.32661906 -0.053380955 0.95000005 8356225
-0.32583526 -0.053549528 0.95300007 8290687
-0.32402003 -0.053549528 0.95300007 8225150
-0.32288098 -0.053661905 0.95500004 8158845
-0.32307905 -0.053999048 0.96100003 8159101
-0.32191718 -0.054111432 0.96300006 8159101
-0.32207713 -0.054448571 0.96900004 8224638
-0.32023144 -0.054448571 0.96900004 8224895
-0.32002857 -0.054729525 0.97400004 8224894
-0.31915334 -0.054898094 0.97700006 8159613
-0.31924096 -0.055235241 0.98300004 8093308
-0.31898287 -0.055516195 0.98800004 7830140
-0.31710097 -0.055516195 0.98800004 7566712
-0.31617621 -0.055684764 0.99100006 7303285
-0.31428859 -0.055684764 0.99100006 7104892
-0.31240097 -0.055684764 0.99100006 6841220
-0.28653336 -0.055066667 0.98000002 12903930
-0.28379524 -0.054898094 0.97700006 9674699
-0.28106856 -0.054729525 0.97400004 9869213
-0.27864003 -0.054617144 0.97200006 10066081
-0.27593431 -0.054448571 0.96900004 9738917
-0.27408856 -0.054448571 0.96900004 9475487
-0.27224287 -0.054448571 0.96900004 9213081
-0.27039716 -0.054448571 0.96900004 9015443
-0.26855144 -0.054448571 0.96900004 8751757
-0.26753145 -0.054617144 0.97200006 8488328
-0.26568002 -0.054617144 0.97200006 8290946
-0.26382858 -0.054617144 0.97200006 8092792
-0.2625162 -0.054729525 0.97400004 7893615
-0.26226667 -0.055066667 0.98000002 7763098
-0.2604 -0.055066667 0.98000002 9083334
-0.25774193 -0.054898094 0.97700006 10466273
-0.43747714 -0.052277144 0.96300006 1120562
-0.43564287 -0.052277144 0.96300006 3219501
-0.43290761 -0.05216857 0.96100003 5332568
-0.42973143 -0.052005716 0.95800006 7175300
-0.42790669 -0.052005716 0.95800006 8947086
-0.42608193 -0.052005716 0.95800006 8882329
-0.42292857 -0.051842857 0.95500004 8883094
-0.42022765 -0.051734287 0.95300007 9080211
-0.41709524 -0.051571429 0.95000005 9342870
-0.41528574 -0.051571429 0.95000005 8622745
-0.41260573 -0.051462859 0.94800007 7962752
-0.40950003 -0.0513 0.94500005 6380903
-0.40640572 -0.051137142 0.94200003 4872551
-0.40461144 -0.051137142 0.94200003 5070184
-0.40281716 -0.051137142 0.94200003 5267304
-0.39321524 -0.050594285 0.93200004 5332596
-0.39144 -0.050594285 0.93200004 5332848
-0.39091906 -0.050757144 0.93500006 5332588
-0.38913813 -0.050757144 0.93500006 5398121
-0.38818571 -0.050865714 0.93700004 5398119
-0.38557622 -0.050757144 0.93500006 5463911
-0.38379526 -0.050757144 0.93500006 5331303
-0.38283145 -0.050865714 0.93700004 5133692
-0.38104668 -0.050865714 0.93700004 7241618
-0.37926191 -0.050865714 0.93700004 9411227
-0.37747714 -0.050865714 0.93700004 9410469
-0.3756924 -0.050865714 0.93700004 9409440
-0.37390766 -0.050865714 0.93700004 9409436
-0.37212285 -0.050865714 0.93700004 9344156
-0.37033811 -0.050865714 0.93700004 9343901
-0.36855334 -0.050865714 0.93700004 9409183
-0.3667686 -0.050865714 0.93700004 9343649
-0.36420479 -0.050757144 0.93500006 9343645
-0.36242381 -0.050757144 0.93500006 9277594
-0.36064288 -0.050757144 0.93500006 9211543
-0.35886192 -0.050757144 0.93500006 9146004
-0.35708097 -0.050757144 0.93500006 9079695
-0.35530004 -0.050757144 0.93500006 9080203
-0.35351908 -0.050757144 0.93500006 9014670
-0.3517381 -0.050757144 0.93500006 9080465
-0.34995717 -0.050757144 0.93500006 9146257
-0.34817621 -0.050757144 0.93500006 9080465
-0.34639525 -0.050757144 0.93500006 9014930
-0.34535143 -0.050865714 0.93700004 9014675
-0.34356669 -0.050865714 0.93700004 9080210
-0.34178191 -0.050865714 0.93700004 9014418
-0.33999714 -0.050865714 0.93700004 9014420
-0.3382124 -0.050865714 0.93700004 9014166
-0.3375048 -0.051028572 0.94000006 9014162
-0.33571431 -0.051028572 0.94000006 8883087
-0.33392382 -0.051028572 0.94000006 8817549
-0.33213335 -0.051028572 0.94000006 8817548
-0.33104575 -0.051137142 0.94200003 8817290
-0.32925144 -0.051137142 0.94200003 8685961
-0.32745716 -0.051137142 0.94200003 8619142
-0.32670003 -0.0513 0.94500005 8487811
-0.32661906 -0.051571429 0.95000005 8421761
-0.32583526 -0.051734287 0.95300007 8356224
-0.32402003 -0.051734287 0.95300007 8225407
-0.32288098 -0.051842857 0.95500004 8225151
-0.32307905 -0.05216857 0.96100003 8224893
-0.32191718 -0.052277144 0.96300006 8290428
-0.32108 -0.052439999 0.96600002 8356990
-0.32023144 -0.052602857 0.96900004 8356736
-0.32002857 -0.052874286 0.97400004 8356734
-0.31915334 -0.053037144 0.97700006 8225405
-0.31924096 -0.053362858 0.98300004 8159357
-0.31898287 -0.053634286 0.98800004 7895934
-0.31806383 -0.053797144 0.99100006 7632763
-0.31713334 -0.053959999 0.99400002 7500409
-0.31524 -0.053959999 0.99400002 7369074
-0.28653336 -0.053199999 0.98000002 12702198
-0.28292382 -0.052874286 0.97400004 9406666
-0.28049144 -0.052765716 0.97200006 9672862
-0.27864003 -0.052765716 0.97200006 10002337
-0.27593431 -0.052602857 0.96900004 9673125
-0.27408856 -0.052602857 0.96900004 9409695
-0.27224287 -0.052602857 0.96900004 9147034
-0.27039716 -0.052602857 0.96900004 8883346
-0.26855144 -0.052602857 0.96900004 8620427
-0.26753145 -0.052765716 0.97200006 8422535
-0.26568002 -0.052765716 0.97200006 8093827
-0.26437142 -0.052874286 0.97400004 7830394
-0.2625162 -0.052874286 0.97400004 7961202
-0.26226667 -0.053199999 0.98000002 8092317
-0.26119715 -0.053362858 0.98300004 9216713
-0.25932476 -0.053362858 0.98300004 10333922
-0.43564287 -0.05044286 0.96300006 3089696
-0.43290761 -0.050338093 0.96100003 5067089
-0.42973143 -0.050180953 0.95800006 7043715
-0.42790669 -0.050180953 0.95800006 9013390
-0.42474762 -0.050023809 0.95500004 8947609
-0.42292857 -0.050023809 0.95500004 8882839
-0.42022765 -0.04991905 0.95300007 9079957
-0.41709524 -0.049761906 0.95000005 9277080
-0.41528574 -0.049761906 0.95000005 8687772
-0.41260573 -0.049657144 0.94800007 8095361
-0.40950003 -0.049500003 0.94500005 6446694
-0.40640572 -0.04934286 0.94200003 4807527
-0.40461144 -0.04934286 0.94200003 5004391
-0.40281716 -0.04934286 0.94200003 5267303
-0.38913813 -0.048976194 0.93500006 5397865
-0.38818571 -0.049080957 0.93700004 5398120
-0.38557622 -0.048976194 0.93500006 5463655
-0.3846162 -0.049080957 0.93700004 5265511
-0.38283145 -0.049080957 0.93700004 5133690
-0.3822667 -0.049238101 0.94000006 7175821
-0.37926191 -0.049080957 0.93700004 9278614
-0.37747714 -0.049080957 0.93700004 9410720
-0.37689525 -0.049238101 0.94000006 9540765
-0.37390766 -0.049080957 0.93700004 9409690
-0.37212285 -0.049080957 0.93700004 9344155
-0.37033811 -0.049080957 0.93700004 9343643
-0.36855334 -0.049080957 0.93700004 9409180
-0.3667686 -0.049080957 0.93700004 9343644
-0.36420479 -0.048976194 0.93500006 9343642
-0.36242381 -0.048976194 0.93500006 9277592
-0.36064288 -0.048976194 0.93500006 9211798
-0.35886192 -0.048976194 0.93500006 9146260
-0.35708097 -0.048976194 0.93500006 9080465
-0.35530004 -0.048976194 0.93500006 9080463
-0.35351908 -0.048976194 0.93500006 9080464
-0.3517381 -0.048976194 0.93500006 9080977
-0.34995717 -0.048976194 0.93500006 9080465
-0.34817621 -0.048976194 0.93500006 9014673
-0.34639525 -0.048976194 0.93500006 9014673
-0.34535143 -0.049080957 0.93700004 9014929
-0.34356669 -0.049080957 0.93700004 9014673
-0.34178191 -0.049080957 0.93700004 9014674
-0.33999714 -0.049080957 0.93700004 9014419
-0.3382124 -0.049080957 0.93700004 9014164
-0.3375048 -0.049238101 0.94000006 9079697
-0.33571431 -0.049238101 0.94000006 8948879
-0.33392382 -0.049238101 0.94000006 8883086
-0.33213335 -0.049238101 0.94000006 8817549
-0.33104575 -0.04934286 0.94200003 8817292
-0.32925144 -0.04934286 0.94200003 8685963
-0.3285 -0.049500003 0.94500005 8619401
-0.32670003 -0.049500003 0.94500005 8553607
-0.32661906 -0.049761906 0.95000005 8552836
-0.32583526 -0.04991905 0.95300007 8422017
-0.32402003 -0.04991905 0.95300007 8290689
-0.32288098 -0.050023809 0.95500004 8290689
-0.32307905 -0.050338093 0.96100003 8356224
-0.32191718 -0.05044286 0.96300006 8422015
-0.32108 -0.0506 0.96600002 8488065
-0.32023144 -0.050757144 0.96900004 8488324
-0.32002857 -0.05101905 0.97400004 8488066
-0.31915334 -0.051176194 0.97700006 8356992
-0.31924096 -0.051490478 0.98300004 8290688
-0.31898287 -0.051752381 0.98800004 8027520
-0.31806383 -0.051909529 0.99100006 7764349
-0.31713334 -0.052066669 0.99400002 7697786
-0.31524 -0.052066669 0.99400002 7631480
-0.28234288 -0.050914288 0.97200006 9143744
-0.28049144 -0.050914288 0.97200006 9542051
-0.27864003 -0.050914288 0.97200006 9935267
-0.27593431 -0.050757144 0.96900004 9607587
-0.27408856 -0.050757144 0.96900004 9344927
-0.27224287 -0.050757144 0.96900004 9081244
-0.27039716 -0.050757144 0.96900004 8817555
-0.26855144 -0.050757144 0.96900004 8554890
-0.26753145 -0.050914288 0.97200006 8357256
-0.26568002 -0.050914288 0.97200006 7962502
-0.26437142 -0.05101905 0.97400004 7567233
-0.2633248 -0.051176194 0.97700006 7958652
-0.26226667 -0.051333334 0.98000002 8423844
-0.26119715 -0.051490478 0.98300004 9350348
-0.25932476 -0.051490478 0.98300004 10267875
-0.43155622 -0.04835619 0.95800006 4080715
-0.42973143 -0.04835619 0.95800006 6518659
-0.42790669 -0.04835619 0.95800006 9014414
-0.42474762 -0.048204765 0.95500004 8948121
-0.42292857 -0.048204765 0.95500004 8882584
-0.42022765 -0.048103813 0.95300007 9014423
-0.41709524 -0.047952384 0.95000005 9080219
-0.41528574 -0.047952384 0.95000005 8818847
-0.41260573 -0.047851432 0.94800007 8490114
-0.40950003 -0.047700003 0.94500005 6579046
-0.4077 -0.047700003 0.94500005 4676454
-0.40590003 -0.047700003 0.94500005 4938599
-0.40410003 -0.047700003 0.94500005 5267301
-0.38818571 -0.047296192 0.93700004 5398121
-0.38557622 -0.047195241 0.93500006 5463656
-0.3846162 -0.047296192 0.93700004 5265768
-0.38283145 -0.047296192 0.93700004 5068152
-0.3822667 -0.047447622 0.94000006 7109000
-0.37926191 -0.047296192 0.93700004 9080721
-0.37747714 -0.047296192 0.93700004 9214363
-0.37689525 -0.047447622 0.94000006 9409946
-0.37390766 -0.047296192 0.93700004 9344153
-0.37212285 -0.047296192 0.93700004 9344153
-0.37033811 -0.047296192 0.93700004 9343898
-0.36855334 -0.047296192 0.93700004 9343897
-0.3667686 -0.047296192 0.93700004 9409176
-0.3649838 -0.047296192 0.93700004 9474711
-0.36242381 -0.047195241 0.93500006 9343127
-0.36064288 -0.047195241 0.93500006 9211797
-0.35886192 -0.047195241 0.93500006 9146260
-0.35708097 -0.047195241 0.93500006 9080724
-0.35530004 -0.047195241 0.93500006 9080724
-0.35351908 -0.047195241 0.93500006 9080723
-0.3517381 -0.047195241 0.93500006 9080466
-0.34995717 -0.047195241 0.93500006 9080466
-0.34817621 -0.047195241 0.93500006 9080210
-0.34639525 -0.047195241 0.93500006 9079696
-0.34535143 -0.047296192 0.93700004 9014671
-0.34356669 -0.047296192 0.93700004 9014928
-0.34178191 -0.047296192 0.93700004 8949138
-0.33999714 -0.047296192 0.93700004 8883602
-0.3382124 -0.047296192 0.93700004 8948882
-0.3375048 -0.047447622 0.94000006 8948881
-0.33571431 -0.047447622 0.94000006 8948880
-0.33392382 -0.047447622 0.94000006 8883343
-0.33213335 -0.047447622 0.94000006 8817550
-0.33104575 -0.047548573 0.94200003 8817550
-0.32925144 -0.047548573 0.94200003 8685966
-0.32745716 -0.047548573 0.94200003 8619917
-0.32670003 -0.047700003 0.94500005 8553612
-0.32661906 -0.047952384 0.95000005 8553095
-0.32480955 -0.047952384 0.95000005 8422019
-0.32402003 -0.048103813 0.95300007 8290691
-0.32288098 -0.048204765 0.95500004 8290691
-0.32307905 -0.04850762 0.96100003 8356226
-0.32191718 -0.048608571 0.96300006 8422018
-0.32108 -0.048760001 0.96600002 8488325
-0.32023144 -0.04891143 0.96900004 8553864
-0.32002857 -0.049163811 0.97400004 8553862
-0.31817332 -0.049163811 0.97400004 8422532
-0.31826666 -0.04946667 0.98000002 8356739
-0.31801432 -0.049719054 0.98500007 8093571
-0.31710097 -0.049870476 0.98800004 7895935
-0.31617621 -0.050021905 0.99100006 7764348
-0.31428859 -0.050021905 0.99100006 7698559
-0.28419429 -0.049062859 0.97200006 12102340
-0.28234288 -0.049062859 0.97200006 9208502
-0.28049144 -0.049062859 0.97200006 9476521
-0.27864003 -0.049062859 0.97200006 9804709
-0.27593431 -0.04891143 0.96900004 9542562
-0.27408856 -0.04891143 0.96900004 9280416
-0.27224287 -0.04891143 0.96900004 9015198
-0.27039716 -0.04891143 0.96900004 8751763
-0.26855144 -0.04891143 0.96900004 8554889
-0.26753145 -0.049062859 0.97200006 8357513
-0.26568002 -0.049062859 0.97200006 7896714
-0.26437142 -0.049163811 0.97400004 7435144
-0.2633248 -0.04931524 0.97700006 8285063
-0.26226667 -0.04946667 0.98000002 9148587
-0.2604 -0.04946667 0.98000002 9744591
-0.25932476 -0.049618099 0.98300004 10398436
-0.43380859 -0.046774287 0.96300006 3096137
