# .PCD v0.7 - Point Cloud Data file format
VERSION 0.7
FIELDS x y z rgba
SIZE 4 4 4 4
TYPE F F F U
COUNT 1 1 1 1
WIDTH 1088
HEIGHT 1
VIEWPOINT 0 0 0 1 0 0 0
POINTS 1088
DATA ascii
-0.13226667 -0.034986667 0.89600003 9870501
-0.13056 -0.034986667 0.89600003 9870497
-0.12914096 -0.035064761 0.89800006 9739166
-0.12743048 -0.035064761 0.89800006 9673630
-0.12614 -0.035181906 0.90100002 9607582
-0.12442381 -0.035181906 0.90100002 9541792
-0.12298001 -0.035260003 0.90300006 9476258
-0.12099143 -0.035181906 0.90100002 9410720
-0.11927524 -0.035181906 0.90100002 9344670
-0.11782 -0.035260003 0.90300006 9279132
-0.11610001 -0.035260003 0.90300006 9344666
-0.11438 -0.035260003 0.90300006 9409689
-0.11266001 -0.035260003 0.90300006 9344153
-0.11118571 -0.035338093 0.90500003 9278871
-0.10946191 -0.035338093 0.90500003 9278613
-0.1077381 -0.035338093 0.90500003 9212567
-0.10636572 -0.035455238 0.90800005 9278105
-0.10463619 -0.035455238 0.90800005 9409432
-0.10290667 -0.035455238 0.90800005 9277847
-0.10173429 -0.035650477 0.91300005 9146517
-0.099995241 -0.035650477 0.91300005 9080467
-0.098256193 -0.035650477 0.91300005 9014673
-0.096728571 -0.03572857 0.91500002 8883088
-0.094985716 -0.03572857 0.91500002 8751756
-0.093446672 -0.035806671 0.91700006 8620169
-0.091700003 -0.035806671 0.91700006 8489862
-0.089560956 -0.035650477 0.91300005 8358276
-0.087821908 -0.035650477 0.91300005 8225155
-0.072900005 -0.036900003 0.94500005 10535097
-0.071100004 -0.036900003 0.94500005 10535358
-0.069300003 -0.036900003 0.94500005 10535869
-0.06750001 -0.036900003 0.94500005 10726332
-0.06549143 -0.036782857 0.94200003 10924472
-0.063561909 -0.036704764 0.94000006 10793140
-0.06177143 -0.036704764 0.94000006 10727607
-0.059789527 -0.036587618 0.93700004 10464699
-0.058004763 -0.036587618 0.93700004 10267564
-0.056220002 -0.036587618 0.93700004 9870493
-0.054435238 -0.036587618 0.93700004 9541528
-0.052650478 -0.036587618 0.93700004 9213076
-0.051028572 -0.036704764 0.94000006 8950158
-0.049238101 -0.036704764 0.94000006 8619401
-0.047548573 -0.036782857 0.94200003 8290942
-0.045754284 -0.036782857 0.94200003 8156531
-0.044100005 -0.036900003 0.94500005 8089707
-0.042300001 -0.036900003 0.94500005 7235428
-0.0405 -0.036900003 0.94500005 6446691
-0.038700003 -0.036900003 0.94500005 6644322
-0.037017144 -0.037017144 0.94800007 6907490
-0.035211433 -0.037017144 0.94800007 7037794
-0.20878573 -0.034357145 0.92500007 10591940
-0.20702383 -0.034357145 0.92500007 10060951
-0.20459621 -0.034245715 0.92200005 9608862
-0.2024 -0.034171429 0.92000002 9872038
-0.20064762 -0.034171429 0.92000002 10200232
-0.19824667 -0.034060001 0.91700006 10331562
-0.1965 -0.034060001 0.91700006 10462637
-0.19432856 -0.033985715 0.91500002 10462896
-0.19258572 -0.033985715 0.91500002 10528429
-0.19042572 -0.033911429 0.91300005 10528427
-0.18806666 -0.033800002 0.91000003 10528427
-0.18592383 -0.033725716 0.90800005 10463147
-0.1841943 -0.033725716 0.90800005 10397872
-0.18186191 -0.033614289 0.90500003 10398645
-0.1801381 -0.033614289 0.90500003 10462869
-0.17802 -0.033540003 0.90300006 8029558
-0.1763 -0.033540003 0.90300006 5661555
-0.17419334 -0.033465713 0.90100002 5925489
-0.17247714 -0.033465713 0.90100002 6188659
-0.17076096 -0.033465713 0.90100002 6451573
-0.16634762 -0.033614289 0.90500003 7501183
-0.16426 -0.033540003 0.90300006 6908793
-0.16254 -0.033540003 0.90300006 6318970
-0.16082001 -0.033540003 0.90300006 6253948
-0.15910001 -0.033540003 0.90300006 6254203
-0.15738 -0.033540003 0.90300006 6254459
-0.15566 -0.033540003 0.90300006 6320247
-0.15359905 -0.033465713 0.90100002 6385780
-0.15137716 -0.03335429 0.89800006 6516595
-0.15016666 -0.033465713 0.90100002 6516083
-0.14795619 -0.03335429 0.89800006 6519950
-0.14624573 -0.03335429 0.89800006 8296874
-0.14453524 -0.03335429 0.89800006 10068136
-0.14250667 -0.03328 0.89600003 9936551
-0.14080001 -0.03328 0.89600003 9870500
-0.13940382 -0.03335429 0.89800006 9870496
-0.13738668 -0.03328 0.89600003 9870241
-0.13568 -0.03328 0.89600003 9869987
-0.13397333 -0.03328 0.89600003 9870244
-0.13226667 -0.03328 0.89600003 9936294
-0.13085143 -0.03335429 0.89800006 10001570
-0.12914096 -0.03335429 0.89800006 9804958
-0.12785619 -0.033465713 0.90100002 9673629
-0.12642001 -0.033540003 0.90300006 9607580
-0.12470001 -0.033540003 0.90300006 9607325
-0.12298001 -0.033540003 0.90300006 9541791
-0.12126 -0.033540003 0.90300006 9476254
-0.11954001 -0.033540003 0.90300006 9410461
-0.11782 -0.033540003 0.90300006 9344667
-0.11610001 -0.033540003 0.90300006 9344666
-0.11438 -0.033540003 0.90300006 9409690
-0.11266001 -0.033540003 0.90300006 9278874
-0.11118571 -0.033614289 0.90500003 9213336
-0.10946191 -0.033614289 0.90500003 9213079
-0.10809524 -0.033725716 0.90800005 9278360
-0.10636572 -0.033725716 0.90800005 9409177
-0.10463619 -0.033725716 0.90800005 9539991
-0.10290667 -0.033725716 0.90800005 9343125
-0.10173429 -0.033911429 0.91300005 9212052
-0.099995241 -0.033911429 0.91300005 9146003
-0.098471433 -0.033985715 0.91500002 9080208
-0.096728571 -0.033985715 0.91500002 8948878
-0.094985716 -0.033985715 0.91500002 8882572
-0.093242854 -0.033985715 0.91500002 8685451
-0.091500007 -0.033985715 0.91500002 8555145
-0.089757144 -0.033985715 0.91500002 8555655
-0.088014282 -0.033985715 0.91500002 8619655
-0.072900005 -0.035100002 0.94500005 11975362
-0.071100004 -0.035100002 0.94500005 11712961
-0.069300003 -0.035100002 0.94500005 11450047
-0.067285717 -0.034988575 0.94200003 11187134
-0.06549143 -0.034988575 0.94200003 10990009
-0.063561909 -0.034914289 0.94000006 10858676
-0.06177143 -0.034914289 0.94000006 10792630
-0.059789527 -0.034802862 0.93700004 10464696
-0.058004763 -0.034802862 0.93700004 10134443
-0.056220002 -0.034802862 0.93700004 9805214
-0.054435238 -0.034802862 0.93700004 9475736
-0.052650478 -0.034802862 0.93700004 9146771
-0.051028572 -0.034914289 0.94000006 8883594
-0.049238101 -0.034914289 0.94000006 8553858
-0.047700003 -0.035100002 0.94500005 8289910
-0.045754284 -0.034988575 0.94200003 8353131
-0.044100005 -0.035100002 0.94500005 8418658
-0.042300001 -0.035100002 0.94500005 8746586
-0.0405 -0.035100002 0.94500005 9140056
-0.038700003 -0.035100002 0.94500005 9205846
-0.20810857 -0.032489527 0.92200005 11054022
-0.2063524 -0.032489527 0.92200005 10192276
-0.20459621 -0.032489527 0.92200005 9411997
-0.2024 -0.032419048 0.92000002 9806246
-0.20064762 -0.032419048 0.92000002 10200232
-0.19824667 -0.032313332 0.91700006 10331562
-0.1965 -0.032313332 0.91700006 10462639
-0.19432856 -0.032242857 0.91500002 10462644
-0.19258572 -0.032242857 0.91500002 10528176
-0.19042572 -0.032172382 0.91300005 10528429
-0.18806666 -0.032066669 0.91000003 10528684
-0.18633334 -0.032066669 0.91000003 10397611
-0.1841943 -0.031996191 0.90800005 10332336
-0.18246478 -0.031996191 0.90800005 10463413
-0.1801381 -0.031890478 0.90500003 10594715
-0.17841429 -0.031890478 0.90500003 8226945
-0.1763 -0.031820003 0.90300006 5858421
-0.17458001 -0.031820003 0.90300006 5989993
-0.17286 -0.031820003 0.90300006 6188657
-0.17151904 -0.031890478 0.90500003 6320506
-0.16979524 -0.031890478 0.90500003 6453638
-0.16807143 -0.031890478 0.90500003 6716562
-0.16598001 -0.031820003 0.90300006 6979720
-0.16426 -0.031820003 0.90300006 6581375
-0.16218001 -0.031749524 0.90100002 6253180
-0.16082001 -0.031820003 0.90300006 6253946
-0.15874761 -0.031749524 0.90100002 6254202
-0.15738 -0.031820003 0.90300006 6254459
-0.15600477 -0.031890478 0.90500003 6320249
-0.15394001 -0.031820003 0.90300006 6320247
-0.15188286 -0.031749524 0.90100002 6385269
-0.15016666 -0.031749524 0.90100002 6319219
-0.14845048 -0.031749524 0.90100002 6256782
-0.14624573 -0.031643812 0.89800006 8099242
-0.14453524 -0.031643812 0.89800006 10002859
-0.14282477 -0.031643812 0.89800006 9871020
-0.14080001 -0.031573333 0.89600003 9804966
-0.13940382 -0.031643812 0.89800006 9804961
-0.13738668 -0.031573333 0.89600003 9804705
-0.13598287 -0.031643812 0.89800006 9804706
-0.13427238 -0.031643812 0.89800006 9804965
-0.13256191 -0.031643812 0.89800006 9804968
-0.13085143 -0.031643812 0.89800006 9870499
-0.12914096 -0.031643812 0.89800006 9739166
-0.12785619 -0.031749524 0.90100002 9673628
-0.12642001 -0.031820003 0.90300006 9607578
-0.12470001 -0.031820003 0.90300006 9541787
-0.12298001 -0.031820003 0.90300006 9476253
-0.12126 -0.031820003 0.90300006 9476252
-0.11954001 -0.031820003 0.90300006 9344924
-0.11782 -0.031820003 0.90300006 9279131
-0.11610001 -0.031820003 0.90300006 9279131
-0.11438 -0.031820003 0.90300006 9344155
-0.11266001 -0.031820003 0.90300006 9278875
-0.11118571 -0.031890478 0.90500003 9213338
-0.10946191 -0.031890478 0.90500003 9213337
-0.1077381 -0.031890478 0.90500003 9213337
-0.10601429 -0.031890478 0.90500003 9278105
-0.10463619 -0.031996191 0.90800005 9408918
-0.10290667 -0.031996191 0.90800005 9277588
-0.10173429 -0.032172382 0.91300005 9212052
-0.099995241 -0.032172382 0.91300005 9146516
-0.098471433 -0.032242857 0.91500002 9146512
-0.096728571 -0.032242857 0.91500002 9014668
-0.094985716 -0.032242857 0.91500002 8882572
-0.093242854 -0.032242857 0.91500002 8817037
-0.091500007 -0.032242857 0.91500002 8686219
-0.089757144 -0.032242857 0.91500002 8751754
-0.088014282 -0.032242857 0.91500002 8817548
-0.086271428 -0.032242857 0.91500002 8948110
-0.072900005 -0.033300001 0.94500005 11778252
-0.071100004 -0.033300001 0.94500005 11647172
-0.069300003 -0.033300001 0.94500005 11514562
-0.067285717 -0.033194285 0.94200003 11318465
-0.06535238 -0.03312381 0.94000006 11187643
-0.063561909 -0.03312381 0.94000006 10991285
-0.061574284 -0.033018097 0.93700004 10860469
-0.059789527 -0.033018097 0.93700004 10266294
-0.058004763 -0.033018097 0.93700004 9739434
-0.056220002 -0.033018097 0.93700004 9542047
-0.054435238 -0.033018097 0.93700004 9344665
-0.052650478 -0.033018097 0.93700004 9014675
-0.051028572 -0.03312381 0.94000006 8751751
-0.04934286 -0.033194285 0.94200003 8488315
-0.047700003 -0.033300001 0.94500005 8223599
-0.045900002 -0.033300001 0.94500005 8352867
-0.044100005 -0.033300001 0.94500005 8549209
-0.042300001 -0.033300001 0.94500005 8811856
-0.0405 -0.033300001 0.94500005 9140045
-0.20923714 -0.0309 0.92700005 11514053
-0.20702383 -0.030833337 0.92500007 10389138
-0.20526192 -0.030833337 0.92500007 9280156
-0.20284 -0.030733334 0.92200005 9740454
-0.20064762 -0.030666668 0.92000002 10199976
-0.19889523 -0.030666668 0.92000002 10331562
-0.1965 -0.030566668 0.91700006 10462637
-0.19432856 -0.0305 0.91500002 10462640
-0.19216476 -0.030433334 0.91300005 10528174
-0.19042572 -0.030433334 0.91300005 10528683
-0.18806666 -0.030333333 0.91000003 10528681
-0.18633334 -0.030333333 0.91000003 10397607
-0.1841943 -0.030266669 0.90800005 10332078
-0.18246478 -0.030266669 0.90800005 10529205
-0.1801381 -0.030166667 0.90500003 10726300
-0.17841429 -0.030166667 0.90500003 8359044
-0.1763 -0.030100001 0.90300006 6054773
-0.17458001 -0.030100001 0.90300006 6120037
-0.17286 -0.030100001 0.90300006 6187886
-0.17151904 -0.030166667 0.90500003 6189431
-0.16979524 -0.030166667 0.90500003 6255743
-0.16770001 -0.030100001 0.90300006 6387848
-0.16598001 -0.030100001 0.90300006 6517377
-0.16426 -0.030100001 0.90300006 6319482
-0.16254 -0.030100001 0.90300006 6187641
-0.16046381 -0.030033333 0.90100002 6188664
-0.15910001 -0.030100001 0.90300006 6254201
-0.15738 -0.030100001 0.90300006 6254713
-0.15566 -0.030100001 0.90300006 6320246
-0.15359905 -0.030033333 0.90100002 6254964
-0.15137716 -0.029933335 0.89800006 6254195
-0.14966667 -0.029933335 0.89800006 6122355
-0.14845048 -0.030033333 0.90100002 6058382
-0.14624573 -0.029933335 0.89800006 7967402
-0.14453524 -0.029933335 0.89800006 9937576
-0.14282477 -0.029933335 0.89800006 9871014
-0.14111429 -0.029933335 0.89800006 9804963
-0.13940382 -0.029933335 0.89800006 9804961
-0.13769333 -0.029933335 0.89800006 9804705
-0.13598287 -0.029933335 0.89800006 9739681
-0.13427238 -0.029933335 0.89800006 9739427
-0.13226667 -0.029866667 0.89600003 9739430
-0.13056 -0.029866667 0.89600003 9739426
-0.12914096 -0.029933335 0.89800006 9739167
-0.12785619 -0.030033333 0.90100002 9739165
-0.12614 -0.030033333 0.90100002 9607835
-0.12442381 -0.030033333 0.90100002 9541788
-0.12270762 -0.030033333 0.90100002 9476253
-0.12126 -0.030100001 0.90300006 9475996
-0.11954001 -0.030100001 0.90300006 9344923
-0.11782 -0.030100001 0.90300006 9213594
-0.11610001 -0.030100001 0.90300006 9279129
-0.11438 -0.030100001 0.90300006 9344665
-0.11266001 -0.030100001 0.90300006 9279130
-0.11118571 -0.030166667 0.90500003 9278872
-0.10946191 -0.030166667 0.90500003 9213335
-0.1077381 -0.030166667 0.90500003 9147543
-0.10601429 -0.030166667 0.90500003 9212568
-0.10429048 -0.030166667 0.90500003 9277846
-0.10290667 -0.030266669 0.90800005 9212308
-0.10173429 -0.030433334 0.91300005 9212307
-0.099995241 -0.030433334 0.91300005 9212306
-0.098471433 -0.0305 0.91500002 9212049
-0.096728571 -0.0305 0.91500002 9080463
-0.094985716 -0.0305 0.91500002 8948367
-0.093242854 -0.0305 0.91500002 8882830
-0.091500007 -0.0305 0.91500002 8882831
-0.089757144 -0.0305 0.91500002 8948368
-0.088014282 -0.0305 0.91500002 9014930
-0.086271428 -0.0305 0.91500002 9147797
-0.072900005 -0.031500001 0.94500005 11647694
-0.070874281 -0.031400003 0.94200003 11581638
-0.069080003 -0.031400003 0.94200003 11581123
-0.067142867 -0.031333335 0.94000006 11449792
-0.06535238 -0.031333335 0.94000006 11385024
-0.063359044 -0.031233335 0.93700004 11189185
-0.061574284 -0.031233335 0.93700004 10989238
-0.059789527 -0.031233335 0.93700004 10133419
-0.058004763 -0.031233335 0.93700004 9345443
-0.056220002 -0.031233335 0.93700004 9279130
-0.054435238 -0.031233335 0.93700004 9213332
-0.052650478 -0.031233335 0.93700004 8882830
-0.051028572 -0.031333335 0.94000006 8620161
-0.04934286 -0.031400003 0.94200003 8422773
-0.047700003 -0.031500001 0.94500005 8221290
-0.045900002 -0.031500001 0.94500005 8418142
-0.044240002 -0.031600002 0.94800007 8680022
-0.04243429 -0.031600002 0.94800007 8876366
-0.21168573 -0.029228574 0.93000007 13496569
-0.20923714 -0.029134287 0.92700005 11777476
-0.20702383 -0.02907143 0.92500007 10453648
-0.20526192 -0.02907143 0.92500007 9213851
-0.20350002 -0.02907143 0.92500007 9674663
-0.20108382 -0.028977145 0.92200005 10134184
-0.19889523 -0.028914286 0.92000002 10265770
-0.1965 -0.028820001 0.91700006 10397355
-0.19432856 -0.028757144 0.91500002 10462637
-0.19216476 -0.028694287 0.91300005 10528171
-0.18980001 -0.0286 0.91000003 10528426
-0.18806666 -0.0286 0.91000003 10528678
-0.18633334 -0.0286 0.91000003 10397347
-0.1841943 -0.028537145 0.90800005 10331820
-0.18246478 -0.028537145 0.90800005 10529205
-0.18073526 -0.028537145 0.90800005 10727070
-0.17841429 -0.028442858 0.90500003 8622472
-0.17669049 -0.028442858 0.90500003 6447733
-0.17458001 -0.028380001 0.90300006 6184802
-0.17286 -0.028380001 0.90300006 5925227
-0.17151904 -0.028442858 0.90500003 5991284
-0.16979524 -0.028442858 0.90500003 6057593
-0.16807143 -0.028442858 0.90500003 6188414
-0.16598001 -0.028380001 0.90300006 6319481
-0.16462381 -0.028442858 0.90500003 6187893
-0.16290002 -0.028442858 0.90500003 6122102
-0.16082001 -0.028380001 0.90300006 6188407
-0.15910001 -0.028380001 0.90300006 6319991
-0.15738 -0.028380001 0.90300006 6319992
-0.15531525 -0.028317144 0.90100002 6320244
-0.15359905 -0.028317144 0.90100002 6254449
-0.15188286 -0.028317144 0.90100002 6188658
-0.15016666 -0.028317144 0.90100002 6056564
-0.14845048 -0.028317144 0.90100002 5925519
-0.14673428 -0.028317144 0.90100002 7834794
-0.14453524 -0.028222859 0.89800006 9807013
-0.14282477 -0.028222859 0.89800006 9805728
-0.14111429 -0.028222859 0.89800006 9870753
-0.13940382 -0.028222859 0.89800006 9804706
-0.13769333 -0.028222859 0.89800006 9739169
-0.13598287 -0.028222859 0.89800006 9739168
-0.13397333 -0.02816 0.89600003 9739170
-0.13226667 -0.02816 0.89600003 9739173
-0.13085143 -0.028222859 0.89800006 9739426
-0.12914096 -0.028222859 0.89800006 9739168
-0.12785619 -0.028317144 0.90100002 9739166
-0.12614 -0.028317144 0.90100002 9607581
-0.12442381 -0.028317144 0.90100002 9541789
-0.12270762 -0.028317144 0.90100002 9475998
-0.12099143 -0.028317144 0.90100002 9475996
-0.11954001 -0.028380001 0.90300006 9344922
-0.11782 -0.028380001 0.90300006 9279385
-0.11610001 -0.028380001 0.90300006 9279128
-0.11438 -0.028380001 0.90300006 9279128
-0.11266001 -0.028380001 0.90300006 9279129
-0.11118571 -0.028442858 0.90500003 9279127
-0.10946191 -0.028442858 0.90500003 9213333
-0.1077381 -0.028442858 0.90500003 9147542
-0.10601429 -0.028442858 0.90500003 9212823
-0.10429048 -0.028442858 0.90500003 9212566
-0.10290667 -0.028537145 0.90800005 9212565
-0.10117715 -0.028537145 0.90800005 9147283
-0.099995241 -0.028694287 0.91300005 9146769
-0.098256193 -0.028694287 0.91300005 9146770
-0.096728571 -0.028757144 0.91500002 9014931
-0.094985716 -0.028757144 0.91500002 8883089
-0.093242854 -0.028757144 0.91500002 8883088
-0.091500007 -0.028757144 0.91500002 8817555
-0.089757144 -0.028757144 0.91500002 8948887
-0.088206671 -0.028820001 0.91700006 9015705
-0.086460002 -0.028820001 0.91700006 9212828
-0.085175246 -0.028977145 0.92200005 9410729
-0.083419047 -0.028977145 0.92200005 9804726
-0.070723809 -0.02954286 0.94000006 12040648
-0.068933338 -0.02954286 0.94000006 11582148
-0.066928573 -0.029448573 0.93700004 11582144
-0.065143809 -0.029448573 0.93700004 11647942
-0.063359044 -0.029448573 0.93700004 10990029
-0.061574284 -0.029448573 0.93700004 10331831
-0.059789527 -0.029448573 0.93700004 9804705
-0.058004763 -0.029448573 0.93700004 9344923
-0.056220002 -0.029448573 0.93700004 9213334
-0.054435238 -0.029448573 0.93700004 9081999
-0.052650478 -0.029448573 0.93700004 8751497
-0.051028572 -0.02954286 0.94000006 8488828
-0.04934286 -0.029605715 0.94200003 8158576
-0.047700003 -0.029700002 0.94500005 7891557
-0.045900002 -0.029700002 0.94500005 7694682
-0.044240002 -0.029794287 0.94800007 7498067
-0.04243429 -0.029794287 0.94800007 7628620
-0.21168573 -0.027457144 0.93000007 13695227
-0.20923714 -0.027368572 0.92700005 12039879
-0.20747145 -0.027368572 0.92700005 10583700
-0.20526192 -0.027309526 0.92500007 9148318
-0.20350002 -0.027309526 0.92500007 9609128
-0.20108382 -0.027220953 0.92200005 10133928
-0.19889523 -0.027161906 0.92000002 10200233
-0.19714285 -0.027161906 0.92000002 10331306
-0.19432856 -0.027014285 0.91500002 10462635
-0.19258572 -0.027014285 0.91500002 10593707
-0.19042572 -0.026955239 0.91300005 10528171
-0.18806666 -0.026866667 0.91000003 10528424
-0.18633334 -0.026866667 0.91000003 10462886
-0.1841943 -0.026807619 0.90800005 10397356
-0.18246478 -0.026807619 0.90800005 10594738
-0.18073526 -0.026807619 0.90800005 10792095
-0.17841429 -0.026719047 0.90500003 8820365
-0.17669049 -0.026719047 0.90500003 6908024
-0.17458001 -0.026660001 0.90300006 6315363
-0.17324285 -0.026719047 0.90500003 5728363
-0.17151904 -0.026719047 0.90500003 5794420
-0.16979524 -0.026719047 0.90500003 5925495
-0.16807143 -0.026719047 0.90500003 5991290
-0.16598001 -0.026660001 0.90300006 6122103
-0.16462381 -0.026719047 0.90500003 6056309
-0.16290002 -0.026719047 0.90500003 6056309
-0.16082001 -0.026660001 0.90300006 6188149
-0.15910001 -0.026660001 0.90300006 6385014
-0.15703143 -0.026600951 0.90100002 6385528
-0.15531525 -0.026600951 0.90100002 6385526
-0.15359905 -0.026600951 0.90100002 6254452
-0.15137716 -0.026512383 0.89800006 6123122
-0.14966667 -0.026512383 0.89800006 5925488
-0.14795619 -0.026512383 0.89800006 5793677
-0.14673428 -0.026600951 0.90100002 7702441
-0.14453524 -0.026512383 0.89800006 9674915
-0.14282477 -0.026512383 0.89800006 9805982
-0.14111429 -0.026512383 0.89800006 10001568
-0.13940382 -0.026512383 0.89800006 9870242
-0.13769333 -0.026512383 0.89800006 9739169
-0.13598287 -0.026512383 0.89800006 9739168
-0.13397333 -0.026453335 0.89600003 9739169
-0.13226667 -0.026453335 0.89600003 9739171
-0.13085143 -0.026512383 0.89800006 9739169
-0.12914096 -0.026512383 0.89800006 9739168
-0.12743048 -0.026512383 0.89800006 9739167
-0.12614 -0.026600951 0.90100002 9607582
-0.12442381 -0.026600951 0.90100002 9541790
-0.12270762 -0.026600951 0.90100002 9475742
-0.12126 -0.026660001 0.90300006 9475740
-0.11954001 -0.026660001 0.90300006 9410458
-0.11782 -0.026660001 0.90300006 9344921
-0.11610001 -0.026660001 0.90300006 9279385
-0.11438 -0.026660001 0.90300006 9279129
-0.11290953 -0.026719047 0.90500003 9279130
-0.11118571 -0.026719047 0.90500003 9279128
-0.10946191 -0.026719047 0.90500003 9213335
-0.1077381 -0.026719047 0.90500003 9213079
-0.10601429 -0.026719047 0.90500003 9213079
-0.10429048 -0.026719047 0.90500003 9212825
-0.10290667 -0.026807619 0.90800005 9147290
-0.1014 -0.026866667 0.91000003 9147030
-0.099995241 -0.026955239 0.91300005 9081490
-0.098471433 -0.027014285 0.91500002 9081235
-0.096728571 -0.027014285 0.91500002 8949652
-0.094985716 -0.027014285 0.91500002 8883603
-0.093446672 -0.027073335 0.91700006 8817810
-0.091700003 -0.027073335 0.91700006 8818068
-0.089953333 -0.027073335 0.91700006 8949399
-0.088495232 -0.027161906 0.92000002 9081242
-0.086931437 -0.027220953 0.92200005 9278109
-0.085452385 -0.027309526 0.92500007 9541538
-0.083871432 -0.027368572 0.92700005 9806759
-0.082105719 -0.027368572 0.92700005 10133939
-0.080600001 -0.027457144 0.93000007 10989760
-0.078828573 -0.027457144 0.93000007 11842249
-0.077471435 -0.027604764 0.93500006 13031122
-0.075690478 -0.027604764 0.93500006 14211800
-0.073909529 -0.027604764 0.93500006 13754079
-0.072128579 -0.027604764 0.93500006 13352914
-0.070347622 -0.027604764 0.93500006 12499910
-0.068566665 -0.027604764 0.93500006 11648196
-0.066785723 -0.027604764 0.93500006 11780547
-0.065004766 -0.027604764 0.93500006 11908537
-0.063223809 -0.027604764 0.93500006 10791087
-0.061442863 -0.027604764 0.93500006 9674918
-0.05966191 -0.027604764 0.93500006 9541789
-0.057880957 -0.027604764 0.93500006 9409945
-0.056100003 -0.027604764 0.93500006 9146516
-0.05431905 -0.027604764 0.93500006 8948880
-0.052650478 -0.02766381 0.93700004 8620428
-0.050865714 -0.02766381 0.93700004 8357251
-0.049238101 -0.027752383 0.94000006 7960186
-0.047447622 -0.027752383 0.94000006 7561300
-0.045657143 -0.027752383 0.94000006 6966317
-0.21168573 -0.025685715 0.93000007 13695486
-0.20923714 -0.025602859 0.92700005 12171211
-0.20702383 -0.025547622 0.92500007 10519192
-0.20526192 -0.025547622 0.92500007 8951712
-0.20350002 -0.025547622 0.92500007 9477801
-0.20108382 -0.025464762 0.92200005 10068393
-0.19889523 -0.025409523 0.92000002 10199721
-0.1965 -0.025326669 0.91700006 10331305
-0.19432856 -0.025271429 0.91500002 10462378
-0.19258572 -0.025271429 0.91500002 10527403
-0.19042572 -0.025216192 0.91300005 10528172
-0.18806666 -0.025133334 0.91000003 10462890
-0.18633334 -0.025133334 0.91000003 10397353
-0.1841943 -0.025078095 0.90800005 10397356
-0.18246478 -0.025078095 0.90800005 10594479
-0.18073526 -0.025078095 0.90800005 10791584
-0.17841429 -0.024995239 0.90500003 9149074
-0.17669049 -0.024995239 0.90500003 7499387
-0.17458001 -0.024940003 0.90300006 6511973
-0.17324285 -0.024995239 0.90500003 5531756
-0.17151904 -0.024995239 0.90500003 5728628
-0.17035811 -0.025078095 0.90800005 5859957
-0.16807143 -0.024995239 0.90500003 5925494
-0.16598001 -0.024940003 0.90300006 5990518
-0.16462381 -0.024995239 0.90500003 6056054
-0.16290002 -0.024995239 0.90500003 6121844
-0.16082001 -0.024940003 0.90300006 6516595
-0.15874761 -0.024884764 0.90100002 6976886
-0.15703143 -0.024884764 0.90100002 6714489
-0.15531525 -0.024884764 0.90100002 6517624
-0.15359905 -0.024884764 0.90100002 6386040
-0.15137716 -0.024801906 0.89800006 6254450
-0.14966667 -0.024801906 0.89800006 5991277
-0.14795619 -0.024801906 0.89800006 5793163
-0.14624573 -0.024801906 0.89800006 7635369
-0.14453524 -0.024801906 0.89800006 9477538
-0.14282477 -0.024801906 0.89800006 9673884
-0.14111429 -0.024801906 0.89800006 9804959
-0.13940382 -0.024801906 0.89800006 9739170
-0.13769333 -0.024801906 0.89800006 9739169
-0.13598287 -0.024801906 0.89800006 9673632
-0.13397333 -0.024746668 0.89600003 9673889
-0.13226667 -0.024746668 0.89600003 9673634
-0.13085143 -0.024801906 0.89800006 9739425
-0.12914096 -0.024801906 0.89800006 9739168
-0.12785619 -0.024884764 0.90100002 9804703
-0.12614 -0.024884764 0.90100002 9673119
-0.12442381 -0.024884764 0.90100002 9541790
-0.12270762 -0.024884764 0.90100002 9475742
-0.12099143 -0.024884764 0.90100002 9410204
-0.11954001 -0.024940003 0.90300006 9410202
-0.11782 -0.024940003 0.90300006 9344666
-0.11610001 -0.024940003 0.90300006 9279130
-0.11438 -0.024940003 0.90300006 9279130
-0.11290953 -0.024995239 0.90500003 9279131
-0.11118571 -0.024995239 0.90500003 9344666
-0.10946191 -0.024995239 0.90500003 9213081
-0.1077381 -0.024995239 0.90500003 9147544
-0.10601429 -0.024995239 0.90500003 9147544
-0.10463619 -0.025078095 0.90800005 9147548
-0.10290667 -0.025078095 0.90800005 9147296
-0.1014 -0.025133334 0.91000003 9081498
-0.099995241 -0.025216192 0.91300005 9081492
-0.098256193 -0.025216192 0.91300005 9081493
-0.096728571 -0.025271429 0.91500002 9015190
-0.094985716 -0.025271429 0.91500002 8949653
-0.093446672 -0.025326669 0.91700006 8884116
-0.091700003 -0.025326669 0.91700006 8884118
-0.090247624 -0.025409523 0.92000002 8949400
-0.088687621 -0.025464762 0.92200005 9081243
-0.086931437 -0.025464762 0.92200005 9212318
-0.085452385 -0.025547622 0.92500007 9344923
-0.083871432 -0.025602859 0.92700005 9609113
-0.082105719 -0.025602859 0.92700005 9938092
-0.080600001 -0.025685715 0.93000007 10529472
-0.078828573 -0.025685715 0.93000007 11191251
-0.077222861 -0.025740953 0.93200004 11781095
-0.075447619 -0.025740953 0.93200004 12371174
-0.073672384 -0.025740953 0.93200004 12239078
-0.071897149 -0.025740953 0.93200004 12172501
-0.070347622 -0.025823811 0.93500006 11910597
-0.068566665 -0.025823811 0.93500006 11648965
-0.066785723 -0.025823811 0.93500006 11122630
-0.065004766 -0.025823811 0.93500006 10662060
-0.063223809 -0.025823811 0.93500006 10067602
-0.061442863 -0.025823811 0.93500006 9540758
-0.05966191 -0.025823811 0.93500006 9343898
-0.058004763 -0.025879048 0.93700004 9212822
-0.056220002 -0.025879048 0.93700004 9015187
-0.054435238 -0.025879048 0.93700004 8817553
-0.052650478 -0.025879048 0.93700004 8554128
-0.050865714 -0.025879048 0.93700004 8357002
-0.049238101 -0.025961906 0.94000006 7172229
-0.047447622 -0.025961906 0.94000006 5986115
-0.045657143 -0.025961906 0.94000006 5393409
-0.21214096 -0.023965714 0.93200004 13761278
-0.2099143 -0.023914289 0.93000007 12369870
-0.20702383 -0.023785716 0.92500007 10520222
-0.20526192 -0.023785716 0.92500007 8753572
-0.20350002 -0.023785716 0.92500007 9412009
-0.20108382 -0.023708573 0.92200005 10068393
-0.19889523 -0.023657143 0.92000002 10199464
-0.19714285 -0.023657143 0.92000002 10396841
-0.19432856 -0.02352857 0.91500002 10462378
-0.19258572 -0.02352857 0.91500002 10527914
-0.19042572 -0.023477143 0.91300005 10462635
-0.18806666 -0.023400001 0.91000003 10462891
-0.18633334 -0.023400001 0.91000003 10397611
-0.1846 -0.023400001 0.91000003 10397611
-0.18246478 -0.023348572 0.90800005 10594219
-0.18073526 -0.023348572 0.90800005 10791588
-0.17841429 -0.02327143 0.90500003 9412253
-0.17669049 -0.02327143 0.90500003 8092033
-0.17496668 -0.02327143 0.90500003 6708837
-0.17324285 -0.02327143 0.90500003 5400429
-0.17208764 -0.023348572 0.90800005 5597557
-0.17035811 -0.023348572 0.90800005 5859956
-0.16807143 -0.02327143 0.90500003 5859956
-0.16634762 -0.02327143 0.90500003 5925237
-0.16462381 -0.02327143 0.90500003 6056055
-0.16290002 -0.02327143 0.90500003 6187124
-0.16117619 -0.02327143 0.90500003 6847601
-0.15874761 -0.023168571 0.90100002 7568250
-0.15703143 -0.023168571 0.90100002 7109507
-0.15531525 -0.023168571 0.90100002 6648703
-0.15359905 -0.023168571 0.90100002 6517626
-0.15137716 -0.02309143 0.89800006 6385267
-0.14966667 -0.02309143 0.89800006 6122604
-0.14795619 -0.02309143 0.89800006 5858695
-0.14624573 -0.02309143 0.89800006 7568546
-0.14453524 -0.02309143 0.89800006 9345954
-0.14282477 -0.02309143 0.89800006 9477795
-0.14111429 -0.02309143 0.89800006 9673892
-0.13940382 -0.02309143 0.89800006 9673894
-0.13769333 -0.02309143 0.89800006 9739171
-0.13598287 -0.02309143 0.89800006 9673633
-0.13427238 -0.02309143 0.89800006 9608096
-0.13256191 -0.02309143 0.89800006 9673632
-0.13085143 -0.02309143 0.89800006 9739169
-0.12914096 -0.02309143 0.89800006 9804705
-0.12785619 -0.023168571 0.90100002 9869983
-0.12614 -0.023168571 0.90100002 9673118
-0.12442381 -0.023168571 0.90100002 9541533
-0.12270762 -0.023168571 0.90100002 9475741
-0.12099143 -0.023168571 0.90100002 9409947
-0.11954001 -0.023220003 0.90300006 9409945
-0.11782 -0.023220003 0.90300006 9409945
-0.11610001 -0.023220003 0.90300006 9344410
-0.11438 -0.023220003 0.90300006 9278875
-0.11290953 -0.02327143 0.90500003 9344412
-0.11118571 -0.02327143 0.90500003 9409690
-0.10946191 -0.02327143 0.90500003 9278360
-0.1077381 -0.02327143 0.90500003 9147286
-0.10636572 -0.023348572 0.90800005 9147285
-0.10463619 -0.023348572 0.90800005 9147288
-0.10290667 -0.023348572 0.90800005 9081755
-0.1014 -0.023400001 0.91000003 9081496
-0.099995241 -0.023477143 0.91300005 9081494
-0.098256193 -0.023477143 0.91300005 9081493
-0.096728571 -0.02352857 0.91500002 9015445
-0.094985716 -0.02352857 0.91500002 9015189
-0.093446672 -0.02358 0.91700006 9014933
-0.091700003 -0.02358 0.91700006 9015190
-0.090247624 -0.023657143 0.92000002 9015192
-0.088687621 -0.023708573 0.92200005 9080987
-0.087214291 -0.023785716 0.92500007 9146782
-0.085452385 -0.023785716 0.92500007 9213086
-0.083871432 -0.023837144 0.92700005 9477022
-0.082105719 -0.023837144 0.92700005 9740458
-0.080339998 -0.023837144 0.92700005 10134967
-0.078828573 -0.023914289 0.93000007 10529985
-0.077222861 -0.023965714 0.93200004 10531787
-0.075447619 -0.023965714 0.93200004 10530506
-0.073672384 -0.023965714 0.93200004 10725834
-0.071897149 -0.023965714 0.93200004 10988995
-0.070121907 -0.023965714 0.93200004 11317948
-0.068346664 -0.023965714 0.93200004 11710392
-0.066571429 -0.023965714 0.93200004 10529972
-0.064796194 -0.023965714 0.93200004 9412775
-0.063223809 -0.024042858 0.93500006 9409946
-0.061442863 -0.024042858 0.93500006 9409433
-0.05966191 -0.024042858 0.93500006 9212311
-0.057880957 -0.024042858 0.93500006 9080978
-0.056100003 -0.024042858 0.93500006 8884109
-0.054435238 -0.024094287 0.93700004 8685963
-0.052650478 -0.024094287 0.93700004 8488074
-0.050865714 -0.024094287 0.93700004 8355962
-0.049080957 -0.024094287 0.93700004 6384491
-0.047296192 -0.024094287 0.93700004 4473915
-0.045511432 -0.024094287 0.93700004 3870219
-0.21214096 -0.022190478 0.93200004 13826046
-0.2099143 -0.022142859 0.93000007 12568529
-0.20747145 -0.022071429 0.92700005 10652069
-0.20526192 -0.022023812 0.92500007 8817831
-0.20350002 -0.022023812 0.92500007 9411754
-0.20108382 -0.021952381 0.92200005 10068393
-0.19889523 -0.021904761 0.92000002 10199720
-0.19714285 -0.021904761 0.92000002 10331305
-0.19475335 -0.021833334 0.91700006 10396843
-0.19300668 -0.021833334 0.91700006 10462634
-0.19084287 -0.021785714 0.91500002 10462634
-0.18868668 -0.021738095 0.91300005 10397355
-0.18633334 -0.021666666 0.91000003 10397101
-0.1846 -0.021666666 0.91000003 10397098
-0.18246478 -0.021619048 0.90800005 10528423
-0.18073526 -0.021619048 0.90800005 10726055
-0.17900573 -0.021619048 0.90800005 9543848
-0.17727621 -0.021619048 0.90800005 8356999
-0.17554668 -0.021619048 0.90800005 6841446
-0.17381716 -0.021619048 0.90800005 5334894
-0.17246668 -0.021666666 0.91000003 5597815
-0.17129619 -0.021738095 0.91300005 5794676
-0.16955714 -0.021738095 0.91300005 5859954
-0.16634762 -0.021547619 0.90500003 5859957
-0.16462381 -0.021547619 0.90500003 5925241
-0.16290002 -0.021547619 0.90500003 5990516
-0.16082001 -0.021500001 0.90300006 6452336
-0.15874761 -0.021452382 0.90100002 6913407
-0.15650858 -0.021380953 0.89800006 6715278
-0.15445334 -0.021333335 0.89600003 6452357
-0.15359905 -0.021452382 0.90100002 6386045
-0.15137716 -0.021380953 0.89800006 6253940
-0.14933333 -0.021333335 0.89600003 6056812
-0.14762667 -0.021333335 0.89600003 5858947
-0.14624573 -0.021380953 0.89800006 7371931
-0.14453524 -0.021380953 0.89800006 8886947
-0.14282477 -0.021380953 0.89800006 9346731
-0.14111429 -0.021380953 0.89800006 9804970
-0.13940382 -0.021380953 0.89800006 9804714
-0.13769333 -0.021380953 0.89800006 9804710
-0.13598287 -0.021380953 0.89800006 9673634
-0.13427238 -0.021380953 0.89800006 9608096
-0.13256191 -0.021380953 0.89800006 9673631
-0.13085143 -0.021380953 0.89800006 9739425
-0.12914096 -0.021380953 0.89800006 9739171
-0.12743048 -0.021380953 0.89800006 9804448
-0.12614 -0.021452382 0.90100002 9673117
-0.12442381 -0.021452382 0.90100002 9541532
-0.12270762 -0.021452382 0.90100002 9410204
-0.12099143 -0.021452382 0.90100002 9344410
-0.11954001 -0.021500001 0.90300006 9344408
-0.11782 -0.021500001 0.90300006 9344409
-0.11610001 -0.021500001 0.90300006 9278875
-0.11438 -0.021500001 0.90300006 9278876
-0.11290953 -0.021547619 0.90500003 9344413
-0.11118571 -0.021547619 0.90500003 9344154
-0.10946191 -0.021547619 0.90500003 9278616
-0.1077381 -0.021547619 0.90500003 9147797
-0.10636572 -0.021619048 0.90800005 9147282
-0.10429048 -0.021547619 0.90500003 9147284
-0.10290667 -0.021619048 0.90800005 9081751
-0.10173429 -0.021738095 0.91300005 9081239
-0.099995241 -0.021738095 0.91300005 9081496
-0.098256193 -0.021738095 0.91300005 9081494
-0.096728571 -0.021785714 0.91500002 9015445
-0.094985716 -0.021785714 0.91500002 9015190
-0.093446672 -0.021833334 0.91700006 9015191
-0.091700003 -0.021833334 0.91700006 9015191
-0.090247624 -0.021904761 0.92000002 9015192
-0.088687621 -0.021952381 0.92200005 9015195
-0.087214291 -0.022023812 0.92500007 9080990
-0.085452385 -0.022023812 0.92500007 9146785
-0.083871432 -0.022071429 0.92700005 9344164
-0.082105719 -0.022071429 0.92700005 9541801
-0.080339998 -0.022071429 0.92700005 9871534
-0.078574292 -0.022071429 0.92700005 10199983
-0.077057146 -0.022142859 0.93000007 10266544
-0.075285718 -0.022142859 0.93000007 10333359
-0.07351429 -0.022142859 0.93000007 10333358
-0.071742855 -0.022142859 0.93000007 10399153
-0.070121907 -0.022190478 0.93200004 10398132
-0.068346664 -0.022190478 0.93200004 10462635
-0.066571429 -0.022190478 0.93200004 9869987
-0.064796194 -0.022190478 0.93200004 9277603
-0.063020959 -0.022190478 0.93200004 9278627
-0.061442863 -0.022261906 0.93500006 9212572
-0.05966191 -0.022261906 0.93500006 9080981
-0.058004763 -0.022309525 0.93700004 8884110
-0.056220002 -0.022309525 0.93700004 8686471
-0.054435238 -0.022309525 0.93700004 8488837
-0.052650478 -0.022309525 0.93700004 8291204
-0.050865714 -0.022309525 0.93700004 8093034
-0.049080957 -0.022309525 0.93700004 6117969
-0.047296192 -0.022309525 0.93700004 4075827
-0.045511432 -0.022309525 0.93700004 3609877
-0.2099143 -0.02037143 0.93000007 12831185
-0.20747145 -0.020305716 0.92700005 10849701
-0.20526192 -0.020261906 0.92500007 8883876
-0.20350002 -0.020261906 0.92500007 9477027
-0.20108382 -0.020196192 0.92200005 10068389
-0.19932762 -0.020196192 0.92200005 10199975
-0.19714285 -0.020152381 0.92000002 10331305
-0.19539048 -0.020152381 0.92000002 10396843
-0.19300668 -0.020086668 0.91700006 10462634
-0.19084287 -0.020042857 0.91500002 10397353
-0.18868668 -0.019999048 0.91300005 10397098
-0.18633334 -0.019933334 0.91000003 10397099
-0.1846 -0.019933334 0.91000003 10397096
-0.18286668 -0.019933334 0.91000003 10528422
-0.18113333 -0.019933334 0.91000003 10660521
-0.17900573 -0.019889524 0.90800005 9609901
-0.17727621 -0.019889524 0.90800005 8620681
-0.17554668 -0.019889524 0.90800005 6974054
-0.1742 -0.019933334 0.91000003 5335149
-0.17246668 -0.019933334 0.91000003 5532533
-0.17129619 -0.019999048 0.91300005 5794675
-0.16955714 -0.019999048 0.91300005 5794672
-0.16290002 -0.01982381 0.90500003 5860213
-0.16117619 -0.01982381 0.90500003 6057076
-0.15945238 -0.01982381 0.90500003 6320252
-0.15650858 -0.019670477 0.89800006 6321285
-0.15445334 -0.019626666 0.89600003 6320512
-0.15308762 -0.019670477 0.89800006 6254459
-0.15104 -0.019626666 0.89600003 6188406
-0.14933333 -0.019626666 0.89600003 5991281
-0.14762667 -0.019626666 0.89600003 5858692
-0.14624573 -0.019670477 0.89800006 7175320
-0.14453524 -0.019670477 0.89800006 8492449
-0.14330192 -0.019736189 0.90100002 9215915
-0.14158572 -0.019736189 0.90100002 9936298
-0.13940382 -0.019670477 0.89800006 9870248
-0.13815333 -0.019736189 0.90100002 9870244
-0.13598287 -0.019670477 0.89800006 9739169
-0.13427238 -0.019670477 0.89800006 9608094
-0.13256191 -0.019670477 0.89800006 9673371
-0.13085143 -0.019670477 0.89800006 9738910
-0.12914096 -0.019670477 0.89800006 9739169
-0.12743048 -0.019670477 0.89800006 9738910
-0.12614 -0.019736189 0.90100002 9607580
-0.12442381 -0.019736189 0.90100002 9541531
-0.12270762 -0.019736189 0.90100002 9410459
-0.12099143 -0.019736189 0.90100002 9344408
-0.11954001 -0.019780001 0.90300006 9278870
-0.11782 -0.019780001 0.90300006 9278872
-0.11610001 -0.019780001 0.90300006 9279130
-0.11438 -0.019780001 0.90300006 9344669
-0.11290953 -0.01982381 0.90500003 9344671
-0.11118571 -0.01982381 0.90500003 9344156
-0.10946191 -0.01982381 0.90500003 9278617
-0.1077381 -0.01982381 0.90500003 9212823
-0.10636572 -0.019889524 0.90800005 9212820
-0.10463619 -0.019889524 0.90800005 9212822
-0.10290667 -0.019889524 0.90800005 9147287
-0.10173429 -0.019999048 0.91300005 9081496
-0.09966667 -0.019933334 0.91000003 9081497
-0.098256193 -0.019999048 0.91300005 9081238
-0.096517146 -0.019999048 0.91300005 9081235
-0.094985716 -0.020042857 0.91500002 9080980
-0.093446672 -0.020086668 0.91700006 9015189
-0.091700003 -0.020086668 0.91700006 9015190
-0.090247624 -0.020152381 0.92000002 8949654
-0.088687621 -0.020196192 0.92200005 8949657
-0.087214291 -0.020261906 0.92500007 9015196
-0.085452385 -0.020261906 0.92500007 9146527
-0.083871432 -0.020305716 0.92700005 9278370
-0.082105719 -0.020305716 0.92700005 9410469
-0.080339998 -0.020305716 0.92700005 9608105
-0.078574292 -0.020305716 0.92700005 9870764
-0.077057146 -0.02037143 0.93000007 10002607
-0.075285718 -0.02037143 0.93000007 10134190
-0.07351429 -0.02037143 0.93000007 9938094
-0.071742855 -0.02037143 0.93000007 9805739
-0.069971435 -0.02037143 0.93000007 9542312
-0.068346664 -0.020415239 0.93200004 9279140
-0.066571429 -0.020415239 0.93200004 9212575
-0.064796194 -0.020415239 0.93200004 9212829
-0.063020959 -0.020415239 0.93200004 9147547
-0.061442863 -0.020480953 0.93500006 9080982
-0.05966191 -0.020480953 0.93500006 8883856
-0.058004763 -0.020524763 0.93700004 8751756
-0.056220002 -0.020524763 0.93700004 8488839
-0.054435238 -0.020524763 0.93700004 8291460
-0.052538101 -0.020480953 0.93500006 8094337
-0.050865714 -0.020524763 0.93700004 7895651
-0.049080957 -0.020524763 0.93700004 5786181
-0.047296192 -0.020524763 0.93700004 3749429
-0.045511432 -0.020524763 0.93700004 3284004
-0.21036571 -0.01864 0.93200004 13356241
-0.20859048 -0.01864 0.93200004 11049894
-0.20570572 -0.018540001 0.92700005 8753569
-0.20350002 -0.0185 0.92500007 9411229
-0.20108382 -0.018440001 0.92200005 10068386
-0.19932762 -0.018440001 0.92200005 10134183
-0.19714285 -0.0184 0.92000002 10265769
-0.19539048 -0.0184 0.92000002 10331307
-0.19300668 -0.018340001 0.91700006 10397097
-0.19084287 -0.018300001 0.91500002 10462632
-0.18868668 -0.01826 0.91300005 10528169
-0.18633334 -0.018200001 0.91000003 10462634
-0.1846 -0.018200001 0.91000003 10397095
-0.18286668 -0.018200001 0.91000003 10462629
-0.18113333 -0.018200001 0.91000003 10594987
-0.17900573 -0.01816 0.90800005 9807282
-0.17727621 -0.01816 0.90800005 9015692
-0.17554668 -0.01816 0.90800005 7171430
-0.17381716 -0.01816 0.90800005 5334637
-0.17246668 -0.018200001 0.91000003 5532276
-0.16117619 -0.018100001 0.90500003 5991544
-0.15945238 -0.018100001 0.90500003 6123642
-0.15650858 -0.017960001 0.89800006 6188668
-0.15445334 -0.01792 0.89600003 6188410
-0.15359905 -0.01802 0.90100002 6188665
-0.15137716 -0.017960001 0.89800006 6188663
-0.14966667 -0.017960001 0.89800006 5991030
-0.14795619 -0.017960001 0.89800006 5858437
-0.14624573 -0.017960001 0.89800006 6977941
-0.14501809 -0.01802 0.90100002 8163488
-0.14330192 -0.01802 0.90100002 9019308
-0.14158572 -0.01802 0.90100002 9936553
-0.13986953 -0.01802 0.90100002 9870247
-0.13815333 -0.01802 0.90100002 9738915
-0.13598287 -0.017960001 0.89800006 9673632
-0.13427238 -0.017960001 0.89800006 9673628
-0.13256191 -0.017960001 0.89800006 9738904
-0.13085143 -0.017960001 0.89800006 9804444
-0.12914096 -0.017960001 0.89800006 9739168
-0.12743048 -0.017960001 0.89800006 9739165
-0.12614 -0.01802 0.90100002 9607579
-0.12442381 -0.01802 0.90100002 9476250
-0.12270762 -0.01802 0.90100002 9410458
-0.12126 -0.018060001 0.90300006 9344663
-0.11927524 -0.01802 0.90100002 9278868
-0.11782 -0.018060001 0.90300006 9278359
-0.11610001 -0.018060001 0.90300006 9278362
-0.11438 -0.018060001 0.90300006 9343902
-0.11266001 -0.018060001 0.90300006 9278370
-0.11118571 -0.018100001 0.90500003 9278622
-0.10946191 -0.018100001 0.90500003 9212827
-0.10809524 -0.01816 0.90800005 9147289
-0.10636572 -0.01816 0.90800005 9147287
-0.10463619 -0.01816 0.90800005 9147031
-0.10290667 -0.01816 0.90800005 9147032
-0.10173429 -0.01826 0.91300005 9081497
-0.099995241 -0.01826 0.91300005 9081242
-0.098256193 -0.01826 0.91300005 9081237
-0.096728571 -0.018300001 0.91500002 9081233
-0.094985716 -0.018300001 0.91500002 9081234
-0.093446672 -0.018340001 0.91700006 9080724
-0.091700003 -0.018340001 0.91700006 9080980
-0.090247624 -0.0184 0.92000002 9015189
-0.088687621 -0.018440001 0.92200005 9015192
-0.087214291 -0.0185 0.92500007 9080731
-0.085452385 -0.0185 0.92500007 9146525
-0.083690479 -0.0185 0.92500007 9212832
-0.082105719 -0.018540001 0.92700005 9279138
-0.080339998 -0.018540001 0.92700005 9410469
-0.078574292 -0.018540001 0.92700005 9607337
-0.077057146 -0.0186 0.93000007 9673902
-0.075285718 -0.0186 0.93000007 9740718
-0.07351429 -0.0186 0.93000007 9609135
-0.071742855 -0.0186 0.93000007 9477798
-0.069971435 -0.0186 0.93000007 9344413
-0.068346664 -0.01864 0.93200004 9146780
-0.066571429 -0.01864 0.93200004 9081500
-0.064796194 -0.01864 0.93200004 9082264
-0.063020959 -0.01864 0.93200004 9015444
-0.061442863 -0.018700002 0.93500006 8948880
-0.05966191 -0.018700002 0.93500006 8752268
-0.058004763 -0.01874 0.93700004 8619914
-0.056220002 -0.01874 0.93700004 8357512
-0.054435238 -0.01874 0.93700004 8094339
-0.052538101 -0.018700002 0.93500006 7830910
-0.050757144 -0.018700002 0.93500006 7632988
-0.048976194 -0.018700002 0.93500006 5916730
-0.047195241 -0.018700002 0.93500006 4209463
-0.21036571 -0.016864762 0.93200004 13884634
-0.20926192 -0.016919049 0.93500006 11250104
-0.20637144 -0.016828572 0.93000007 8686251
-0.20394 -0.016774286 0.92700005 9345694
-0.2017381 -0.016738096 0.92500007 10068386
-0.19932762 -0.016683811 0.92200005 10134183
-0.19714285 -0.016647618 0.92000002 10265513
-0.19539048 -0.016647618 0.92000002 10331563
-0.19300668 -0.016593333 0.91700006 10397098
-0.19084287 -0.016557142 0.91500002 10528168
-0.18868668 -0.016520953 0.91300005 10659241
-0.18633334 -0.016466668 0.91000003 10528170
-0.1846 -0.016466668 0.91000003 10397097
-0.18286668 -0.016466668 0.91000003 10462632
-0.18113333 -0.016466668 0.91000003 10594477
-0.17900573 -0.016430477 0.90800005 10004915
-0.17727621 -0.016430477 0.90800005 9476493
-0.17554668 -0.016430477 0.90800005 7434344
-0.17381716 -0.016430477 0.90800005 5400686
-0.15479811 -0.016249524 0.89800006 6123127
-0.15274666 -0.016213333 0.89600003 6123126
-0.15137716 -0.016249524 0.89800006 6188407
-0.14966667 -0.016249524 0.89800006 5991032
-0.14795619 -0.016249524 0.89800006 5859200
-0.14673428 -0.016303809 0.90100002 6846344
-0.14501809 -0.016303809 0.90100002 7833752
-0.14330192 -0.016303809 0.90100002 8888232
-0.14158572 -0.016303809 0.90100002 10002088
-0.13986953 -0.016303809 0.90100002 9804968
-0.13769333 -0.016249524 0.89800006 9673380
-0.13598287 -0.016249524 0.89800006 9673632
-0.13397333 -0.016213333 0.89600003 9739165
-0.13256191 -0.016249524 0.89800006 9804186
-0.13085143 -0.016249524 0.89800006 9869983
-0.12914096 -0.016249524 0.89800006 9804964
-0.12785619 -0.016303809 0.90100002 9739168
-0.12614 -0.016303809 0.90100002 9607836
-0.12442381 -0.016303809 0.90100002 9476251
-0.12270762 -0.016303809 0.90100002 9410714
-0.12126 -0.016340001 0.90300006 9344664
-0.11927524 -0.016303809 0.90100002 9344406
-0.11782 -0.016340001 0.90300006 9344151
-0.11610001 -0.016340001 0.90300006 9344153
-0.11438 -0.016340001 0.90300006 9344156
-0.11266001 -0.016340001 0.90300006 9278623
-0.11118571 -0.01637619 0.90500003 9212829
-0.10946191 -0.01637619 0.90500003 9147292
-0.10809524 -0.016430477 0.90800005 9081754
-0.10636572 -0.016430477 0.90800005 9081752
-0.10463619 -0.016430477 0.90800005 9147031
-0.10313334 -0.016466668 0.91000003 9146775
-0.10173429 -0.016520953 0.91300005 9146775
-0.099995241 -0.016520953 0.91300005 9081239
-0.098256193 -0.016520953 0.91300005 9081236
-0.096728571 -0.016557142 0.91500002 9080977
-0.094985716 -0.016557142 0.91500002 9080978
-0.093446672 -0.016593333 0.91700006 9080722
-0.091700003 -0.016593333 0.91700006 9146259
-0.090247624 -0.016647618 0.92000002 9080724
-0.088687621 -0.016683811 0.92200005 9080726
-0.086931437 -0.016683811 0.92200005 9146520
-0.085452385 -0.016738096 0.92500007 9212058
-0.083690479 -0.016738096 0.92500007 9212829
-0.082105719 -0.016774286 0.92700005 9213086
-0.080339998 -0.016774286 0.92700005 9278880
-0.078574292 -0.016774286 0.92700005 9344671
-0.077057146 -0.016828572 0.93000007 9344927
-0.075285718 -0.016828572 0.93000007 9344160
-0.07351429 -0.016828572 0.93000007 9277856
-0.071742855 -0.016828572 0.93000007 9212317
-0.069971435 -0.016828572 0.93000007 9146779
-0.068200007 -0.016828572 0.93000007 9081242
-0.066428579 -0.016828572 0.93000007 9015961
-0.064796194 -0.016864762 0.93200004 8949397
-0.063020959 -0.016864762 0.93200004 8883090
-0.061442863 -0.016919049 0.93500006 8817549
-0.05966191 -0.016919049 0.93500006 8686473
-0.058004763 -0.01695524 0.93700004 8554372
-0.056220002 -0.01695524 0.93700004 8226432
-0.054435238 -0.01695524 0.93700004 7963520
-0.052650478 -0.01695524 0.93700004 7631745
-0.050865714 -0.01695524 0.93700004 7368033
-0.049080957 -0.01695524 0.93700004 6047298
-0.047296192 -0.01695524 0.93700004 4735552
-0.20926192 -0.015138096 0.93500006 11514570
-0.20637144 -0.015057144 0.93000007 8881076
-0.20394 -0.015008572 0.92700005 9475999
-0.2017381 -0.014976191 0.92500007 10002851
-0.19932762 -0.014927619 0.92200005 10133927
-0.19714285 -0.014895238 0.92000002 10265513
-0.19539048 -0.014895238 0.92000002 10331308
-0.19300668 -0.014846667 0.91700006 10396842
-0.19084287 -0.014814286 0.91500002 10462633
-0.18868668 -0.014781905 0.91300005 10593961
-0.18633334 -0.014733333 0.91000003 10527914
-0.1846 -0.014733333 0.91000003 10462378
-0.18286668 -0.014733333 0.91000003 10528171
-0.18073526 -0.014700953 0.90800005 10594223
-0.17900573 -0.014700953 0.90800005 10267316
-0.17727621 -0.014700953 0.90800005 9937295
-0.17496668 -0.014652381 0.90500003 7698538
-0.17381716 -0.014700953 0.90800005 5529712
-0.17208764 -0.014700953 0.90800005 5596790
-0.15445334 -0.014506667 0.89600003 6057588
-0.15274666 -0.014506667 0.89600003 6123124
-0.15104 -0.014506667 0.89600003 6122615
-0.14966667 -0.014539048 0.89800006 6056826
-0.14795619 -0.014539048 0.89800006 5991035
-0.14624573 -0.014539048 0.89800006 6516860
-0.14501809 -0.014587619 0.90100002 7111056
-0.14330192 -0.014587619 0.90100002 8494245
-0.14158572 -0.014587619 0.90100002 9936551
-0.13986953 -0.014587619 0.90100002 9804714
-0.13769333 -0.014539048 0.89800006 9607845
-0.13598287 -0.014539048 0.89800006 9607840
-0.13427238 -0.014539048 0.89800006 9673630
-0.13300475 -0.014587619 0.90100002 9739164
-0.13128857 -0.014587619 0.90100002 9804706
-0.12957239 -0.014587619 0.90100002 9739176
-0.12785619 -0.014587619 0.90100002 9673635
-0.12614 -0.014587619 0.90100002 9542046
-0.12442381 -0.014587619 0.90100002 9410716
-0.12270762 -0.014587619 0.90100002 9344922
-0.12126 -0.01462 0.90300006 9279129
