# .PCD v0.7 - Point Cloud Data file format
VERSION 0.7
FIELDS x y z rgba
SIZE 4 4 4 4
TYPE F F F U
COUNT 1 1 1 1
WIDTH 1076
HEIGHT 1
VIEWPOINT 0 0 0 1 0 0 0
POINTS 1076
DATA ascii
-0.10452381 -0.084455237 0.87800002 5857397
-0.10332 -0.08484 0.88200003 6847126
-0.10164 -0.08484 0.88200003 7899537
-0.10018667 -0.085032381 0.88400006 8424333
-0.098502867 -0.085032381 0.88400006 8949389
-0.097147621 -0.085320957 0.88700002 8883854
-0.095458098 -0.085320957 0.88700002 8883598
-0.093768574 -0.085320957 0.88700002 8949135
-0.092286676 -0.085513338 0.88900006 9014925
-0.090593338 -0.085513338 0.88900006 8950156
-0.088900007 -0.085513338 0.88900006 8948618
-0.087402858 -0.08570572 0.89100003 8751496
-0.085994288 -0.085994288 0.89400005 8553863
-0.084291428 -0.085994288 0.89400005 8488582
-0.082773335 -0.08618667 0.89600003 8423043
-0.08124762 -0.086379051 0.89800006 8422529
-0.079537146 -0.086379051 0.89800006 8422271
-0.077826671 -0.086379051 0.89800006 8290686
-0.076540001 -0.086860001 0.90300006 8225151
-0.074985713 -0.087052383 0.90500003 8159104
-0.073504768 -0.087340958 0.90800005 8093305
-0.071775243 -0.087340958 0.90800005 8027763
-0.070199996 -0.087533332 0.91000003 7961199
-0.068692386 -0.087821908 0.91300005 7895148
-0.06673333 -0.087533332 0.91000003 7895147
-0.065214291 -0.087821908 0.91300005 6447979
-0.063266665 -0.087533332 0.91000003 5070440
-0.061533332 -0.087533332 0.91000003 4537957
-0.059799999 -0.087533332 0.91000003 3947615
-0.062533334 -0.094266668 0.98000002 3881306
-0.060666665 -0.094266668 0.98000002 3823721
-0.058800001 -0.094266668 0.98000002 5860985
-0.056759052 -0.093978107 0.97700006 7961721
-0.054898094 -0.093978107 0.97700006 7895930
-0.053037144 -0.093978107 0.97700006 7896700
-0.05101905 -0.093689524 0.97400004 8093822
-0.049062859 -0.09349715 0.97200006 8225153
-0.047211431 -0.09349715 0.97200006 8290948
-0.045360003 -0.09349715 0.97200006 8356739
-0.043374289 -0.093208574 0.96900004 8422274
-0.041657142 -0.09349715 0.97200006 8487812
-0.039805714 -0.09349715 0.97200006 8422278
-0.037837144 -0.093208574 0.96900004 8356716
-0.03599143 -0.093208574 0.96900004 6252626
-0.034145713 -0.093208574 0.96900004 4141886
-0.032400001 -0.09349715 0.97200006 3611690
-0.030548571 -0.09349715 0.97200006 3088419
-0.028697144 -0.09349715 0.97200006 2828060
-0.19157143 -0.084291428 0.89400005 12238552
-0.18923144 -0.084008567 0.89100003 10987452
-0.18711334 -0.083820008 0.88900006 9805487
-0.18500286 -0.083631434 0.88700002 9933986
-0.18269335 -0.08334858 0.88400006 10067876
-0.18100953 -0.08334858 0.88400006 10199974
-0.17932571 -0.08334858 0.88400006 10331049
-0.17724 -0.083159998 0.88200003 10396843
-0.17516191 -0.082971431 0.88000005 10462636
-0.17309143 -0.082782857 0.87800002 10463149
-0.17180952 -0.082971431 0.88000005 10528172
-0.16974667 -0.082782857 0.87800002 10528170
-0.16807428 -0.082782857 0.87800002 10528172
-0.16640191 -0.082782857 0.87800002 10462894
-0.16472952 -0.082782857 0.87800002 10462894
-0.16250001 -0.082500003 0.87500006 10463150
-0.16083334 -0.082500003 0.87500006 10462638
-0.15916668 -0.082500003 0.87500006 10331309
-0.15750001 -0.082500003 0.87500006 10265771
-0.15583335 -0.082500003 0.87500006 10200490
-0.15381429 -0.082311429 0.87300003 10134953
-0.15215144 -0.082311429 0.87300003 10200489
-0.15014382 -0.082122862 0.87100005 10265768
-0.14848477 -0.082122862 0.87100005 10331302
-0.14682572 -0.082122862 0.87100005 10396583
-0.14516667 -0.082122862 0.87100005 10330537
-0.14317811 -0.081934281 0.86900002 10265000
-0.14152285 -0.081934281 0.86900002 10199464
-0.13986762 -0.081934281 0.86900002 10199206
-0.13821238 -0.081934281 0.86900002 10133669
-0.13655715 -0.081934281 0.86900002 10068131
-0.13490191 -0.081934281 0.86900002 10133666
-0.13324666 -0.081934281 0.86900002 10264217
-0.13159144 -0.081934281 0.86900002 9215376
-0.13023524 -0.082122862 0.87100005 8224376
-0.12857619 -0.082122862 0.87100005 6971744
-0.12691714 -0.082122862 0.87100005 5792357
-0.12497048 -0.081934281 0.86900002 5924202
-0.12331524 -0.081934281 0.86900002 6121321
-0.12166 -0.081934281 0.86900002 6055784
-0.12000477 -0.081934281 0.86900002 6055529
-0.11807714 -0.081745721 0.86700004 5989739
-0.11615715 -0.081557155 0.86500007 5924456
-0.11503904 -0.081934281 0.86900002 5924454
-0.11390572 -0.082311429 0.87300003 5924452
-0.1125 -0.082500003 0.87500006 5858914
-0.11083334 -0.082500003 0.87500006 5858659
-0.10916667 -0.082500003 0.87500006 5924453
-0.10786857 -0.082782857 0.87800002 5989473
-0.10619619 -0.082782857 0.87800002 5988702
-0.10452381 -0.082782857 0.87800002 6054258
-0.10332 -0.083159998 0.88200003 6583687
-0.10164 -0.083159998 0.88200003 7110798
-0.10018667 -0.08334858 0.88400006 8097429
-0.098502867 -0.08334858 0.88400006 9080467
-0.096819051 -0.08334858 0.88400006 8949394
-0.095458098 -0.083631434 0.88700002 8883601
-0.093768574 -0.083631434 0.88700002 8883601
-0.092286676 -0.083820008 0.88900006 8949138
-0.090593338 -0.083820008 0.88900006 8950164
-0.088900007 -0.083820008 0.88900006 8948623
-0.087402858 -0.084008567 0.89100003 8751755
-0.085994288 -0.084291428 0.89400005 8619656
-0.084291428 -0.084291428 0.89400005 8554117
-0.082773335 -0.084480003 0.89600003 8488323
-0.08124762 -0.084668577 0.89800006 8422529
-0.079537146 -0.084668577 0.89800006 8422272
-0.077826671 -0.084668577 0.89800006 8356479
-0.076370478 -0.084951431 0.90100002 8290430
-0.074820004 -0.085140005 0.90300006 8159102
-0.073261909 -0.085328571 0.90500003 8093305
-0.071775243 -0.085611433 0.90800005 8027764
-0.070199996 -0.0858 0.91000003 7961200
-0.068466663 -0.0858 0.91000003 7895147
-0.06673333 -0.0858 0.91000003 7895402
-0.064999998 -0.0858 0.91000003 6514024
-0.063266665 -0.0858 0.91000003 5133927
-0.061533332 -0.0858 0.91000003 4606565
-0.059799999 -0.0858 0.91000003 4144218
-0.06234191 -0.092117146 0.97700006 3749966
-0.060666665 -0.092399999 0.98000002 3360612
-0.058800001 -0.092399999 0.98000002 5596795
-0.056759052 -0.092117146 0.97700006 7894137
-0.054898094 -0.092117146 0.97700006 7896183
-0.053037144 -0.092117146 0.97700006 7896700
-0.05101905 -0.091834284 0.97400004 8028288
-0.049062859 -0.091645718 0.97200006 8224899
-0.047211431 -0.091645718 0.97200006 8290693
-0.045360003 -0.091645718 0.97200006 8356484
-0.043508574 -0.091645718 0.97200006 8488066
-0.041657142 -0.091645718 0.97200006 8618628
-0.039805714 -0.091645718 0.97200006 8487302
-0.037837144 -0.091362864 0.96900004 8356206
-0.03599143 -0.091362864 0.96900004 6252630
-0.034145713 -0.091362864 0.96900004 4211267
-0.032400001 -0.091645718 0.97200006 3677744
-0.030548571 -0.091645718 0.97200006 3220530
-0.028697144 -0.091645718 0.97200006 2959925
-0.19157143 -0.082588576 0.89400005 12239063
-0.18986858 -0.082588576 0.89400005 10986682
-0.18711334 -0.082126677 0.88900006 9739435
-0.18500286 -0.081941903 0.88700002 9870748
-0.18331334 -0.081941903 0.88700002 10002336
-0.18100953 -0.081664771 0.88400006 10134181
-0.17932571 -0.081664771 0.88400006 10331305
-0.17724 -0.081479996 0.88200003 10331565
-0.17516191 -0.081295244 0.88000005 10331822
-0.17348573 -0.081295244 0.88000005 10397359
-0.17180952 -0.081295244 0.88000005 10462898
-0.17013335 -0.081295244 0.88000005 10462902
-0.16807428 -0.081110477 0.87800002 10528435
-0.16640191 -0.081110477 0.87800002 10462897
-0.16472952 -0.081110477 0.87800002 10397615
-0.16250001 -0.080833338 0.87500006 10397357
-0.16083334 -0.080833338 0.87500006 10462635
-0.15916668 -0.080833338 0.87500006 10397098
-0.15750001 -0.080833338 0.87500006 10331561
-0.15583335 -0.080833338 0.87500006 10266025
-0.15416668 -0.080833338 0.87500006 10200488
-0.15215144 -0.080648571 0.87300003 10265768
-0.15048857 -0.080648571 0.87300003 10265767
-0.14848477 -0.080463812 0.87100005 10331302
-0.14682572 -0.080463812 0.87100005 10396839
-0.14516667 -0.080463812 0.87100005 10331048
-0.14317811 -0.080279045 0.86900002 10265256
-0.14152285 -0.080279045 0.86900002 10199464
-0.13986762 -0.080279045 0.86900002 10133670
-0.13821238 -0.080279045 0.86900002 10068132
-0.13655715 -0.080279045 0.86900002 10067874
-0.13490191 -0.080279045 0.86900002 10002336
-0.13324666 -0.080279045 0.86900002 10002078
-0.13159144 -0.080279045 0.86900002 9346205
-0.13023524 -0.080463812 0.87100005 8749951
-0.12857619 -0.080463812 0.87100005 7235681
-0.12691714 -0.080463812 0.87100005 5791846
-0.12497048 -0.080279045 0.86900002 5924203
-0.12331524 -0.080279045 0.86900002 6055787
-0.12166 -0.080279045 0.86900002 6055788
-0.12000477 -0.080279045 0.86900002 6121325
-0.11807714 -0.080094293 0.86700004 6121070
-0.11669429 -0.080279045 0.86900002 6121066
-0.11503904 -0.080279045 0.86900002 6055526
-0.11416667 -0.080833338 0.87500006 5989990
-0.11288572 -0.081110477 0.87800002 5924198
-0.11121333 -0.081110477 0.87800002 5923943
-0.10954095 -0.081110477 0.87800002 5858409
-0.10811429 -0.081295244 0.88000005 5858408
-0.1064381 -0.081295244 0.88000005 5923687
-0.10476191 -0.081295244 0.88000005 5988975
-0.10355429 -0.081664771 0.88400006 6319224
-0.10164 -0.081479996 0.88200003 6649739
-0.10018667 -0.081664771 0.88400006 7835038
-0.098502867 -0.081664771 0.88400006 9014682
-0.097147621 -0.081941903 0.88700002 8883350
-0.095458098 -0.081941903 0.88700002 8817556
-0.093768574 -0.081941903 0.88700002 8817555
-0.092286676 -0.082126677 0.88900006 8752279
-0.090593338 -0.082126677 0.88900006 8948892
-0.089099996 -0.082311429 0.89100003 9211029
-0.087402858 -0.082311429 0.89100003 8882574
-0.085994288 -0.082588576 0.89400005 8619913
-0.084291428 -0.082588576 0.89400005 8553860
-0.082773335 -0.082773335 0.89600003 8422786
-0.08124762 -0.082958095 0.89800006 8422529
-0.079537146 -0.082958095 0.89800006 8356736
-0.077826671 -0.082958095 0.89800006 8290944
-0.076370478 -0.083235241 0.90100002 8224894
-0.074820004 -0.083420001 0.90300006 8159101
-0.073261909 -0.083604768 0.90500003 8159097
-0.071775243 -0.083881907 0.90800005 8027510
-0.070199996 -0.084066667 0.91000003 7961456
-0.068466663 -0.084066667 0.91000003 7961451
-0.06673333 -0.084066667 0.91000003 7961448
-0.064999998 -0.084066667 0.91000003 6382694
-0.063127622 -0.083881907 0.90800005 4804198
-0.061398096 -0.083881907 0.90800005 4408678
-0.059668574 -0.083881907 0.90800005 4013140
-0.06234191 -0.090256192 0.97700006 3488067
-0.060666665 -0.090533338 0.98000002 2963296
-0.058800001 -0.090533338 0.98000002 5334653
-0.056759052 -0.090256192 0.97700006 7761017
-0.054898094 -0.090256192 0.97700006 7830389
-0.053037144 -0.090256192 0.97700006 7896700
-0.05101905 -0.089979053 0.97400004 8028035
-0.049062859 -0.089794286 0.97200006 8224645
-0.047211431 -0.089794286 0.97200006 8290695
-0.045360003 -0.089794286 0.97200006 8356485
-0.043508574 -0.089794286 0.97200006 8422275
-0.041657142 -0.089794286 0.97200006 8487556
-0.039805714 -0.089794286 0.97200006 8356230
-0.037837144 -0.089517146 0.96900004 8290416
-0.03599143 -0.089517146 0.96900004 6514779
-0.034145713 -0.089517146 0.96900004 4804936
-0.032466665 -0.089979053 0.97400004 3744822
-0.030611429 -0.089979053 0.97400004 2698562
-0.02875619 -0.089979053 0.97400004 2699343
-0.19157143 -0.080885723 0.89400005 12304340
-0.18923144 -0.080614291 0.89100003 10986166
-0.18711334 -0.080433331 0.88900006 9738921
-0.18500286 -0.080252379 0.88700002 9869467
-0.18331334 -0.080252379 0.88700002 10001567
-0.18100953 -0.079980955 0.88400006 10134179
-0.17932571 -0.079980955 0.88400006 10331559
-0.17724 -0.079800002 0.88200003 10266283
-0.17556001 -0.079800002 0.88200003 10200749
-0.17348573 -0.07961905 0.88000005 10331567
-0.17220001 -0.079800002 0.88200003 10462897
-0.17013335 -0.07961905 0.88000005 10463155
-0.16807428 -0.079438098 0.87800002 10528432
-0.16640191 -0.079438098 0.87800002 10462894
-0.16472952 -0.079438098 0.87800002 10397357
-0.16305715 -0.079438098 0.87800002 10397100
-0.16083334 -0.079166673 0.87500006 10462634
-0.15916668 -0.079166673 0.87500006 10397097
-0.15750001 -0.079166673 0.87500006 10396841
-0.15583335 -0.079166673 0.87500006 10331305
-0.15381429 -0.078985721 0.87300003 10331304
-0.15215144 -0.078985721 0.87300003 10331303
-0.15014382 -0.078804761 0.87100005 10331304
-0.14848477 -0.078804761 0.87100005 10331304
-0.14682572 -0.078804761 0.87100005 10396840
-0.14516667 -0.078804761 0.87100005 10331559
-0.14317811 -0.078623809 0.86900002 10264999
-0.14152285 -0.078623809 0.86900002 10199463
-0.13986762 -0.078623809 0.86900002 10133670
-0.13821238 -0.078623809 0.86900002 10068133
-0.13655715 -0.078623809 0.86900002 10067875
-0.13490191 -0.078623809 0.86900002 9936802
-0.13324666 -0.078623809 0.86900002 9805218
-0.13159144 -0.078623809 0.86900002 9542818
-0.13023524 -0.078804761 0.87100005 9276547
-0.12857619 -0.078804761 0.87100005 7499877
-0.12691714 -0.078804761 0.87100005 5792617
-0.12497048 -0.078623809 0.86900002 5924462
-0.12331524 -0.078623809 0.86900002 6055789
-0.12166 -0.078623809 0.86900002 6121836
-0.12000477 -0.078623809 0.86900002 6187373
-0.11834953 -0.078623809 0.86900002 6252911
-0.11669429 -0.078623809 0.86900002 6318443
-0.11530381 -0.078804761 0.87100005 6187367
-0.11416667 -0.079166673 0.87500006 6055526
-0.11288572 -0.079438098 0.87800002 5989734
-0.11083334 -0.079166673 0.87500006 5989477
-0.10954095 -0.079438098 0.87800002 5858149
-0.10811429 -0.07961905 0.88000005 5792613
-0.1064381 -0.07961905 0.88000005 5858405
-0.105 -0.079800002 0.88200003 5989226
-0.10355429 -0.079980955 0.88400006 6120304
-0.10187048 -0.079980955 0.88400006 6254213
-0.10052667 -0.080252379 0.88700002 7572634
-0.098837145 -0.080252379 0.88700002 8948886
-0.097147621 -0.080252379 0.88700002 8882834
-0.095458098 -0.080252379 0.88700002 8817295
-0.093768574 -0.080252379 0.88700002 8686221
-0.092286676 -0.080433331 0.88900006 8620945
-0.090593338 -0.080433331 0.88900006 9014422
-0.088900007 -0.080433331 0.88900006 9473426
-0.087402858 -0.080614291 0.89100003 9078927
-0.085994288 -0.080885723 0.89400005 8685191
-0.084291428 -0.080885723 0.89400005 8553856
-0.082773335 -0.081066668 0.89600003 8422784
-0.08124762 -0.08124762 0.89800006 8357249
-0.079537146 -0.08124762 0.89800006 8356481
-0.077826671 -0.08124762 0.89800006 8290945
-0.076370478 -0.081519045 0.90100002 8224895
-0.074820004 -0.081700005 0.90300006 8224893
-0.073261909 -0.081880957 0.90500003 8224377
-0.071775243 -0.082152382 0.90800005 8092790
-0.070045717 -0.082152382 0.90800005 7961460
-0.068316191 -0.082152382 0.90800005 7961458
-0.06673333 -0.082333334 0.91000003 8026726
-0.064999998 -0.082333334 0.91000003 6251355
-0.063127622 -0.082152382 0.90800005 4540254
-0.061398096 -0.082152382 0.90800005 4210785
-0.059668574 -0.082152382 0.90800005 3883089
-0.06234191 -0.088395238 0.97700006 3223872
-0.060666665 -0.088666663 0.98000002 2568794
-0.058800001 -0.088666663 0.98000002 5138035
-0.056759052 -0.088395238 0.97700006 7695990
-0.054898094 -0.088395238 0.97700006 7764858
-0.053037144 -0.088395238 0.97700006 7896702
-0.05101905 -0.088123813 0.97400004 8093570
-0.049062859 -0.087942861 0.97200006 8290181
-0.047211431 -0.087942861 0.97200006 8290696
-0.045360003 -0.087942861 0.97200006 8356487
-0.043508574 -0.087942861 0.97200006 8356997
-0.041657142 -0.087942861 0.97200006 8422021
-0.039805714 -0.087942861 0.97200006 8290694
-0.037837144 -0.087671429 0.96900004 8224626
-0.03599143 -0.087671429 0.96900004 6842463
-0.034145713 -0.087671429 0.96900004 5460041
-0.032466665 -0.088123813 0.97400004 3811891
-0.030611429 -0.088123813 0.97400004 2239294
-0.02875619 -0.088123813 0.97400004 2437449
-0.19050001 -0.078740001 0.88900006 12435154
-0.18880667 -0.078740001 0.88900006 11052467
-0.18711334 -0.078740001 0.88900006 9738663
-0.18500286 -0.078562863 0.88700002 9869723
-0.18331334 -0.078562863 0.88700002 10001054
-0.18100953 -0.078297146 0.88400006 10134433
-0.17932571 -0.078297146 0.88400006 10331813
-0.17724 -0.078120001 0.88200003 10331818
-0.17556001 -0.078120001 0.88200003 10331820
-0.17348573 -0.077942863 0.88000005 10397359
-0.17220001 -0.078120001 0.88200003 10463151
-0.17013335 -0.077942863 0.88000005 10528688
-0.16807428 -0.077765711 0.87800002 10593966
-0.16640191 -0.077765711 0.87800002 10528428
-0.16472952 -0.077765711 0.87800002 10462891
-0.16250001 -0.077500008 0.87500006 10462635
-0.16083334 -0.077500008 0.87500006 10528170
-0.15916668 -0.077500008 0.87500006 10462633
-0.15750001 -0.077500008 0.87500006 10396585
-0.15583335 -0.077500008 0.87500006 10331050
-0.15381429 -0.077322856 0.87300003 10331048
-0.15180287 -0.077145718 0.87100005 10330791
-0.15014382 -0.077145718 0.87100005 10265257
-0.14848477 -0.077145718 0.87100005 10265259
-0.14682572 -0.077145718 0.87100005 10199721
-0.14516667 -0.077145718 0.87100005 10199463
-0.14350763 -0.077145718 0.87100005 10199463
-0.14152285 -0.076968573 0.86900002 10133671
-0.14018953 -0.077145718 0.87100005 10133671
-0.13853049 -0.077145718 0.87100005 10067879
-0.13687144 -0.077145718 0.87100005 10067877
-0.13521239 -0.077145718 0.87100005 9936548
-0.13355334 -0.077145718 0.87100005 9805221
-0.13189429 -0.077145718 0.87100005 9608615
-0.13023524 -0.077145718 0.87100005 9475720
-0.12887143 -0.077322856 0.87300003 7631721
-0.12720858 -0.077322856 0.87300003 5859181
-0.1252581 -0.077145718 0.87100005 6056305
-0.12359905 -0.077145718 0.87100005 6188911
-0.12166 -0.076968573 0.86900002 6385773
-0.12000477 -0.076968573 0.86900002 6582638
-0.11834953 -0.076968573 0.86900002 6516592
-0.11669429 -0.076968573 0.86900002 6450540
-0.11503904 -0.076968573 0.86900002 6253161
-0.11390572 -0.077322856 0.87300003 6121319
-0.11224286 -0.077322856 0.87300003 6055270
-0.11083334 -0.077500008 0.87500006 5989476
-0.10916667 -0.077500008 0.87500006 5858146
-0.10750001 -0.077500008 0.87500006 5792355
-0.10583334 -0.077500008 0.87500006 5858148
-0.105 -0.078120001 0.88200003 5923942
-0.10332 -0.078120001 0.88200003 5923688
-0.10187048 -0.078297146 0.88400006 5924223
-0.10018667 -0.078297146 0.88400006 7375511
-0.098837145 -0.078562863 0.88700002 8883346
-0.097147621 -0.078562863 0.88700002 8883086
-0.095458098 -0.078562863 0.88700002 8883083
-0.093768574 -0.078562863 0.88700002 8817288
-0.092079051 -0.078562863 0.88700002 8751756
-0.090389527 -0.078562863 0.88700002 9014672
-0.088900007 -0.078740001 0.88900006 9277072
-0.087402858 -0.078917146 0.89100003 9013392
-0.085994288 -0.079182863 0.89400005 8750726
-0.084291428 -0.079182863 0.89400005 8619388
-0.082773335 -0.079360001 0.89600003 8488318
-0.08124762 -0.079537146 0.89800006 8422529
-0.079537146 -0.079537146 0.89800006 8356482
-0.078086674 -0.079802856 0.90100002 8290947
-0.076370478 -0.079802856 0.90100002 8225152
-0.074820004 -0.079980001 0.90300006 8159357
-0.073261909 -0.080157146 0.90500003 8158842
-0.071775243 -0.080422863 0.90800005 8027511
-0.070045717 -0.080422863 0.90800005 7961720
-0.068316191 -0.080422863 0.90800005 7961209
-0.066586666 -0.080422863 0.90800005 8026468
-0.064857148 -0.080422863 0.90800005 6251088
-0.06291905 -0.080157146 0.90500003 4472918
-0.061195243 -0.080157146 0.90500003 4211293
-0.059471432 -0.080157146 0.90500003 4015437
-0.062533334 -0.086800002 0.98000002 3224126
-0.060666665 -0.086800002 0.98000002 2501972
-0.058800001 -0.086800002 0.98000002 5071210
-0.056759052 -0.086534292 0.97700006 7630964
-0.054898094 -0.086534292 0.97700006 7765119
-0.053037144 -0.086534292 0.97700006 7896704
-0.051176194 -0.086534292 0.97700006 8093570
-0.049163811 -0.086268574 0.97400004 8224902
-0.047211431 -0.086091429 0.97200006 8290698
-0.045360003 -0.086091429 0.97200006 8356745
-0.043508574 -0.086091429 0.97200006 8357000
-0.041657142 -0.086091429 0.97200006 8422023
-0.039805714 -0.086091429 0.97200006 8356230
-0.037954286 -0.086091429 0.97200006 8224628
-0.036102857 -0.086091429 0.97200006 6776675
-0.034145713 -0.085825719 0.96900004 5328714
-0.19050001 -0.07704667 0.88900006 12632019
-0.18880667 -0.07704667 0.88900006 11184308
-0.18669239 -0.076873332 0.88700002 9738408
-0.18500286 -0.076873332 0.88700002 9868955
-0.18331334 -0.076873332 0.88700002 10001823
-0.18100953 -0.076613337 0.88400006 10134691
-0.17932571 -0.076613337 0.88400006 10331559
-0.17764191 -0.076613337 0.88400006 10397100
-0.17556001 -0.076439999 0.88200003 10462893
-0.17388 -0.076439999 0.88200003 10463151
-0.17220001 -0.076439999 0.88200003 10528689
-0.17013335 -0.076266669 0.88000005 10594227
-0.16845715 -0.076266669 0.88000005 10725040
-0.16640191 -0.076093338 0.87800002 10593710
-0.16472952 -0.076093338 0.87800002 10528173
-0.16305715 -0.076093338 0.87800002 10593708
-0.16083334 -0.075833343 0.87500006 10659244
-0.15916668 -0.075833343 0.87500006 10528172
-0.15750001 -0.075833343 0.87500006 10396844
-0.15583335 -0.075833343 0.87500006 10396587
-0.15381429 -0.075659998 0.87300003 10396330
-0.15215144 -0.075659998 0.87300003 10330793
-0.15048857 -0.075659998 0.87300003 10265260
-0.14882571 -0.075659998 0.87300003 10133935
-0.14682572 -0.075486667 0.87100005 10068395
-0.14516667 -0.075486667 0.87100005 10133927
-0.14350763 -0.075486667 0.87100005 10199463
-0.14184858 -0.075486667 0.87100005 10133670
-0.14018953 -0.075486667 0.87100005 10133670
-0.13853049 -0.075486667 0.87100005 10067878
-0.13687144 -0.075486667 0.87100005 10067876
-0.13521239 -0.075486667 0.87100005 9936547
-0.13355334 -0.075486667 0.87100005 9805220
-0.13189429 -0.075486667 0.87100005 9740198
-0.13053429 -0.075659998 0.87300003 9673609
-0.12887143 -0.075659998 0.87300003 7829355
-0.12720858 -0.075659998 0.87300003 5989999
-0.1252581 -0.075486667 0.87100005 6188146
-0.12359905 -0.075486667 0.87100005 6385008
-0.12194 -0.075486667 0.87100005 6648430
-0.12028096 -0.075486667 0.87100005 6976114
-0.11862192 -0.075486667 0.87100005 6779766
-0.11696286 -0.075486667 0.87100005 6581872
-0.11530381 -0.075486667 0.87100005 6384746
-0.11390572 -0.075659998 0.87300003 6187112
-0.1125 -0.075833343 0.87500006 6055270
-0.11083334 -0.075833343 0.87500006 5989475
-0.10916667 -0.075833343 0.87500006 5923936
-0.10836001 -0.076439999 0.88200003 5858146
-0.10692191 -0.076613337 0.88400006 5858148
-0.1052381 -0.076613337 0.88400006 5858148
-0.10355429 -0.076613337 0.88400006 5726820
-0.10187048 -0.076613337 0.88400006 5661050
-0.10052667 -0.076873332 0.88700002 7243921
-0.098837145 -0.076873332 0.88700002 8817810
-0.097147621 -0.076873332 0.88700002 8883347
-0.095458098 -0.076873332 0.88700002 9014159
-0.093768574 -0.076873332 0.88700002 8948107
-0.092079051 -0.076873332 0.88700002 8883087
-0.090593338 -0.07704667 0.88900006 8949907
-0.088900007 -0.07704667 0.88900006 9080464
-0.087402858 -0.07722 0.89100003 8948110
-0.085994288 -0.077480003 0.89400005 8816264
-0.084291428 -0.077480003 0.89400005 8684931
-0.082773335 -0.077653334 0.89600003 8553601
-0.081066668 -0.077653334 0.89600003 8488064
-0.079537146 -0.077826671 0.89800006 8422017
-0.077826671 -0.077826671 0.89800006 8290947
-0.076370478 -0.078086674 0.90100002 8225152
-0.074820004 -0.078260005 0.90300006 8159357
-0.073261909 -0.078433335 0.90500003 8158842
-0.071538098 -0.078433335 0.90500003 8027768
-0.070045717 -0.078693338 0.90800005 7961718
-0.068316191 -0.078693338 0.90800005 8026741
-0.066586666 -0.078693338 0.90800005 8092264
-0.064857148 -0.078693338 0.90800005 6251099
-0.063127622 -0.078693338 0.90800005 4409436
-0.061398096 -0.078693338 0.90800005 4278109
-0.059668574 -0.078693338 0.90800005 4211529
-0.062533334 -0.084933333 0.98000002 3289910
-0.060666665 -0.084933333 0.98000002 2435924
-0.058800001 -0.084933333 0.98000002 5004403
-0.056933336 -0.084933333 0.98000002 7565430
-0.054898094 -0.084673338 0.97700006 7765369
-0.053037144 -0.084673338 0.97700006 7962237
-0.051176194 -0.084673338 0.97700006 8093569
-0.049163811 -0.084413335 0.97400004 8224900
-0.047211431 -0.084240004 0.97200006 8290696
-0.045360003 -0.084240004 0.97200006 8356490
-0.043508574 -0.084240004 0.97200006 8422541
-0.041657142 -0.084240004 0.97200006 8487561
-0.039805714 -0.084240004 0.97200006 8356229
-0.037954286 -0.084240004 0.97200006 8290165
-0.036102857 -0.084240004 0.97200006 6776420
-0.18923144 -0.075522862 0.89100003 11052470
-0.18711334 -0.075353332 0.88900006 9672617
-0.18500286 -0.075183809 0.88700002 9803164
-0.18331334 -0.075183809 0.88700002 10002593
-0.18100953 -0.074929528 0.88400006 10265510
-0.17932571 -0.074929528 0.88400006 10462634
-0.17764191 -0.074929528 0.88400006 10462894
-0.17556001 -0.074759997 0.88200003 10397871
-0.17388 -0.074759997 0.88200003 10397616
-0.17220001 -0.074759997 0.88200003 10463155
-0.17052001 -0.074759997 0.88200003 10528695
-0.16845715 -0.074590482 0.88000005 10659507
-0.16678096 -0.074590482 0.88000005 10593712
-0.16472952 -0.074420951 0.87800002 10528174
-0.16305715 -0.074420951 0.87800002 10528173
-0.16083334 -0.07416667 0.87500006 10593710
-0.15916668 -0.07416667 0.87500006 10462640
-0.15714 -0.07399714 0.87300003 10397102
-0.15583335 -0.07416667 0.87500006 10331053
-0.15381429 -0.07399714 0.87300003 10330796
-0.15215144 -0.07399714 0.87300003 10265260
-0.15048857 -0.07399714 0.87300003 10265264
-0.14882571 -0.07399714 0.87300003 10133940
-0.14716287 -0.07399714 0.87300003 10068398
-0.14516667 -0.073827624 0.87100005 10133928
-0.14350763 -0.073827624 0.87100005 10133927
-0.14184858 -0.073827624 0.87100005 10133670
-0.14018953 -0.073827624 0.87100005 10133669
-0.13884857 -0.07399714 0.87300003 10067877
-0.13718571 -0.07399714 0.87300003 10067875
-0.13552287 -0.07399714 0.87300003 9936546
-0.13386001 -0.07399714 0.87300003 9805220
-0.13219714 -0.07399714 0.87300003 9805734
-0.13053429 -0.07399714 0.87300003 9871498
-0.12887143 -0.07399714 0.87300003 7962478
-0.12720858 -0.07399714 0.87300003 6055281
-0.12554571 -0.07399714 0.87300003 6187124
-0.12388287 -0.07399714 0.87300003 6318961
-0.12222001 -0.07399714 0.87300003 6517103
-0.12055714 -0.07399714 0.87300003 6779510
-0.11889429 -0.07399714 0.87300003 6648701
-0.11723143 -0.07399714 0.87300003 6582132
-0.11556857 -0.07399714 0.87300003 6384747
-0.11416667 -0.07416667 0.87500006 6187368
-0.1125 -0.07416667 0.87500006 6121830
-0.11121333 -0.074420951 0.87800002 6056290
-0.10954095 -0.074420951 0.87800002 5924703
-0.10836001 -0.074759997 0.88200003 5858913
-0.10668 -0.074759997 0.88200003 5858404
-0.105 -0.074759997 0.88200003 5792610
-0.10355429 -0.074929528 0.88400006 5660768
-0.10187048 -0.074929528 0.88400006 5529205
-0.10052667 -0.075183809 0.88700002 7111307
-0.098837145 -0.075183809 0.88700002 8686993
-0.097147621 -0.075183809 0.88700002 8752280
-0.095458098 -0.075183809 0.88700002 8883347
-0.093768574 -0.075183809 0.88700002 8883342
-0.092079051 -0.075183809 0.88700002 8883602
-0.090593338 -0.075353332 0.88900006 9014678
-0.088900007 -0.075353332 0.88900006 9146001
-0.087402858 -0.075522862 0.89100003 8948108
-0.085994288 -0.075777143 0.89400005 8750731
-0.084291428 -0.075777143 0.89400005 8619402
-0.082773335 -0.075946666 0.89600003 8553604
-0.08124762 -0.076116197 0.89800006 8488063
-0.079537146 -0.076116197 0.89800006 8422017
-0.077826671 -0.076116197 0.89800006 8356483
-0.076370478 -0.076370478 0.90100002 8290688
-0.074820004 -0.076540001 0.90300006 8224894
-0.073261909 -0.076709531 0.90500003 8159099
-0.071775243 -0.076963812 0.90800005 8027769
-0.070045717 -0.076963812 0.90800005 7961717
-0.068316191 -0.076963812 0.90800005 8027249
-0.06673333 -0.077133335 0.91000003 8027243
-0.064999998 -0.077133335 0.91000003 6250342
-0.063266665 -0.077133335 0.91000003 4411490
-0.061533332 -0.077133335 0.91000003 4212318
-0.059799999 -0.077133335 0.91000003 4079942
-0.062533334 -0.083066665 0.98000002 3159086
-0.060666665 -0.083066665 0.98000002 2239061
-0.058800001 -0.083066665 0.98000002 4872828
-0.056933336 -0.083066665 0.98000002 7565431
-0.055066667 -0.083066665 0.98000002 7699571
-0.053037144 -0.082812384 0.97700006 7896697
-0.051176194 -0.082812384 0.97700006 8093568
-0.04931524 -0.082812384 0.97700006 8225155
-0.047308575 -0.082558095 0.97400004 8290694
-0.045360003 -0.082388572 0.97200006 8356492
-0.043508574 -0.082388572 0.97200006 8356499
-0.041657142 -0.082388572 0.97200006 8356492
-0.039805714 -0.082388572 0.97200006 8290693
-0.037954286 -0.082388572 0.97200006 8290165
-0.036102857 -0.082388572 0.97200006 6776422
-0.18923144 -0.073825717 0.89100003 10986419
-0.18711334 -0.073660001 0.88900006 9606311
-0.18500286 -0.073494285 0.88700002 9802907
-0.18331334 -0.073494285 0.88700002 10067873
-0.18162382 -0.073494285 0.88700002 10331047
-0.17932571 -0.073245719 0.88400006 10659244
-0.17764191 -0.073245719 0.88400006 10528689
-0.17556001 -0.073080003 0.88200003 10397616
-0.17388 -0.073080003 0.88200003 10397871
-0.17220001 -0.073080003 0.88200003 10397617
-0.17052001 -0.073080003 0.88200003 10463155
-0.16845715 -0.072914287 0.88000005 10593969
-0.16678096 -0.072914287 0.88000005 10593712
-0.16472952 -0.072748572 0.87800002 10593711
-0.16305715 -0.072748572 0.87800002 10528174
-0.16083334 -0.072500005 0.87500006 10528175
-0.15916668 -0.072500005 0.87500006 10462639
-0.15714 -0.07233429 0.87300003 10396846
-0.15547715 -0.07233429 0.87300003 10331053
-0.15381429 -0.07233429 0.87300003 10331052
-0.15215144 -0.07233429 0.87300003 10265772
-0.15048857 -0.07233429 0.87300003 10265261
-0.14882571 -0.07233429 0.87300003 10199727
-0.14716287 -0.07233429 0.87300003 10133931
-0.14516667 -0.072168581 0.87100005 10133927
-0.14383715 -0.07233429 0.87300003 10133670
-0.14184858 -0.072168581 0.87100005 10133669
-0.14018953 -0.072168581 0.87100005 10133412
-0.13884857 -0.07233429 0.87300003 10067875
-0.13718571 -0.07233429 0.87300003 10067618
-0.13552287 -0.07233429 0.87300003 9936545
-0.13386001 -0.07233429 0.87300003 9870755
-0.13219714 -0.07233429 0.87300003 9936805
-0.13053429 -0.07233429 0.87300003 10068366
-0.12887143 -0.07233429 0.87300003 8095608
-0.12720858 -0.07233429 0.87300003 6120562
-0.12554571 -0.07233429 0.87300003 6186349
-0.12388287 -0.07233429 0.87300003 6318444
-0.12222001 -0.07233429 0.87300003 6451308
-0.12055714 -0.07233429 0.87300003 6582640
-0.11889429 -0.07233429 0.87300003 6583157
-0.11723143 -0.07233429 0.87300003 6581871
-0.11556857 -0.07233429 0.87300003 6384746
-0.11416667 -0.072500005 0.87500006 6252904
-0.11288572 -0.072748572 0.87800002 6187366
-0.11121333 -0.072748572 0.87800002 6121571
-0.10954095 -0.072748572 0.87800002 5990496
-0.10786857 -0.072748572 0.87800002 5924193
-0.10668 -0.073080003 0.88200003 5858658
-0.1052381 -0.073245719 0.88400006 5792609
-0.10390572 -0.073494285 0.88700002 5594976
-0.10221619 -0.073494285 0.88700002 5463669
-0.10052667 -0.073494285 0.88700002 6978954
-0.098837145 -0.073494285 0.88700002 8555148
-0.097147621 -0.073494285 0.88700002 8687759
-0.095458098 -0.073494285 0.88700002 8817806
-0.093980007 -0.073660001 0.88900006 8817549
-0.092079051 -0.073494285 0.88700002 8883344
-0.090593338 -0.073660001 0.88900006 9014675
-0.088900007 -0.073660001 0.88900006 9211023
-0.087402858 -0.073825717 0.89100003 8948107
-0.085994288 -0.074074291 0.89400005 8750730
-0.084291428 -0.074074291 0.89400005 8619401
-0.082773335 -0.074239999 0.89600003 8553601
-0.081066668 -0.074239999 0.89600003 8488057
-0.079537146 -0.074405722 0.89800006 8422270
-0.077826671 -0.074405722 0.89800006 8356738
-0.076370478 -0.074654289 0.90100002 8356224
-0.074654289 -0.074654289 0.90100002 8225406
-0.073261909 -0.074985713 0.90500003 8159355
-0.071775243 -0.075234286 0.90800005 8093304
-0.070045717 -0.075234286 0.90800005 8026995
-0.068466663 -0.075400002 0.91000003 8027246
-0.06673333 -0.075400002 0.91000003 8026987
-0.065214291 -0.075648576 0.91300005 6249576
-0.063475236 -0.075648576 0.91300005 4477538
-0.061736196 -0.075648576 0.91300005 4212061
-0.064400002 -0.081200004 0.98000002 3949132
-0.062533334 -0.081200004 0.98000002 2962747
-0.060666665 -0.081200004 0.98000002 2042710
-0.058800001 -0.081200004 0.98000002 4806770
-0.056933336 -0.081200004 0.98000002 7564917
-0.054898094 -0.080951437 0.97700006 7699577
-0.053037144 -0.080951437 0.97700006 7896445
-0.051176194 -0.080951437 0.97700006 8093569
-0.04931524 -0.080951437 0.97700006 8290435
-0.047308575 -0.080702864 0.97400004 8355974
-0.045360003 -0.080537148 0.97200006 8422537
-0.043508574 -0.080537148 0.97200006 8357260
-0.041657142 -0.080537148 0.97200006 8290953
-0.039805714 -0.080537148 0.97200006 8290693
-0.037954286 -0.080537148 0.97200006 8290422
-0.036177143 -0.080702864 0.97400004 6776424
-0.034321908 -0.080702864 0.97400004 5329485
-0.18923144 -0.072128572 0.89100003 10855088
-0.18711334 -0.07196667 0.88900006 9540261
-0.18500286 -0.071804762 0.88700002 9736858
-0.18331334 -0.071804762 0.88700002 9936801
-0.18100953 -0.07156191 0.88400006 10199720
-0.17932571 -0.07156191 0.88400006 10462638
-0.17764191 -0.07156191 0.88400006 10397364
-0.17556001 -0.071400002 0.88200003 10266545
-0.17388 -0.071400002 0.88200003 10332078
-0.17259049 -0.07156191 0.88400006 10397871
-0.17052001 -0.071400002 0.88200003 10463152
-0.16845715 -0.071238101 0.88000005 10594224
-0.16678096 -0.071238101 0.88000005 10528176
-0.16472952 -0.071076192 0.87800002 10527920
-0.16305715 -0.071076192 0.87800002 10528176
-0.16083334 -0.07083334 0.87500006 10528175
-0.15916668 -0.07083334 0.87500006 10462383
-0.15714 -0.070671432 0.87300003 10396590
-0.15547715 -0.070671432 0.87300003 10331054
-0.15381429 -0.070671432 0.87300003 10265773
-0.15215144 -0.070671432 0.87300003 10265516
-0.15048857 -0.070671432 0.87300003 10199979
-0.14882571 -0.070671432 0.87300003 10199723
-0.14716287 -0.070671432 0.87300003 10133928
-0.1455 -0.070671432 0.87300003 10133926
-0.14383715 -0.070671432 0.87300003 10133669
-0.14184858 -0.070509523 0.87100005 10133669
-0.14018953 -0.070509523 0.87100005 10133411
-0.13884857 -0.070671432 0.87300003 10067617
-0.13718571 -0.070671432 0.87300003 10067616
-0.13552287 -0.070671432 0.87300003 9936288
-0.13386001 -0.070671432 0.87300003 9870754
-0.13219714 -0.070671432 0.87300003 9936804
-0.13053429 -0.070671432 0.87300003 10068627
-0.12887143 -0.070671432 0.87300003 8161410
-0.12720858 -0.070671432 0.87300003 6317172
-0.12554571 -0.070671432 0.87300003 6317158
-0.12388287 -0.070671432 0.87300003 6318183
-0.12222001 -0.070671432 0.87300003 6319465
-0.12083334 -0.07083334 0.87500006 6386027
-0.11916667 -0.07083334 0.87500006 6385517
-0.11750001 -0.07083334 0.87500006 6385003
-0.11583334 -0.07083334 0.87500006 6187369
-0.11416667 -0.07083334 0.87500006 5989991
-0.11288572 -0.071076192 0.87800002 5989734
-0.11121333 -0.071076192 0.87800002 6055267
-0.10954095 -0.071076192 0.87800002 5923937
-0.10786857 -0.071076192 0.87800002 5792865
-0.10668 -0.071400002 0.88200003 5792609
-0.1052381 -0.07156191 0.88400006 5792609
-0.10390572 -0.071804762 0.88700002 5594977
-0.10221619 -0.071804762 0.88700002 5463669
-0.10052667 -0.071804762 0.88700002 6781321
-0.098837145 -0.071804762 0.88700002 8161159
-0.097147621 -0.071804762 0.88700002 8490630
-0.095458098 -0.071804762 0.88700002 8883337
-0.093980007 -0.07196667 0.88900006 8882829
-0.092079051 -0.071804762 0.88700002 8882574
-0.090593338 -0.07196667 0.88900006 8948368
-0.088900007 -0.07196667 0.88900006 9079693
-0.087402858 -0.072128572 0.89100003 8948362
-0.08570572 -0.072128572 0.89100003 8750985
-0.084291428 -0.072371431 0.89400005 8619400
-0.082773335 -0.072533339 0.89600003 8488318
-0.081066668 -0.072533339 0.89600003 8422516
-0.079537146 -0.07269524 0.89800006 8422267
-0.077826671 -0.07269524 0.89800006 8356482
-0.076370478 -0.072938092 0.90100002 8356224
-0.074820004 -0.073100001 0.90300006 8225150
-0.073261909 -0.073261909 0.90500003 8159611
-0.071775243 -0.073504768 0.90800005 8093560
-0.070199996 -0.073666662 0.91000003 8026994
-0.068466663 -0.073666662 0.91000003 8026988
-0.06673333 -0.073666662 0.91000003 8026987
-0.065214291 -0.073909529 0.91300005 6316139
-0.063475236 -0.073909529 0.91300005 4609379
-0.061736196 -0.073909529 0.91300005 4342876
-0.059997145 -0.073909529 0.91300005 4014930
-0.062533334 -0.079333335 0.98000002 3225672
-0.060666665 -0.079333335 0.98000002 2436440
-0.058800001 -0.079333335 0.98000002 4871785
-0.056933336 -0.079333335 0.98000002 7368052
-0.054898094 -0.079090483 0.97700006 7634047
-0.053037144 -0.079090483 0.97700006 7830912
-0.051176194 -0.079090483 0.97700006 8028034
-0.04931524 -0.079090483 0.97700006 8290436
-0.047308575 -0.078847617 0.97400004 8356230
-0.045360003 -0.078685716 0.97200006 8488582
-0.043508574 -0.078685716 0.97200006 8423046
-0.041657142 -0.078685716 0.97200006 8356742
-0.039805714 -0.078685716 0.97200006 8290950
-0.037954286 -0.078685716 0.97200006 8225144
-0.036177143 -0.078847617 0.97400004 6710122
-0.034321908 -0.078847617 0.97400004 5199182
-0.18711334 -0.070273332 0.88900006 9539236
-0.18500286 -0.070115238 0.88700002 9670809
-0.18331334 -0.070115238 0.88700002 9869728
-0.18100953 -0.069878094 0.88400006 10068390
-0.17932571 -0.069878094 0.88400006 10331308
-0.17724 -0.06972 0.88200003 10266033
-0.17556001 -0.06972 0.88200003 10200751
-0.17388 -0.06972 0.88200003 10332077
-0.17220001 -0.06972 0.88200003 10463150
-0.17052001 -0.06972 0.88200003 10528687
-0.16845715 -0.069561906 0.88000005 10594223
-0.16678096 -0.069561906 0.88000005 10528175
-0.16472952 -0.069403812 0.87800002 10528176
-0.16305715 -0.069403812 0.87800002 10528177
-0.16083334 -0.069166675 0.87500006 10528175
-0.15916668 -0.069166675 0.87500006 10462381
-0.15714 -0.069008574 0.87300003 10396589
-0.15547715 -0.069008574 0.87300003 10331309
-0.15381429 -0.069008574 0.87300003 10265516
-0.15215144 -0.069008574 0.87300003 10199979
-0.15048857 -0.069008574 0.87300003 10199978
-0.14882571 -0.069008574 0.87300003 10199977
-0.14682572 -0.06885048 0.87100005 10199464
-0.14516667 -0.06885048 0.87100005 10134183
-0.14350763 -0.06885048 0.87100005 10133672
-0.14184858 -0.06885048 0.87100005 10133672
-0.14018953 -0.06885048 0.87100005 10133157
-0.13884857 -0.069008574 0.87300003 10067618
-0.13718571 -0.069008574 0.87300003 10067617
-0.13552287 -0.069008574 0.87300003 10001824
-0.13386001 -0.069008574 0.87300003 9936547
-0.13219714 -0.069008574 0.87300003 10002598
-0.13053429 -0.069008574 0.87300003 10068886
-0.12887143 -0.069008574 0.87300003 8292999
-0.12720858 -0.069008574 0.87300003 6516598
-0.12583335 -0.069166675 0.87500006 6381925
-0.12416668 -0.069166675 0.87500006 6317671
-0.12250001 -0.069166675 0.87500006 6253418
-0.12083334 -0.069166675 0.87500006 6187882
-0.11916667 -0.069166675 0.87500006 6188139
-0.11750001 -0.069166675 0.87500006 6187626
-0.11583334 -0.069166675 0.87500006 5924713
-0.1145581 -0.069403812 0.87800002 5727849
-0.11288572 -0.069403812 0.87800002 5858409
-0.11121333 -0.069403812 0.87800002 6055268
-0.10954095 -0.069403812 0.87800002 5858143
-0.10786857 -0.069403812 0.87800002 5661534
-0.1064381 -0.069561906 0.88000005 5727069
-0.1052381 -0.069878094 0.88400006 5792866
-0.10390572 -0.070115238 0.88700002 5660775
-0.10221619 -0.070115238 0.88700002 5529716
-0.10052667 -0.070115238 0.88700002 6649472
-0.098837145 -0.070115238 0.88700002 7766150
-0.097147621 -0.070115238 0.88700002 8359052
-0.095458098 -0.070115238 0.88700002 8948877
-0.093768574 -0.070115238 0.88700002 8882830
-0.092079051 -0.070115238 0.88700002 8882574
-0.090593338 -0.070273332 0.88900006 8948367
-0.088900007 -0.070273332 0.88900006 9014157
-0.087206677 -0.070273332 0.88900006 8883340
-0.08570572 -0.070431434 0.89100003 8816777
-0.084291428 -0.070668571 0.89400005 8619655
-0.082588576 -0.070668571 0.89400005 8488321
-0.081066668 -0.070826672 0.89600003 8422524
-0.079360001 -0.070826672 0.89600003 8422270
-0.077826671 -0.070984766 0.89800006 8356225
-0.076370478 -0.07122191 0.90100002 8355968
-0.074820004 -0.071380004 0.90300006 8224896
-0.073261909 -0.071538098 0.90500003 8159356
-0.071775243 -0.071775243 0.90800005 8093817
-0.070199996 -0.071933329 0.91000003 8026994
-0.068466663 -0.071933329 0.91000003 8026731
-0.066953339 -0.072170481 0.91300005 8027502
-0.065214291 -0.072170481 0.91300005 6382960
-0.063475236 -0.072170481 0.91300005 4804195
-0.061736196 -0.072170481 0.91300005 4473686
-0.059997145 -0.072170481 0.91300005 4145492
-0.062533334 -0.077466667 0.98000002 3488850
-0.060666665 -0.077466667 0.98000002 2829147
-0.058800001 -0.077466667 0.98000002 5002595
-0.056933336 -0.077466667 0.98000002 7236978
-0.054898094 -0.07722953 0.97700006 7502978
-0.053037144 -0.07722953 0.97700006 7830914
-0.051176194 -0.07722953 0.97700006 8028034
-0.04931524 -0.07722953 0.97700006 8290435
-0.047308575 -0.076992385 0.97400004 8422277
-0.045360003 -0.076834284 0.97200006 8554117
-0.043508574 -0.076834284 0.97200006 8488837
-0.041657142 -0.076834284 0.97200006 8422277
-0.039805714 -0.076834284 0.97200006 8291461
-0.037954286 -0.076834284 0.97200006 8224887
-0.036102857 -0.076834284 0.97200006 6644074
-0.034251429 -0.076834284 0.97200006 5133134
-0.032400001 -0.076834284 0.97200006 3548466
-0.18753429 -0.068734288 0.89100003 9538468
-0.18542001 -0.068580002 0.88900006 9538969
-0.18331334 -0.068425715 0.88700002 9606303
-0.18162382 -0.068425715 0.88700002 9937317
-0.17932571 -0.068194285 0.88400006 10265770
-0.17764191 -0.068194285 0.88400006 10266031
-0.17556001 -0.068039998 0.88200003 10266030
-0.17388 -0.068039998 0.88200003 10332077
-0.17220001 -0.068039998 0.88200003 10463149
-0.17052001 -0.068039998 0.88200003 10528686
-0.16845715 -0.067885719 0.88000005 10659758
-0.16678096 -0.067885719 0.88000005 10528430
-0.16472952 -0.067731433 0.87800002 10462640
-0.16305715 -0.067731433 0.87800002 10462642
-0.16138478 -0.067731433 0.87800002 10462638
-0.15916668 -0.06750001 0.87500006 10396843
-0.15714 -0.067345716 0.87300003 10396588
-0.15547715 -0.067345716 0.87300003 10331053
-0.15381429 -0.067345716 0.87300003 10265260
-0.15215144 -0.067345716 0.87300003 10199979
-0.15048857 -0.067345716 0.87300003 10199977
-0.14882571 -0.067345716 0.87300003 10199976
-0.14716287 -0.067345716 0.87300003 10199464
-0.1455 -0.067345716 0.87300003 10133673
-0.14383715 -0.067345716 0.87300003 10133674
-0.14184858 -0.067191429 0.87100005 10067884
-0.14018953 -0.067191429 0.87100005 10067624
-0.13884857 -0.067345716 0.87300003 10067620
-0.13718571 -0.067345716 0.87300003 10002082
-0.13552287 -0.067345716 0.87300003 9936288
-0.13386001 -0.067345716 0.87300003 9871268
-0.13219714 -0.067345716 0.87300003 9936809
-0.13053429 -0.067345716 0.87300003 10069146
-0.12916668 -0.06750001 0.87500006 8490892
-0.12750001 -0.06750001 0.87500006 6912632
-0.12583335 -0.06750001 0.87500006 6447204
-0.12416668 -0.06750001 0.87500006 5989480
-0.12250001 -0.06750001 0.87500006 5989740
-0.12083334 -0.06750001 0.87500006 5989994
-0.11916667 -0.06750001 0.87500006 6055785
-0.11750001 -0.06750001 0.87500006 6121577
-0.11583334 -0.06750001 0.87500006 6056041
-0.1145581 -0.067731433 0.87800002 5990763
-0.11288572 -0.067731433 0.87800002 6317933
-0.11121333 -0.067731433 0.87800002 6710629
-0.10954095 -0.067731433 0.87800002 6251870
-0.10786857 -0.067731433 0.87800002 5793371
-0.10619619 -0.067731433 0.87800002 5793113
-0.1052381 -0.068194285 0.88400006 5727587
-0.10390572 -0.068425715 0.88700002 5661294
-0.10221619 -0.068425715 0.88700002 5661299
-0.10052667 -0.068425715 0.88700002 6385272
-0.099060006 -0.068580002 0.88900006 7174789
-0.097147621 -0.068425715 0.88700002 8097170
-0.095673338 -0.068580002 0.88900006 9014416
-0.093980007 -0.068580002 0.88900006 8882831
-0.092079051 -0.068425715 0.88700002 8817039
-0.090593338 -0.068580002 0.88900006 8882831
-0.088900007 -0.068580002 0.88900006 9014414
-0.087206677 -0.068580002 0.88900006 8883342
-0.08570572 -0.068734288 0.89100003 8817034
-0.084291428 -0.068965718 0.89400005 8685447
-0.082773335 -0.069120005 0.89600003 8488325
-0.081066668 -0.069120005 0.89600003 8422532
-0.079360001 -0.069120005 0.89600003 8356994
-0.077826671 -0.069274291 0.89800006 8356481
-0.076370478 -0.069505714 0.90100002 8355969
-0.074820004 -0.069660008 0.90300006 8224642
-0.073504768 -0.070045717 0.90800005 8159102
-0.071933329 -0.070199996 0.91000003 8028027
-0.070199996 -0.070199996 0.91000003 7961715
-0.068466663 -0.070199996 0.91000003 7961451
-0.066953339 -0.070431434 0.91300005 8028016
-0.065357141 -0.07058572 0.91500002 6316662
-0.063475236 -0.070431434 0.91300005 4671331
-0.061533332 -0.070199996 0.91000003 4277073
-0.059799999 -0.070199996 0.91000003 3948375
-0.058066666 -0.070199996 0.91000003 3291485
-0.060666665 -0.075600006 0.98000002 2632029
-0.058800001 -0.075600006 0.98000002 4937054
-0.056933336 -0.075600006 0.98000002 7302769
-0.054898094 -0.075368568 0.97700006 7568773
-0.053037144 -0.075368568 0.97700006 7831172
-0.051176194 -0.075368568 0.97700006 8028035
-0.04931524 -0.075368568 0.97700006 8224899
-0.047308575 -0.075137146 0.97400004 8422276
-0.045360003 -0.074982859 0.97200006 8554372
-0.043508574 -0.074982859 0.97200006 8488837
-0.041657142 -0.074982859 0.97200006 8356996
-0.039805714 -0.074982859 0.97200006 8290948
-0.037954286 -0.074982859 0.97200006 8224887
-0.036102857 -0.074982859 0.97200006 6447978
-0.034251429 -0.074982859 0.97200006 4673870
-0.032466665 -0.075137146 0.97400004 3614515
-0.030611429 -0.075137146 0.97400004 2566455
-0.19029333 -0.067413338 0.89600003 10854835
-0.18753429 -0.067037143 0.89100003 9537957
-0.18542001 -0.066886671 0.88900006 9472919
-0.18331334 -0.066736192 0.88700002 9410460
-0.18162382 -0.066736192 0.88700002 9806242
-0.17932571 -0.066510484 0.88400006 10265767
-0.17764191 -0.066510484 0.88400006 10266284
-0.17556001 -0.066360004 0.88200003 10331820
-0.17388 -0.066360004 0.88200003 10397612
-0.17259049 -0.066510484 0.88400006 10463149
-0.17052001 -0.066360004 0.88200003 10594733
-0.16845715 -0.066209525 0.88000005 10725549
-0.16678096 -0.066209525 0.88000005 10594222
-0.16472952 -0.066059045 0.87800002 10463150
-0.16305715 -0.066059045 0.87800002 10463151
-0.16138478 -0.066059045 0.87800002 10462893
-0.15916668 -0.065833338 0.87500006 10397099
-0.15714 -0.065682858 0.87300003 10396588
-0.15547715 -0.065682858 0.87300003 10331052
-0.15381429 -0.065682858 0.87300003 10265515
-0.15215144 -0.065682858 0.87300003 10265514
-0.15048857 -0.065682858 0.87300003 10265510
-0.14882571 -0.065682858 0.87300003 10199971
-0.14716287 -0.065682858 0.87300003 10199461
-0.1455 -0.065682858 0.87300003 10133671
-0.14383715 -0.065682858 0.87300003 10133672
-0.14217429 -0.065682858 0.87300003 10067881
-0.14018953 -0.065532386 0.87100005 10067366
-0.13884857 -0.065682858 0.87300003 10001828
-0.13718571 -0.065682858 0.87300003 10001823
-0.13552287 -0.065682858 0.87300003 9936282
-0.13355334 -0.065532386 0.87100005 9871008
-0.13219714 -0.065682858 0.87300003 9936806
-0.13053429 -0.065682858 0.87300003 10068633
-0.12916668 -0.065833338 0.87500006 8689035
-0.12750001 -0.065833338 0.87500006 7370871
-0.12583335 -0.065833338 0.87500006 6512483
-0.12416668 -0.065833338 0.87500006 5661542
-0.12250001 -0.065833338 0.87500006 5727338
-0.12124762 -0.066059045 0.87800002 5858663
-0.11916667 -0.065833338 0.87500006 5924196
-0.11750001 -0.065833338 0.87500006 6055784
-0.11623047 -0.066059045 0.87800002 6187371
-0.1145581 -0.066059045 0.87800002 6319218
-0.11288572 -0.066059045 0.87800002 6846585
-0.11083334 -0.065833338 0.87500006 7368815
-0.10916667 -0.065833338 0.87500006 6645861
-0.10750001 -0.065833338 0.87500006 5989729
-0.10619619 -0.066059045 0.87800002 5858653
-0.105 -0.066360004 0.88200003 5727333
-0.10390572 -0.066736192 0.88700002 5727085
-0.10221619 -0.066736192 0.88700002 5792623
-0.10052667 -0.066736192 0.88700002 6186866
-0.099060006 -0.066886671 0.88900006 6649219
-0.097366676 -0.066886671 0.88900006 7835539
-0.095673338 -0.066886671 0.88900006 9080210
-0.093980007 -0.066886671 0.88900006 8948368
-0.092286676 -0.066886671 0.88900006 8817295
-0.090593338 -0.066886671 0.88900006 8882830
-0.088900007 -0.066886671 0.88900006 9014418
-0.087206677 -0.066886671 0.88900006 8949141
-0.08570572 -0.067037143 0.89100003 8882575
-0.084291428 -0.067262866 0.89400005 8685961
-0.082773335 -0.067413338 0.89600003 8553863
-0.081066668 -0.067413338 0.89600003 8422276
-0.079360001 -0.067413338 0.89600003 8356995
-0.077826671 -0.067563809 0.89800006 8356993
-0.076370478 -0.067789525 0.90100002 8356224
-0.074820004 -0.067940004 0.90300006 8224640
-0.073504768 -0.068316191 0.90800005 8159101
-0.071933329 -0.068466663 0.91000003 8027770
-0.070431434 -0.068692386 0.91300005 7961714
-0.068692386 -0.068692386 0.91300005 7961706
-0.066953339 -0.068692386 0.91300005 8027249
-0.065357141 -0.068842858 0.91500002 6250360
