# .PCD v0.7 - Point Cloud Data file format
VERSION 0.7
FIELDS x y z rgba
SIZE 4 4 4 4
TYPE F F F U
COUNT 1 1 1 1
WIDTH 1078
HEIGHT 1
VIEWPOINT 0 0 0 1 0 0 0
POINTS 1078
DATA ascii
-0.055516195 -0.085626669 0.98800004 7435631
-0.053634286 -0.085626669 0.98800004 7501168
-0.051595241 -0.085366674 0.98500007 7632241
-0.049719054 -0.085366674 0.98500007 7763057
-0.04784286 -0.085366674 0.98500007 7697265
-0.04596667 -0.085366674 0.98500007 7632237
-0.044090476 -0.085366674 0.98500007 7370857
-0.042214289 -0.085366674 0.98500007 7173486
-0.040338099 -0.085366674 0.98500007 6776179
-0.16807428 -0.074420951 0.87800002 6454930
-0.16583334 -0.07416667 0.87500006 8298153
-0.16472952 -0.074420951 0.87800002 10132903
-0.16250001 -0.07416667 0.87500006 10067365
-0.16046572 -0.07399714 0.87300003 10068390
-0.15807524 -0.073658101 0.86900002 10199976
-0.15641999 -0.073658101 0.86900002 10331562
-0.15440859 -0.073488571 0.86700004 10331821
-0.15275714 -0.073488571 0.86700004 10331560
-0.15110572 -0.073488571 0.86700004 10331300
-0.14910954 -0.073319055 0.86500007 10265508
-0.14746191 -0.073319055 0.86500007 10265252
-0.1458143 -0.073319055 0.86500007 10264996
-0.14366667 -0.073064767 0.86200005 10199461
-0.14169523 -0.072895236 0.86000001 10199716
-0.14005713 -0.072895236 0.86000001 10199460
-0.13841905 -0.072895236 0.86000001 10199456
-0.13678095 -0.072895236 0.86000001 10199453
-0.13514286 -0.072895236 0.86000001 10133665
-0.13350476 -0.072895236 0.86000001 10068134
-0.13186668 -0.072895236 0.86000001 10002857
-0.13022858 -0.072895236 0.86000001 10002604
-0.12859048 -0.072895236 0.86000001 10002344
-0.12695238 -0.072895236 0.86000001 10002085
-0.12531428 -0.072895236 0.86000001 10002083
-0.12367619 -0.072895236 0.86000001 10002082
-0.1220381 -0.072895236 0.86000001 9936546
-0.12068 -0.073064767 0.86200005 9936035
-0.1190381 -0.073064767 0.86200005 9870242
-0.1173962 -0.073064767 0.86200005 9804449
-0.11615715 -0.073319055 0.86500007 9673375
-0.11450953 -0.073319055 0.86500007 9607581
-0.11286192 -0.073319055 0.86500007 9542045
-0.1112143 -0.073319055 0.86500007 9541789
-0.10982 -0.073488571 0.86700004 9607067
-0.10816857 -0.073488571 0.86700004 9476249
-0.10651714 -0.073488571 0.86700004 9344666
-0.10486572 -0.073488571 0.86700004 9410715
-0.10321429 -0.073488571 0.86700004 9476999
-0.10156287 -0.073488571 0.86700004 7701363
-0.10014191 -0.073658101 0.86900002 5989992
-0.098713338 -0.073827624 0.87100005 5922910
-0.097054288 -0.073827624 0.87100005 5923426
-0.095395245 -0.073827624 0.87100005 6121831
-0.093736194 -0.073827624 0.87100005 6319216
-0.092077151 -0.073827624 0.87100005 6188153
-0.0904181 -0.073827624 0.87100005 6122353
-0.08875905 -0.073827624 0.87100005 5924457
-0.087099999 -0.073827624 0.87100005 5727334
-0.085244767 -0.073658101 0.86900002 5661795
-0.083589524 -0.073658101 0.86900002 5596259
-0.081941903 -0.075183809 0.88700002 5530215
-0.080252379 -0.075183809 0.88700002 5528938
-0.078562863 -0.075183809 0.88700002 5528944
-0.076873332 -0.075183809 0.88700002 6517622
-0.075183809 -0.075183809 0.88700002 7503733
-0.073494285 -0.075183809 0.88700002 7832437
-0.071804762 -0.075183809 0.88700002 8159867
-0.070273332 -0.075353332 0.88900006 8290946
-0.068580002 -0.075353332 0.88900006 8421762
-0.067262866 -0.075777143 0.89400005 8356739
-0.06570667 -0.075946666 0.89600003 8290177
-0.06414286 -0.076116197 0.89800006 8092799
-0.062640958 -0.076370478 0.90100002 7960953
-0.061060004 -0.076540001 0.90300006 7829364
-0.059471432 -0.076709531 0.90500003 7698288
-0.057939049 -0.076963812 0.90800005 7632493
-0.056209527 -0.076963812 0.90800005 7566961
-0.054480001 -0.076963812 0.90800005 7500917
-0.057398096 -0.083744764 0.98800004 7435122
-0.055516195 -0.083744764 0.98800004 7435376
-0.053471431 -0.083490483 0.98500007 7435887
-0.051595241 -0.083490483 0.98500007 7566958
-0.049719054 -0.083490483 0.98500007 7764078
-0.04784286 -0.083490483 0.98500007 7698030
-0.04596667 -0.083490483 0.98500007 7632235
-0.044224761 -0.083744764 0.98800004 7369576
-0.042214289 -0.083490483 0.98500007 7172715
-0.040460952 -0.083744764 0.98800004 6776687
-0.03857905 -0.083744764 0.98800004 6382162
-0.036697146 -0.083744764 0.98800004 4073781
-0.17052001 -0.073080003 0.88200003 3945595
-0.16807428 -0.072748572 0.87800002 6323603
-0.16640191 -0.072748572 0.87800002 8232107
-0.16472952 -0.072748572 0.87800002 10132647
-0.16250001 -0.072500005 0.87500006 10133155
-0.16046572 -0.07233429 0.87300003 10133668
-0.15843906 -0.072168581 0.87100005 10199974
-0.15641999 -0.072002858 0.86900002 10331564
-0.15440859 -0.071837142 0.86700004 10332082
-0.15275714 -0.071837142 0.86700004 10396843
-0.15110572 -0.071837142 0.86700004 10331300
-0.14945428 -0.071837142 0.86700004 10265252
-0.14746191 -0.071671434 0.86500007 10264995
-0.1458143 -0.071671434 0.86500007 10264996
-0.14366667 -0.07142286 0.86200005 10199461
-0.14202477 -0.07142286 0.86200005 10199717
-0.14005713 -0.071257144 0.86000001 10199974
-0.13841905 -0.071257144 0.86000001 10199715
-0.13678095 -0.071257144 0.86000001 10199713
-0.13514286 -0.071257144 0.86000001 10199459
-0.13350476 -0.071257144 0.86000001 10133925
-0.13186668 -0.071257144 0.86000001 10068134
-0.13022858 -0.071257144 0.86000001 10002600
-0.12859048 -0.071257144 0.86000001 10002342
-0.12695238 -0.071257144 0.86000001 10002340
-0.12531428 -0.071257144 0.86000001 10002084
-0.12367619 -0.071257144 0.86000001 10002084
-0.1220381 -0.071257144 0.86000001 10001827
-0.12068 -0.07142286 0.86200005 9936035
-0.1190381 -0.07142286 0.86200005 9870242
-0.11780477 -0.071671434 0.86500007 9804705
-0.11615715 -0.071671434 0.86500007 9738655
-0.11450953 -0.071671434 0.86500007 9673118
-0.11286192 -0.071671434 0.86500007 9607581
-0.1112143 -0.071671434 0.86500007 9607325
-0.10982 -0.071837142 0.86700004 9607322
-0.10816857 -0.071837142 0.86700004 9476248
-0.10651714 -0.071837142 0.86700004 9410711
-0.10486572 -0.071837142 0.86700004 9476501
-0.10321429 -0.071837142 0.86700004 9542026
-0.10179714 -0.072002858 0.86900002 7833471
-0.10014191 -0.072002858 0.86900002 6188655
-0.098713338 -0.072168581 0.87100005 6052446
-0.09727715 -0.07233429 0.87300003 5923170
-0.095614292 -0.07233429 0.87300003 5990245
-0.093736194 -0.072168581 0.87100005 6056555
-0.092077151 -0.072168581 0.87100005 6057330
-0.0904181 -0.072168581 0.87100005 6121836
-0.08875905 -0.072168581 0.87100005 5924454
-0.087099999 -0.072168581 0.87100005 5727075
-0.085244767 -0.072002858 0.86900002 5661537
-0.083589524 -0.072002858 0.86900002 5595745
-0.078562863 -0.073494285 0.88700002 5725032
-0.076613337 -0.073245719 0.88400006 6451314
-0.075183809 -0.073494285 0.88700002 7174259
-0.073494285 -0.073494285 0.88700002 7636084
-0.071804762 -0.073494285 0.88700002 8160123
-0.070273332 -0.073660001 0.88900006 8225410
-0.068580002 -0.073660001 0.88900006 8356486
-0.067262866 -0.074074291 0.89400005 8291210
-0.06570667 -0.074239999 0.89600003 8290180
-0.06414286 -0.074405722 0.89800006 8092798
-0.062432382 -0.074405722 0.89800006 7960952
-0.061060004 -0.074820004 0.90300006 7829619
-0.059471432 -0.074985713 0.90500003 7763825
-0.057939049 -0.075234286 0.90800005 7632495
-0.056209527 -0.075234286 0.90800005 7566448
-0.054480001 -0.075234286 0.90800005 7500657
-0.057572383 -0.082111433 0.99100006 7500657
-0.055516195 -0.081862859 0.98800004 7435121
-0.053471431 -0.081614293 0.98500007 7370096
-0.051595241 -0.081614293 0.98500007 7567215
-0.049719054 -0.081614293 0.98500007 7763822
-0.04784286 -0.081614293 0.98500007 7698286
-0.04596667 -0.081614293 0.98500007 7631984
-0.044090476 -0.081614293 0.98500007 7369842
-0.042214289 -0.081614293 0.98500007 7173490
-0.040338099 -0.081614293 0.98500007 6777202
-0.03857905 -0.081862859 0.98800004 6447699
-0.036697146 -0.081862859 0.98800004 4204853
-0.17052001 -0.071400002 0.88200003 3879292
-0.16807428 -0.071076192 0.87800002 6126996
-0.16640191 -0.071076192 0.87800002 8100269
-0.16472952 -0.071076192 0.87800002 10067111
-0.16250001 -0.07083334 0.87500006 10067362
-0.16083334 -0.07083334 0.87500006 10068131
-0.15843906 -0.070509523 0.87100005 10265508
-0.15641999 -0.070347615 0.86900002 10397101
-0.15440859 -0.070185721 0.86700004 10396855
-0.15275714 -0.070185721 0.86700004 10331310
-0.15110572 -0.070185721 0.86700004 10265509
-0.14945428 -0.070185721 0.86700004 10133924
-0.14746191 -0.07002382 0.86500007 10199459
-0.1458143 -0.07002382 0.86500007 10199460
-0.14366667 -0.069780953 0.86200005 10199461
-0.14202477 -0.069780953 0.86200005 10199718
-0.14038286 -0.069780953 0.86200005 10199720
-0.13874096 -0.069780953 0.86200005 10199718
-0.13678095 -0.069619045 0.86000001 10199717
-0.13514286 -0.069619045 0.86000001 10199717
-0.13350476 -0.069619045 0.86000001 10133925
-0.13186668 -0.069619045 0.86000001 10068132
-0.13022858 -0.069619045 0.86000001 10068132
-0.12859048 -0.069619045 0.86000001 10002595
-0.12695238 -0.069619045 0.86000001 10002339
-0.12531428 -0.069619045 0.86000001 9936548
-0.12367619 -0.069619045 0.86000001 9936294
-0.1220381 -0.069619045 0.86000001 9936036
-0.12068 -0.069780953 0.86200005 9870499
-0.1190381 -0.069780953 0.86200005 9804706
-0.11780477 -0.07002382 0.86500007 9738913
-0.11615715 -0.07002382 0.86500007 9738656
-0.11450953 -0.07002382 0.86500007 9673119
-0.11286192 -0.07002382 0.86500007 9607582
-0.1112143 -0.07002382 0.86500007 9607325
-0.10982 -0.070185721 0.86700004 9607322
-0.10816857 -0.070185721 0.86700004 9476248
-0.10651714 -0.070185721 0.86700004 9410708
-0.10486572 -0.070185721 0.86700004 9476240
-0.10321429 -0.070185721 0.86700004 9541774
-0.10156287 -0.070185721 0.86700004 8029580
-0.099911429 -0.070185721 0.86700004 6518645
-0.098713338 -0.070509523 0.87100005 6052959
-0.097054288 -0.070509523 0.87100005 5529953
-0.095395245 -0.070509523 0.87100005 5727844
-0.093736194 -0.070509523 0.87100005 5924967
-0.092077151 -0.070509523 0.87100005 5924715
-0.0904181 -0.070509523 0.87100005 5990247
-0.08875905 -0.070509523 0.87100005 5792611
-0.087099999 -0.070509523 0.87100005 5661025
-0.078297146 -0.07156191 0.88400006 5724769
-0.076613337 -0.07156191 0.88400006 6188398
-0.074929528 -0.07156191 0.88400006 6713968
-0.073494285 -0.071804762 0.88700002 7505011
-0.071804762 -0.071804762 0.88700002 8291450
-0.070273332 -0.07196667 0.88900006 8290946
-0.068580002 -0.07196667 0.88900006 8356490
-0.067262866 -0.072371431 0.89400005 8356754
-0.06570667 -0.072533339 0.89600003 8421512
-0.06414286 -0.07269524 0.89800006 8223870
-0.062640958 -0.072938092 0.90100002 7960952
-0.061060004 -0.073100001 0.90300006 7829618
-0.059471432 -0.073261909 0.90500003 7764081
-0.057939049 -0.073504768 0.90800005 7632497
-0.056209527 -0.073504768 0.90800005 7565935
-0.054480001 -0.073504768 0.90800005 7500398
-0.057572383 -0.080223814 0.99100006 7434864
-0.055684764 -0.080223814 0.99100006 7434866
-0.053634286 -0.079980955 0.98800004 7435633
-0.051595241 -0.079738103 0.98500007 7501168
-0.049719054 -0.079738103 0.98500007 7632239
-0.04784286 -0.079738103 0.98500007 7631983
-0.04596667 -0.079738103 0.98500007 7566198
-0.044090476 -0.079738103 0.98500007 7435133
-0.042214289 -0.079738103 0.98500007 7370873
-0.040460952 -0.079980955 0.98800004 6711413
-0.03857905 -0.079980955 0.98800004 6120021
-0.036697146 -0.079980955 0.98800004 4007477
-0.16807428 -0.069403812 0.87800002 5995154
-0.16583334 -0.069166675 0.87500006 8033964
-0.16472952 -0.069403812 0.87800002 10067109
-0.16250001 -0.069166675 0.87500006 10067103
-0.16046572 -0.069008574 0.87300003 10067873
-0.15807524 -0.068692379 0.86900002 10265507
-0.15641999 -0.068692379 0.86900002 10527656
-0.15440859 -0.068534292 0.86700004 10396846
-0.15275714 -0.068534292 0.86700004 10331049
-0.15110572 -0.068534292 0.86700004 10199716
-0.14945428 -0.068534292 0.86700004 10068643
-0.14746191 -0.068376198 0.86500007 10134178
-0.1458143 -0.068376198 0.86500007 10199713
-0.14366667 -0.068139054 0.86200005 10199713
-0.14202477 -0.068139054 0.86200005 10199716
-0.14038286 -0.068139054 0.86200005 10199719
-0.13874096 -0.068139054 0.86200005 10199718
-0.13709906 -0.068139054 0.86200005 10199718
-0.13514286 -0.06798096 0.86000001 10199461
-0.13350476 -0.06798096 0.86000001 10133924
-0.13186668 -0.06798096 0.86000001 10133923
-0.13022858 -0.06798096 0.86000001 10068386
-0.12859048 -0.06798096 0.86000001 10067874
-0.12695238 -0.06798096 0.86000001 10002338
-0.12531428 -0.06798096 0.86000001 9936292
-0.12367619 -0.06798096 0.86000001 9870759
-0.1223219 -0.068139054 0.86200005 9870501
-0.12068 -0.068139054 0.86200005 9804962
-0.11945239 -0.068376198 0.86500007 9739169
-0.11780477 -0.068376198 0.86500007 9738912
-0.11642572 -0.068534292 0.86700004 9738656
-0.11450953 -0.068376198 0.86500007 9673119
-0.11286192 -0.068376198 0.86500007 9672861
-0.1112143 -0.068376198 0.86500007 9672860
-0.10982 -0.068534292 0.86700004 9672857
-0.10816857 -0.068534292 0.86700004 9542039
-0.10651714 -0.068534292 0.86700004 9410450
-0.10486572 -0.068534292 0.86700004 9475981
-0.10321429 -0.068534292 0.86700004 9542030
-0.10156287 -0.068534292 0.86700004 8225680
-0.099911429 -0.068534292 0.86700004 6912631
-0.098486669 -0.068692379 0.86900002 6053726
-0.097054288 -0.06885048 0.87100005 5201761
-0.095395245 -0.06885048 0.87100005 5530980
-0.093736194 -0.06885048 0.87100005 5858661
-0.092077151 -0.06885048 0.87100005 5858918
-0.0904181 -0.06885048 0.87100005 5858660
-0.08875905 -0.06885048 0.87100005 5726307
-0.087099999 -0.06885048 0.87100005 5660515
-0.078120001 -0.06972 0.88200003 5725795
-0.076439999 -0.06972 0.88200003 5991019
-0.074929528 -0.069878094 0.88400006 6254193
-0.073494285 -0.070115238 0.88700002 7373944
-0.071804762 -0.070115238 0.88700002 8487804
-0.070273332 -0.070273332 0.88900006 8422017
-0.068734288 -0.070431434 0.89100003 8356485
-0.067262866 -0.070668571 0.89400005 8487818
-0.06570667 -0.070826672 0.89600003 8618115
-0.06414286 -0.070984766 0.89800006 8289661
-0.062640958 -0.07122191 0.90100002 8026490
-0.061060004 -0.071380004 0.90300006 7895159
-0.059471432 -0.071538098 0.90500003 7763829
-0.057939049 -0.071775243 0.90800005 7698035
-0.056333333 -0.071933329 0.91000003 7631985
-0.0546 -0.071933329 0.91000003 7500656
-0.057572383 -0.078336194 0.99100006 7434864
-0.055684764 -0.078336194 0.99100006 7434607
-0.053634286 -0.07809905 0.98800004 7501167
-0.051752381 -0.07809905 0.98800004 7501167
-0.049719054 -0.077861905 0.98500007 7566701
-0.04784286 -0.077861905 0.98500007 7566444
-0.04596667 -0.077861905 0.98500007 7566192
-0.044090476 -0.077861905 0.98500007 7566195
-0.042214289 -0.077861905 0.98500007 7567218
-0.040338099 -0.077861905 0.98500007 6645874
-0.03857905 -0.07809905 0.98800004 5790804
-0.036697146 -0.07809905 0.98800004 3810358
-0.16974667 -0.067731433 0.87800002 3815287
-0.16807428 -0.067731433 0.87800002 5732241
-0.16583334 -0.06750001 0.87500006 7902379
-0.16416667 -0.06750001 0.87500006 10067108
-0.16250001 -0.06750001 0.87500006 10001565
-0.16046572 -0.067345716 0.87300003 10002335
-0.15807524 -0.067037143 0.86900002 10199714
-0.15641999 -0.067037143 0.86900002 10396579
-0.15440859 -0.066882864 0.86700004 10331045
-0.15275714 -0.066882864 0.86700004 10331044
-0.15110572 -0.066882864 0.86700004 10199972
-0.14910954 -0.06672857 0.86500007 10134434
-0.14746191 -0.06672857 0.86500007 10134433
-0.1458143 -0.06672857 0.86500007 10199967
-0.14366667 -0.066497147 0.86200005 10199709
-0.14202477 -0.066497147 0.86200005 10199713
-0.14038286 -0.066497147 0.86200005 10199718
-0.13874096 -0.066497147 0.86200005 10265254
-0.13709906 -0.066497147 0.86200005 10199719
-0.13545716 -0.066497147 0.86200005 10199461
-0.13350476 -0.06634286 0.86000001 10133924
-0.13186668 -0.06634286 0.86000001 10133922
-0.13022858 -0.06634286 0.86000001 10068128
-0.12859048 -0.06634286 0.86000001 10002336
-0.12695238 -0.06634286 0.86000001 9936545
-0.12531428 -0.06634286 0.86000001 9870757
-0.12367619 -0.06634286 0.86000001 9805225
-0.1220381 -0.06634286 0.86000001 9739685
-0.12068 -0.066497147 0.86200005 9673890
-0.11945239 -0.06672857 0.86500007 9542561
-0.11780477 -0.06672857 0.86500007 9607840
-0.11642572 -0.066882864 0.86700004 9738656
-0.11477429 -0.066882864 0.86700004 9738400
-0.11312287 -0.066882864 0.86700004 9803933
-0.11147143 -0.066882864 0.86700004 9738395
-0.10982 -0.066882864 0.86700004 9672857
-0.10816857 -0.066882864 0.86700004 9541527
-0.10651714 -0.066882864 0.86700004 9410192
-0.10462382 -0.06672857 0.86500007 9475978
-0.10321429 -0.066882864 0.86700004 9476751
-0.10156287 -0.066882864 0.86700004 8357268
-0.099911429 -0.066882864 0.86700004 7241336
-0.098486669 -0.067037143 0.86900002 6250077
-0.097054288 -0.067191429 0.87100005 5267040
-0.095395245 -0.067191429 0.87100005 5464932
-0.093736194 -0.067191429 0.87100005 5727075
-0.092077151 -0.067191429 0.87100005 5792610
-0.0904181 -0.067191429 0.87100005 5792866
-0.08875905 -0.067191429 0.87100005 5792867
-0.087099999 -0.067191429 0.87100005 5792869
-0.078120001 -0.068039998 0.88200003 5596005
-0.076439999 -0.068039998 0.88200003 5858920
-0.074929528 -0.068194285 0.88400006 6122099
-0.073494285 -0.068425715 0.88700002 7242622
-0.07196667 -0.068580002 0.88900006 8422271
-0.070273332 -0.068580002 0.88900006 8356224
-0.068734288 -0.068734288 0.89100003 8290689
-0.067262866 -0.068965718 0.89400005 8422530
-0.06570667 -0.069120005 0.89600003 8488831
-0.06414286 -0.069274291 0.89800006 8224381
-0.062640958 -0.069505714 0.90100002 7960957
-0.061060004 -0.069660008 0.90300006 7829629
-0.059471432 -0.069814287 0.90500003 7763833
-0.057939049 -0.070045717 0.90800005 7698037
-0.056333333 -0.070199996 0.91000003 7632500
-0.0546 -0.070199996 0.91000003 7500915
-0.057572383 -0.076448575 0.99100006 7435376
-0.055684764 -0.076448575 0.99100006 7435373
-0.053634286 -0.076217145 0.98800004 7501165
-0.051752381 -0.076217145 0.98800004 7566702
-0.049719054 -0.075985715 0.98500007 7632236
-0.04784286 -0.075985715 0.98500007 7566186
-0.04596667 -0.075985715 0.98500007 7500650
-0.044090476 -0.075985715 0.98500007 7435114
-0.042214289 -0.075985715 0.98500007 7436140
-0.040338099 -0.075985715 0.98500007 6712431
-0.038461905 -0.075985715 0.98500007 5986131
-0.036585718 -0.075985715 0.98500007 3875640
-0.16974667 -0.066059045 0.87800002 3817330
-0.16807428 -0.066059045 0.87800002 5532815
-0.16583334 -0.065833338 0.87500006 7771051
-0.16416667 -0.065833338 0.87500006 10067621
-0.16212857 -0.065682858 0.87300003 10001568
-0.16046572 -0.065682858 0.87300003 10002337
-0.15807524 -0.065381907 0.86900002 10134179
-0.15641999 -0.065381907 0.86900002 10331044
-0.15440859 -0.065231435 0.86700004 10331558
-0.15275714 -0.065231435 0.86700004 10331302
-0.15110572 -0.065231435 0.86700004 10265765
-0.14910954 -0.065080956 0.86500007 10265764
-0.14746191 -0.065080956 0.86500007 10200227
-0.1458143 -0.065080956 0.86500007 10199972
-0.14366667 -0.064855248 0.86200005 10199717
-0.14202477 -0.064855248 0.86200005 10199718
-0.14038286 -0.064855248 0.86200005 10264999
-0.13874096 -0.064855248 0.86200005 10396329
-0.13709906 -0.064855248 0.86200005 10265258
-0.13545716 -0.064855248 0.86200005 10199463
-0.13350476 -0.064704761 0.86000001 10133668
-0.13186668 -0.064704761 0.86000001 10133666
-0.13022858 -0.064704761 0.86000001 10002593
-0.12859048 -0.064704761 0.86000001 9936545
-0.12695238 -0.064704761 0.86000001 9870754
-0.12531428 -0.064704761 0.86000001 9870755
-0.12367619 -0.064704761 0.86000001 9739684
-0.1220381 -0.064704761 0.86000001 9673890
-0.12068 -0.064855248 0.86200005 9542816
-0.1190381 -0.064855248 0.86200005 9411490
-0.11780477 -0.065080956 0.86500007 9542563
-0.11642572 -0.065231435 0.86700004 9738658
-0.11477429 -0.065231435 0.86700004 9803937
-0.11312287 -0.065231435 0.86700004 9934751
-0.11147143 -0.065231435 0.86700004 9803677
-0.10982 -0.065231435 0.86700004 9672858
-0.10816857 -0.065231435 0.86700004 9541272
-0.10627143 -0.065080956 0.86500007 9475731
-0.10462382 -0.065080956 0.86500007 9476237
-0.1029762 -0.065080956 0.86500007 9475984
-0.10156287 -0.065231435 0.86700004 8554643
-0.099911429 -0.065231435 0.86700004 7634296
-0.098486669 -0.065381907 0.86900002 6446685
-0.096831433 -0.065381907 0.86900002 5332320
-0.095176198 -0.065381907 0.86900002 5464419
-0.093736194 -0.065532386 0.87100005 5661027
-0.092077151 -0.065532386 0.87100005 5726820
-0.0904181 -0.065532386 0.87100005 5792612
-0.08875905 -0.065532386 0.87100005 5858916
-0.077942863 -0.066209525 0.88000005 5530470
-0.076266669 -0.066209525 0.88000005 5727083
-0.074929528 -0.066510484 0.88400006 5990513
-0.073660001 -0.066886671 0.88900006 7177079
-0.072128572 -0.067037143 0.89100003 8422266
-0.070273332 -0.066886671 0.88900006 8355966
-0.068965718 -0.067262866 0.89400005 8290691
-0.067413338 -0.067413338 0.89600003 8357256
-0.06570667 -0.067413338 0.89600003 8422275
-0.06414286 -0.067563809 0.89800006 8159357
-0.062432382 -0.067563809 0.89800006 7895421
-0.060924761 -0.067789525 0.90100002 7829629
-0.059471432 -0.068090476 0.90500003 7763834
-0.057939049 -0.068316191 0.90800005 7698295
-0.056333333 -0.068466663 0.91000003 7632245
-0.0546 -0.068466663 0.91000003 7501171
-0.057572383 -0.074560955 0.99100006 7435631
-0.055684764 -0.074560955 0.99100006 7501163
-0.053634286 -0.07433524 0.98800004 7566443
-0.051752381 -0.07433524 0.98800004 7631980
-0.049719054 -0.074109524 0.98500007 7697515
-0.04784286 -0.074109524 0.98500007 7565930
-0.04596667 -0.074109524 0.98500007 7500649
-0.044090476 -0.074109524 0.98500007 7369576
-0.04212857 -0.073959053 0.98300004 7304810
-0.040256191 -0.073959053 0.98300004 6713452
-0.038383812 -0.073959053 0.98300004 6180946
-0.036511429 -0.073959053 0.98300004 4006456
-0.034639049 -0.073959053 0.98300004 1845561
-0.16545428 -0.06402 0.87300003 7639212
-0.16379143 -0.06402 0.87300003 10002599
-0.16212857 -0.06402 0.87300003 10001571
-0.16046572 -0.06402 0.87300003 10002339
-0.15807524 -0.063726671 0.86900002 10134180
-0.15641999 -0.063726671 0.86900002 10331302
-0.15440859 -0.063579999 0.86700004 10331304
-0.15275714 -0.063579999 0.86700004 10331559
-0.15110572 -0.063579999 0.86700004 10265767
-0.14910954 -0.063433334 0.86500007 10265766
-0.14746191 -0.063433334 0.86500007 10265765
-0.1458143 -0.063433334 0.86500007 10200233
-0.14366667 -0.063213333 0.86200005 10199725
-0.14202477 -0.063213333 0.86200005 10199723
-0.14038286 -0.063213333 0.86200005 10265257
-0.13874096 -0.063213333 0.86200005 10330795
-0.13709906 -0.063213333 0.86200005 10199726
-0.13514286 -0.063066669 0.86000001 10134185
-0.13350476 -0.063066669 0.86000001 10133669
-0.13186668 -0.063066669 0.86000001 10068131
-0.13022858 -0.063066669 0.86000001 10002338
-0.12859048 -0.063066669 0.86000001 9936546
-0.12695238 -0.063066669 0.86000001 9871011
-0.12531428 -0.063066669 0.86000001 9871009
-0.12367619 -0.063066669 0.86000001 9805216
-0.1220381 -0.063066669 0.86000001 9739423
-0.12068 -0.063213333 0.86200005 9608095
-0.11945239 -0.063433334 0.86500007 9542307
-0.11780477 -0.063433334 0.86500007 9607591
-0.11642572 -0.063579999 0.86700004 9673125
-0.11477429 -0.063579999 0.86700004 9738659
-0.11312287 -0.063579999 0.86700004 9804449
-0.11147143 -0.063579999 0.86700004 9738399
-0.10982 -0.063579999 0.86700004 9672860
-0.10816857 -0.063579999 0.86700004 9541530
-0.10651714 -0.063579999 0.86700004 9410453
-0.10486572 -0.063579999 0.86700004 9410193
-0.10321429 -0.063579999 0.86700004 9475217
-0.10132858 -0.063433334 0.86500007 8555922
-0.09968096 -0.063433334 0.86500007 7699832
-0.09826 -0.063579999 0.86700004 6446174
-0.096608572 -0.063579999 0.86700004 5201248
-0.094957143 -0.063579999 0.86700004 5398627
-0.093520947 -0.063726671 0.86900002 5595492
-0.091865711 -0.063726671 0.86900002 5661030
-0.090210475 -0.063726671 0.86900002 5726821
-0.08875905 -0.063873336 0.87100005 5793125
-0.085833341 -0.064166673 0.87500006 6056581
-0.083974287 -0.06402 0.87300003 6252915
-0.082311429 -0.06402 0.87300003 5923682
-0.07961905 -0.064533338 0.88000005 5464161
-0.077942863 -0.064533338 0.88000005 5399399
-0.076266669 -0.064533338 0.88000005 5595758
-0.074929528 -0.064826675 0.88400006 5859183
-0.073660001 -0.065193333 0.88900006 7111024
-0.072128572 -0.065340005 0.89100003 8356982
-0.070431434 -0.065340005 0.89100003 8290428
-0.068965718 -0.065560006 0.89400005 8290949
-0.067413338 -0.06570667 0.89600003 8356495
-0.06570667 -0.06570667 0.89600003 8487558
-0.06414286 -0.065853335 0.89800006 8224638
-0.062432382 -0.065853335 0.89800006 7961214
-0.060924761 -0.066073328 0.90100002 7829630
-0.059471432 -0.066366673 0.90500003 7764091
-0.057939049 -0.066586666 0.90800005 7698041
-0.056333333 -0.06673333 0.91000003 7632246
-0.054480001 -0.066586666 0.90800005 7500915
-0.052750479 -0.066586666 0.90800005 7434862
-0.051020954 -0.066586666 0.90800005 7500649
-0.053634286 -0.072453335 0.98800004 7566442
-0.051595241 -0.072233342 0.98500007 7566443
-0.049719054 -0.072233342 0.98500007 7631978
-0.04784286 -0.072233342 0.98500007 7566442
-0.04596667 -0.072233342 0.98500007 7500904
-0.044090476 -0.072233342 0.98500007 7435110
-0.04212857 -0.07208667 0.98300004 7370087
-0.040256191 -0.07208667 0.98300004 6647401
-0.038266666 -0.071866661 0.98000002 5917265
-0.036400001 -0.071866661 0.98000002 3940921
-0.034533337 -0.071866661 0.98000002 1976893
-0.16545428 -0.062357143 0.87300003 7507372
-0.16379143 -0.062357143 0.87300003 10001830
-0.16212857 -0.062357143 0.87300003 10001568
-0.16046572 -0.062357143 0.87300003 10002338
-0.15843906 -0.062214289 0.87100005 10134436
-0.15641999 -0.062071431 0.86900002 10331047
-0.15476477 -0.062071431 0.86900002 10331305
-0.15275714 -0.061928574 0.86700004 10331304
-0.15110572 -0.061928574 0.86700004 10331304
-0.14910954 -0.06178572 0.86500007 10331302
-0.14746191 -0.06178572 0.86500007 10265765
-0.1458143 -0.06178572 0.86500007 10265767
-0.14416668 -0.06178572 0.86500007 10265514
-0.14202477 -0.06157143 0.86200005 10265257
-0.14038286 -0.06157143 0.86200005 10265256
-0.13874096 -0.06157143 0.86200005 10265257
-0.13709906 -0.06157143 0.86200005 10199978
-0.13514286 -0.061428569 0.86000001 10134184
-0.13350476 -0.061428569 0.86000001 10068390
-0.13186668 -0.061428569 0.86000001 10068132
-0.13022858 -0.061428569 0.86000001 10002339
-0.12859048 -0.061428569 0.86000001 10002083
-0.12695238 -0.061428569 0.86000001 9936547
-0.12531428 -0.061428569 0.86000001 9871009
-0.12367619 -0.061428569 0.86000001 9805216
-0.1220381 -0.061428569 0.86000001 9804704
-0.12068 -0.06157143 0.86200005 9738912
-0.1190381 -0.06157143 0.86200005 9673378
-0.11780477 -0.06178572 0.86500007 9607589
-0.11615715 -0.06178572 0.86500007 9607588
-0.11450953 -0.06178572 0.86500007 9607587
-0.11286192 -0.06178572 0.86500007 9673120
-0.11147143 -0.061928574 0.86700004 9673118
-0.10982 -0.061928574 0.86700004 9672859
-0.10816857 -0.061928574 0.86700004 9541785
-0.10651714 -0.061928574 0.86700004 9410197
-0.10486572 -0.061928574 0.86700004 9409938
-0.10321429 -0.061928574 0.86700004 9474963
-0.10156287 -0.061928574 0.86700004 8622741
-0.09968096 -0.06178572 0.86500007 7765113
-0.09826 -0.061928574 0.86700004 6445918
-0.096608572 -0.061928574 0.86700004 5135454
-0.094738103 -0.06178572 0.86500007 5333086
-0.093520947 -0.062071431 0.86900002 5595232
-0.091865711 -0.062071431 0.86900002 5660770
-0.090210475 -0.062071431 0.86900002 5726562
-0.087300003 -0.062357143 0.87300003 5793388
-0.085833341 -0.062500007 0.87500006 5859446
-0.083974287 -0.062357143 0.87300003 5924203
-0.082311429 -0.062357143 0.87300003 5727072
-0.081295244 -0.062857151 0.88000005 5595232
-0.07961905 -0.062857151 0.88000005 5398625
-0.078120001 -0.063000001 0.88200003 5267555
-0.076439999 -0.063000001 0.88200003 5464422
-0.074929528 -0.063142858 0.88400006 5727598
-0.073660001 -0.063500002 0.88900006 7045238
-0.072128572 -0.063642859 0.89100003 8355961
-0.070431434 -0.063642859 0.89100003 8290684
-0.069120005 -0.064000003 0.89600003 8290945
-0.067413338 -0.064000003 0.89600003 8422279
-0.06570667 -0.064000003 0.89600003 8618626
-0.06414286 -0.06414286 0.89800006 8289916
-0.062640958 -0.064357147 0.90100002 8027003
-0.060924761 -0.064357147 0.90100002 7895161
-0.059471432 -0.064642854 0.90500003 7763831
-0.057939049 -0.064857148 0.90800005 7698037
-0.056333333 -0.064999998 0.91000003 7631987
-0.054480001 -0.064857148 0.90800005 7500658
-0.052750479 -0.064857148 0.90800005 7434862
-0.051020954 -0.064857148 0.90800005 7500395
-0.053634286 -0.07057143 0.98800004 7566445
-0.051595241 -0.070357151 0.98500007 7566447
-0.049719054 -0.070357151 0.98500007 7566446
-0.04784286 -0.070357151 0.98500007 7500654
-0.04596667 -0.070357151 0.98500007 7500394
-0.044090476 -0.070357151 0.98500007 7500390
-0.04212857 -0.070214294 0.98300004 7500904
-0.040256191 -0.070214294 0.98300004 6581353
-0.038383812 -0.070214294 0.98300004 5656913
-0.036511429 -0.070214294 0.98300004 3875386
-0.034639049 -0.070214294 0.98300004 2107967
-0.03276667 -0.070214294 0.98300004 2437445
-0.16507524 -0.060555242 0.87100005 7245740
-0.16379143 -0.060694285 0.87300003 9935781
-0.16212857 -0.060694285 0.87300003 9936542
-0.16046572 -0.060694285 0.87300003 10002593
-0.15843906 -0.060555242 0.87100005 10199973
-0.15641999 -0.060416192 0.86900002 10462120
-0.15476477 -0.060416192 0.86900002 10396843
-0.15275714 -0.060277145 0.86700004 10331306
-0.15110572 -0.060277145 0.86700004 10396841
-0.14945428 -0.060277145 0.86700004 10397095
-0.14780286 -0.060277145 0.86700004 10331301
-0.1458143 -0.060138099 0.86500007 10265766
-0.14416668 -0.060138099 0.86500007 10265512
-0.14202477 -0.059929527 0.86200005 10265512
-0.14038286 -0.059929527 0.86200005 10265256
-0.13874096 -0.059929527 0.86200005 10199719
-0.13678095 -0.059790477 0.86000001 10134183
-0.13514286 -0.059790477 0.86000001 10134183
-0.13350476 -0.059790477 0.86000001 10068391
-0.13186668 -0.059790477 0.86000001 10002597
-0.13022858 -0.059790477 0.86000001 10002340
-0.12859048 -0.059790477 0.86000001 10002339
-0.12695238 -0.059790477 0.86000001 9936547
-0.12531428 -0.059790477 0.86000001 9871009
-0.12367619 -0.059790477 0.86000001 9804960
-0.1220381 -0.059790477 0.86000001 9804448
-0.1204 -0.059790477 0.86000001 9738913
-0.1190381 -0.059929527 0.86200005 9673378
-0.1173962 -0.059929527 0.86200005 9607588
-0.11575429 -0.059929527 0.86200005 9607587
-0.11450953 -0.060138099 0.86500007 9673123
-0.11286192 -0.060138099 0.86500007 9673120
-0.1112143 -0.060138099 0.86500007 9673117
-0.10956667 -0.060138099 0.86500007 9673114
-0.10816857 -0.060277145 0.86700004 9541784
-0.10651714 -0.060277145 0.86700004 9410198
-0.10486572 -0.060277145 0.86700004 9344404
-0.10321429 -0.060277145 0.86700004 9279638
-0.10156287 -0.060277145 0.86700004 8687512
-0.099911429 -0.060277145 0.86700004 8027003
-0.09826 -0.060277145 0.86700004 6576990
-0.096608572 -0.060277145 0.86700004 5135451
-0.094738103 -0.060138099 0.86500007 5333081
-0.093090482 -0.060138099 0.86500007 5595484
-0.091865711 -0.060416192 0.86900002 5595231
-0.090210475 -0.060416192 0.86900002 5595487
-0.087500006 -0.060833335 0.87500006 5661796
-0.086127624 -0.061041906 0.87800002 5661544
-0.084166676 -0.060833335 0.87500006 5727075
-0.082500003 -0.060833335 0.87500006 5595486
-0.081295244 -0.061180957 0.88000005 5529695
-0.07961905 -0.061180957 0.88000005 5464161
-0.078120001 -0.061319999 0.88200003 5398879
-0.076439999 -0.061319999 0.88200003 5529694
-0.074929528 -0.061459053 0.88400006 5661549
-0.073660001 -0.061806668 0.88900006 6979709
-0.07196667 -0.061806668 0.88900006 8356476
-0.070431434 -0.061945714 0.89100003 8290684
-0.068965718 -0.062154286 0.89400005 8225406
-0.067413338 -0.062293336 0.89600003 8356480
-0.06570667 -0.062293336 0.89600003 8422013
-0.06414286 -0.062432382 0.89800006 8224379
-0.062640958 -0.062640958 0.90100002 8027256
-0.060924761 -0.062640958 0.90100002 7895413
-0.059471432 -0.06291905 0.90500003 7763827
-0.057939049 -0.063127622 0.90800005 7632241
-0.056209527 -0.063127622 0.90800005 7566449
-0.054480001 -0.063127622 0.90800005 7500913
-0.052750479 -0.063127622 0.90800005 7435375
-0.051020954 -0.063127622 0.90800005 7500909
-0.053634286 -0.068689525 0.98800004 7566448
-0.051595241 -0.068480961 0.98500007 7566452
-0.049719054 -0.068480961 0.98500007 7631987
-0.04784286 -0.068480961 0.98500007 7500402
-0.04596667 -0.068480961 0.98500007 7434860
-0.044090476 -0.068480961 0.98500007 7434855
-0.042214289 -0.068480961 0.98500007 7500648
-0.040338099 -0.068480961 0.98500007 6514538
-0.038461905 -0.068480961 0.98500007 5593170
-0.036585718 -0.068480961 0.98500007 3810619
-0.034709528 -0.068480961 0.98500007 2107969
-0.032833334 -0.068480961 0.98500007 2371912
-0.16507524 -0.058896191 0.87100005 7049640
-0.16379143 -0.059031431 0.87300003 9935266
-0.16212857 -0.059031431 0.87300003 9937053
-0.16046572 -0.059031431 0.87300003 10002337
-0.15843906 -0.058896191 0.87100005 10265765
-0.15678 -0.058896191 0.87100005 10593448
-0.15512097 -0.058896191 0.87100005 10462635
-0.15310952 -0.058760952 0.86900002 10396843
-0.15145428 -0.058760952 0.86900002 10462380
-0.14945428 -0.058625717 0.86700004 10527913
-0.14780286 -0.058625717 0.86700004 10396583
-0.14615144 -0.058625717 0.86700004 10265512
-0.14416668 -0.058490481 0.86500007 10265769
-0.14202477 -0.058287621 0.86200005 10331049
-0.14038286 -0.058287621 0.86200005 10265513
-0.13874096 -0.058287621 0.86200005 10199462
-0.13678095 -0.058152381 0.86000001 10133923
-0.13514286 -0.058152381 0.86000001 10133924
-0.13350476 -0.058152381 0.86000001 10002854
-0.13186668 -0.058152381 0.86000001 9936804
-0.13022858 -0.058152381 0.86000001 10002338
-0.12859048 -0.058152381 0.86000001 10067875
-0.12695238 -0.058152381 0.86000001 10002084
-0.12531428 -0.058152381 0.86000001 9936290
-0.12367619 -0.058152381 0.86000001 9870241
-0.1220381 -0.058152381 0.86000001 9804450
-0.12068 -0.058287621 0.86200005 9738914
-0.1190381 -0.058287621 0.86200005 9673378
-0.11780477 -0.058490481 0.86500007 9673122
-0.11615715 -0.058490481 0.86500007 9673123
-0.11450953 -0.058490481 0.86500007 9673380
-0.11286192 -0.058490481 0.86500007 9738656
-0.1112143 -0.058490481 0.86500007 9673116
-0.10956667 -0.058490481 0.86500007 9673114
-0.10816857 -0.058625717 0.86700004 9541784
-0.10627143 -0.058490481 0.86500007 9475733
-0.10486572 -0.058625717 0.86700004 9279123
-0.10321429 -0.058625717 0.86700004 9148309
-0.10156287 -0.058625717 0.86700004 8752536
-0.099911429 -0.058625717 0.86700004 8355449
-0.09826 -0.058625717 0.86700004 6773595
-0.096608572 -0.058625717 0.86700004 5200987
-0.094738103 -0.058490481 0.86500007 5398620
-0.093090482 -0.058490481 0.86500007 5595229
-0.091865711 -0.058760952 0.86900002 5529695
-0.090210475 -0.058760952 0.86900002 5529695
-0.087500006 -0.05916667 0.87500006 5595490
-0.086127624 -0.059369523 0.87800002 5529956
-0.084166676 -0.05916667 0.87500006 5529697
-0.082500003 -0.05916667 0.87500006 5464158
-0.081295244 -0.059504766 0.88000005 5463903
-0.079800002 -0.059640002 0.88200003 5529440
-0.078297146 -0.059775241 0.88400006 5595229
-0.076613337 -0.059775241 0.88400006 5595227
-0.075183809 -0.059978094 0.88700002 5595244
-0.073660001 -0.060113337 0.88900006 6979709
-0.07196667 -0.060113337 0.88900006 8356220
-0.070431434 -0.060248572 0.89100003 8290684
-0.068965718 -0.060451429 0.89400005 8225150
-0.067262866 -0.060451429 0.89400005 8225920
-0.06570667 -0.060586669 0.89600003 8290939
-0.06414286 -0.060721908 0.89800006 8159095
-0.062432382 -0.060721908 0.89800006 8027253
-0.060924761 -0.060924761 0.90100002 7895668
-0.059471432 -0.061195243 0.90500003 7763826
-0.057747621 -0.061195243 0.90500003 7632241
-0.056209527 -0.061398096 0.90800005 7566448
-0.054480001 -0.061398096 0.90800005 7500912
-0.052750479 -0.061398096 0.90800005 7435374
-0.051020954 -0.061398096 0.90800005 7501165
-0.049291432 -0.061398096 0.90800005 7566447
-0.051595241 -0.066604763 0.98500007 7631730
-0.049719054 -0.066604763 0.98500007 7697008
-0.04784286 -0.066604763 0.98500007 7565935
-0.04596667 -0.066604763 0.98500007 7434859
-0.044090476 -0.066604763 0.98500007 7435112
-0.042214289 -0.066604763 0.98500007 7500907
-0.040338099 -0.066604763 0.98500007 6513519
-0.038461905 -0.066604763 0.98500007 5526868
-0.036585718 -0.066604763 0.98500007 3811385
-0.034709528 -0.066604763 0.98500007 2107710
-0.032833334 -0.066604763 0.98500007 2371908
-0.16507524 -0.057237145 0.87100005 6852005
-0.16379143 -0.057368573 0.87300003 9869216
-0.16250001 -0.057500005 0.87500006 9871004
-0.16046572 -0.057368573 0.87300003 9936800
-0.15880287 -0.057368573 0.87300003 10199973
-0.15678 -0.057237145 0.87100005 10397096
-0.15512097 -0.057237145 0.87100005 10397100
-0.15310952 -0.057105716 0.86900002 10396845
-0.15145428 -0.057105716 0.86900002 10396847
-0.14945428 -0.056974288 0.86700004 10396844
-0.14780286 -0.056974288 0.86700004 10331050
-0.14615144 -0.056974288 0.86700004 10265514
-0.14416668 -0.05684286 0.86500007 10265770
-0.14251907 -0.05684286 0.86500007 10265258
-0.14038286 -0.056645717 0.86200005 10199722
-0.13874096 -0.056645717 0.86200005 10199204
-0.13678095 -0.056514286 0.86000001 10133663
-0.13514286 -0.056514286 0.86000001 10133666
-0.13350476 -0.056514286 0.86000001 10068133
-0.13186668 -0.056514286 0.86000001 10002339
-0.13022858 -0.056514286 0.86000001 10002337
-0.12859048 -0.056514286 0.86000001 10002339
-0.12695238 -0.056514286 0.86000001 9936293
-0.12531428 -0.056514286 0.86000001 9870500
-0.12367619 -0.056514286 0.86000001 9804707
-0.1220381 -0.056514286 0.86000001 9804451
-0.12068 -0.056645717 0.86200005 9738916
-0.1190381 -0.056645717 0.86200005 9673378
-0.11780477 -0.05684286 0.86500007 9673121
-0.11615715 -0.05684286 0.86500007 9607587
-0.11450953 -0.05684286 0.86500007 9673381
-0.11286192 -0.05684286 0.86500007 9739168
-0.1112143 -0.05684286 0.86500007 9673115
-0.10982 -0.056974288 0.86700004 9673113
-0.10816857 -0.056974288 0.86700004 9607320
-0.10627143 -0.05684286 0.86500007 9541525
-0.10486572 -0.056974288 0.86700004 9344915
-0.10321429 -0.056974288 0.86700004 9148309
-0.10156287 -0.056974288 0.86700004 8819352
-0.099911429 -0.056974288 0.86700004 8487288
-0.09826 -0.056974288 0.86700004 6839897
-0.096385725 -0.05684286 0.86500007 5201244
-0.094738103 -0.05684286 0.86500007 5398367
-0.093090482 -0.05684286 0.86500007 5529695
-0.084166676 -0.057500005 0.87500006 5595232
-0.082500003 -0.057500005 0.87500006 5529695
-0.081295244 -0.057828575 0.88000005 5463903
-0.079980955 -0.058091432 0.88400006 5529439
-0.078562863 -0.058288574 0.88700002 5595739
-0.076873332 -0.058288574 0.88700002 5529176
-0.075183809 -0.058288574 0.88700002 5463402
-0.073660001 -0.058420002 0.88900006 6848381
-0.07196667 -0.058420002 0.88900006 8225660
-0.070431434 -0.058551431 0.89100003 8225148
-0.068965718 -0.058748577 0.89400005 8225150
-0.067262866 -0.058748577 0.89400005 8290688
-0.06570667 -0.058880001 0.89600003 8356474
-0.06414286 -0.059011433 0.89800006 8159092
-0.062640958 -0.059208572 0.90100002 8027507
-0.061060004 -0.059340004 0.90300006 7830131
-0.059471432 -0.059471432 0.90500003 7698290
-0.057939049 -0.059668574 0.90800005 7632498
-0.056209527 -0.059668574 0.90800005 7566704
-0.054480001 -0.059668574 0.90800005 7501167
-0.052750479 -0.059668574 0.90800005 7435630
-0.051020954 -0.059668574 0.90800005 7435629
-0.049291432 -0.059668574 0.90800005 7435374
-0.051490478 -0.064597145 0.98300004 7500400
-0.049719054 -0.064728573 0.98500007 7565678
-0.04784286 -0.064728573 0.98500007 7500396
-0.04596667 -0.064728573 0.98500007 7369322
-0.044090476 -0.064728573 0.98500007 7500649
-0.042214289 -0.064728573 0.98500007 7566958
-0.040460952 -0.064925715 0.98800004 6514036
-0.03857905 -0.064925715 0.98800004 5395029
-0.036585718 -0.064728573 0.98500007 3679799
-0.034709528 -0.064728573 0.98500007 2042172
-0.16250001 -0.055833336 0.87500006 9870752
-0.16046572 -0.055705715 0.87300003 9936802
-0.15880287 -0.055705715 0.87300003 10068901
-0.15678 -0.055578098 0.87100005 10265767
-0.15512097 -0.055578098 0.87100005 10331562
-0.15310952 -0.055450477 0.86900002 10396844
-0.15145428 -0.055450477 0.86900002 10331310
-0.14945428 -0.055322859 0.86700004 10331308
-0.14780286 -0.055322859 0.86700004 10331307
-0.14615144 -0.055322859 0.86700004 10331306
-0.1445 -0.055322859 0.86700004 10265769
-0.14251907 -0.055195242 0.86500007 10265258
-0.14038286 -0.055003811 0.86200005 10199723
-0.13874096 -0.055003811 0.86200005 10199463
-0.13678095 -0.054876193 0.86000001 10133667
-0.13514286 -0.054876193 0.86000001 10133667
-0.13350476 -0.054876193 0.86000001 10068132
-0.13186668 -0.054876193 0.86000001 10068129
-0.13022858 -0.054876193 0.86000001 10002590
-0.12859048 -0.054876193 0.86000001 10002336
-0.12695238 -0.054876193 0.86000001 9936035
-0.12531428 -0.054876193 0.86000001 9870498
-0.12396381 -0.055003811 0.86200005 9805217
-0.1223219 -0.055003811 0.86200005 9804706
-0.12068 -0.055003811 0.86200005 9739170
-0.1190381 -0.055003811 0.86200005 9738656
-0.11780477 -0.055195242 0.86500007 9673119
-0.11615715 -0.055195242 0.86500007 9607584
-0.11411238 -0.055003811 0.86200005 9673378
-0.11286192 -0.055195242 0.86500007 9738910
-0.1112143 -0.055195242 0.86500007 9673370
-0.10956667 -0.055195242 0.86500007 9672857
-0.10816857 -0.055322859 0.86700004 9607321
-0.10627143 -0.055195242 0.86500007 9607062
-0.10486572 -0.055322859 0.86700004 9344915
-0.10321429 -0.055322859 0.86700004 9148309
-0.10156287 -0.055322859 0.86700004 8886167
-0.09968096 -0.055195242 0.86500007 8684152
-0.09826 -0.055322859 0.86700004 6971993
-0.096051432 -0.055003811 0.86200005 5266522
-0.094409525 -0.055003811 0.86200005 5398363
-0.079980955 -0.056407623 0.88400006 5529694
-0.078562863 -0.056599047 0.88700002 5595739
-0.076873332 -0.056599047 0.88700002 5463384
-0.075183809 -0.056599047 0.88700002 5397867
-0.073660001 -0.056726668 0.88900006 6782845
-0.07196667 -0.056726668 0.88900006 8159869
-0.070273332 -0.056726668 0.88900006 8159869
-0.068965718 -0.057045717 0.89400005 8225150
-0.067262866 -0.057045717 0.89400005 8290688
-0.06570667 -0.057173334 0.89600003 8422011
-0.06414286 -0.057300955 0.89800006 8224887
-0.062640958 -0.057492379 0.90100002 8027510
-0.061060004 -0.057620004 0.90300006 7830133
-0.059471432 -0.057747621 0.90500003 7632756
-0.057939049 -0.057939049 0.90800005 7632756
-0.056209527 -0.057939049 0.90800005 7632242
-0.0546 -0.058066666 0.91000003 7566961
-0.052866668 -0.058066666 0.91000003 7501168
-0.051133335 -0.058066666 0.91000003 7435630
-0.049400002 -0.058066666 0.91000003 7369838
-0.051490478 -0.062724762 0.98300004 7434862
-0.049719054 -0.062852383 0.98500007 7500397
-0.04784286 -0.062852383 0.98500007 7434861
-0.04596667 -0.062852383 0.98500007 7369321
-0.044090476 -0.062852383 0.98500007 7500646
-0.042214289 -0.062852383 0.98500007 7698282
-0.040460952 -0.06304381 0.98800004 6514541
-0.03857905 -0.06304381 0.98800004 5329490
-0.036697146 -0.06304381 0.98800004 3613751
-0.034815237 -0.06304381 0.98800004 1976381
-0.16305715 -0.05435238 0.87800002 9805477
-0.16083334 -0.054166671 0.87500006 9871525
-0.15880287 -0.054042861 0.87300003 10068645
-0.15714 -0.054042861 0.87300003 10265767
-0.15512097 -0.053919047 0.87100005 10396841
-0.15310952 -0.053795237 0.86900002 10527659
-0.15145428 -0.053795237 0.86900002 10462125
-0.14945428 -0.053671431 0.86700004 10331052
-0.14780286 -0.053671431 0.86700004 10331308
-0.14615144 -0.053671431 0.86700004 10396842
-0.1445 -0.053671431 0.86700004 10331048
-0.14251907 -0.053547624 0.86500007 10265258
-0.14087144 -0.053547624 0.86500007 10265260
-0.13922381 -0.053547624 0.86500007 10265513
-0.13709906 -0.053361908 0.86200005 10199463
-0.13514286 -0.053238098 0.86000001 10133925
-0.13350476 -0.053238098 0.86000001 10133924
-0.13186668 -0.053238098 0.86000001 10068383
-0.13022858 -0.053238098 0.86000001 10068123
-0.12859048 -0.053238098 0.86000001 10002334
-0.12695238 -0.053238098 0.86000001 9936289
-0.12531428 -0.053238098 0.86000001 9870752
-0.12396381 -0.053361908 0.86200005 9805216
-0.1223219 -0.053361908 0.86200005 9739424
-0.12068 -0.053361908 0.86200005 9739169
-0.1190381 -0.053361908 0.86200005 9804191
-0.11780477 -0.053547624 0.86500007 9738653
-0.11615715 -0.053547624 0.86500007 9673118
-0.11411238 -0.053361908 0.86200005 9673119
-0.11286192 -0.053547624 0.86500007 9738908
-0.1112143 -0.053547624 0.86500007 9738650
-0.10956667 -0.053547624 0.86500007 9672858
-0.10816857 -0.053671431 0.86700004 9607322
-0.10627143 -0.053547624 0.86500007 9541783
-0.10462382 -0.053547624 0.86500007 9344916
-0.10321429 -0.053671431 0.86700004 9148309
-0.10156287 -0.053671431 0.86700004 8951191
-0.09968096 -0.053547624 0.86500007 8750200
-0.098033339 -0.053547624 0.86500007 6972506
-0.096051432 -0.053361908 0.86200005 5200984
-0.094409525 -0.053361908 0.86200005 5398359
-0.078562863 -0.054909527 0.88700002 5530459
-0.076873332 -0.054909527 0.88700002 5398105
-0.075183809 -0.054909527 0.88700002 5332587
-0.073660001 -0.055033337 0.88900006 6716798
-0.07196667 -0.055033337 0.88900006 8094334
-0.070273332 -0.055033337 0.88900006 8094079
-0.068965718 -0.055342861 0.89400005 8159615
-0.067262866 -0.055342861 0.89400005 8290688
-0.06570667 -0.055466667 0.89600003 8356477
-0.06414286 -0.055590477 0.89800006 8159098
-0.062640958 -0.055776194 0.90100002 8027513
-0.061060004 -0.055900004 0.90300006 7895672
-0.059471432 -0.05602381 0.90500003 7764087
-0.057939049 -0.056209527 0.90800005 7698038
-0.056209527 -0.056209527 0.90800005 7632245
-0.0546 -0.056333333 0.91000003 7566708
-0.052866668 -0.056333333 0.91000003 7501170
-0.051133335 -0.056333333 0.91000003 7370096
-0.049400002 -0.056333333 0.91000003 7304558
-0.051490478 -0.060852386 0.98300004 7369581
-0.049719054 -0.060976192 0.98500007 7434861
-0.04784286 -0.060976192 0.98500007 7369326
-0.04596667 -0.060976192 0.98500007 7368809
-0.044224761 -0.061161906 0.98800004 7500644
-0.04234286 -0.061161906 0.98800004 7632997
-0.040460952 -0.061161906 0.98800004 6251623
-0.03857905 -0.061161906 0.98800004 4870991
-0.036697146 -0.061161906 0.98800004 3679288
-0.034815237 -0.061161906 0.98800004 2500671
-0.16342857 -0.052800003 0.88000005 9740192
-0.16138478 -0.052680001 0.87800002 9871266
-0.15880287 -0.052379999 0.87300003 10068644
-0.15714 -0.052379999 0.87300003 10265510
-0.15512097 -0.052260004 0.87100005 10462376
-0.15310952 -0.052140001 0.86900002 10724265
-0.15145428 -0.052140001 0.86900002 10527914
-0.14945428 -0.052020002 0.86700004 10396842
-0.14780286 -0.052020002 0.86700004 10396842
-0.14615144 -0.052020002 0.86700004 10462121
-0.1445 -0.052020002 0.86700004 10331048
-0.14251907 -0.051900003 0.86500007 10265513
-0.14087144 -0.051900003 0.86500007 10265770
-0.13922381 -0.051900003 0.86500007 10331048
-0.13709906 -0.051720005 0.86200005 10265254
-0.13545716 -0.051720005 0.86200005 10199461
-0.13350476 -0.051599998 0.86000001 10133925
-0.13217334 -0.051720005 0.86200005 10133925
-0.13053145 -0.051720005 0.86200005 10068133
-0.12888953 -0.051720005 0.86200005 10067620
-0.12695238 -0.051599998 0.86000001 9936547
-0.12560572 -0.051720005 0.86200005 9870752
-0.12396381 -0.051720005 0.86200005 9805213
-0.1223219 -0.051720005 0.86200005 9739422
-0.12068 -0.051720005 0.86200005 9804959
-0.1190381 -0.051720005 0.86200005 9870235
-0.1173962 -0.051720005 0.86200005 9804696
-0.11575429 -0.051720005 0.86200005 9738652
-0.11411238 -0.051720005 0.86200005 9738656
-0.11247049 -0.051720005 0.86200005 9804189
-0.11082857 -0.051720005 0.86200005 9738651
-0.10956667 -0.051900003 0.86500007 9738650
-0.10791906 -0.051900003 0.86500007 9607578
-0.10627143 -0.051900003 0.86500007 9541271
-0.10462382 -0.051900003 0.86500007 9344405
-0.1029762 -0.051900003 0.86500007 9213078
-0.10156287 -0.052020002 0.86700004 9016216
-0.09968096 -0.051900003 0.86500007 8816504
-0.09826 -0.052020002 0.86700004 6973017
-0.096051432 -0.051720005 0.86200005 5200986
-0.094409525 -0.051720005 0.86200005 5398619
-0.078562863 -0.05322 0.88700002 5463903
-0.076873332 -0.05322 0.88700002 5333088
-0.075183809 -0.05322 0.88700002 5266797
-0.073660001 -0.053340003 0.88900006 6650745
-0.07196667 -0.053340003 0.88900006 8028284
-0.070273332 -0.053340003 0.88900006 8094079
-0.068965718 -0.053640001 0.89400005 8159617
-0.067262866 -0.053640001 0.89400005 8225667
-0.06570667 -0.05376 0.89600003 8356223
-0.06414286 -0.053880006 0.89800006 8159099
-0.062640958 -0.054060001 0.90100002 8027257
-0.061060004 -0.054180004 0.90300006 7961208
