# .PCD v0.7 - Point Cloud Data file format
VERSION 0.7
FIELDS x y z rgba
SIZE 4 4 4 4
TYPE F F F U
COUNT 1 1 1 1
WIDTH 1030
HEIGHT 1
VIEWPOINT 0 0 0 1 0 0 0
POINTS 1030
DATA ascii
-0.0068624001 -0.017541317 0.058299236 4278190080
0.10726 -0.017541317 0.058299236 4278190080
-0.0073917001 -0.016691774 0.059845187 4278190080
-0.0074431999 -0.016600752 0.060010824 4278190080
0.10695 -0.016600752 0.060010824 4278190080
-0.0078317001 -0.015660185 0.061722416 4278190080
0.10695 -0.015660185 0.061722416 4278190080
-0.0081620002 -0.01471962 0.063434005 4278190080
0.10668 -0.01471962 0.063434005 4278190080
-0.0085405 -0.013779053 0.065145597 4278190080
0.10589 -0.012878122 0.064650513 4278190080
0.10619 -0.013779053 0.065145597 4278190080
-0.0093448004 -0.011839401 0.066308163 4278190080
-0.0089525003 -0.012838487 0.066857189 4278190080
0.10586 -0.012838487 0.066857189 4278190080
0.10589 -0.012946365 0.066660881 4278190080
-0.0093448004 -0.012070334 0.068255037 4278190080
-0.0094355997 -0.01189792 0.068568781 4278190080
0.10551 -0.01189792 0.068568781 4278190080
-0.0097003002 -0.010957355 0.070280373 4278190080
0.10496 -0.010957355 0.070280373 4278190080
-0.010237 -0.010016307 0.071992844 4278190080
0.10394 -0.0093467422 0.071624897 4278190080
0.10431 -0.010016307 0.071992844 4278190080
-0.011298 -0.0075727329 0.07287848 4278190080
-0.010943 -0.0090757422 0.073704429 4278190080
0.10351 -0.0090757422 0.073704429 4278190080
0.10394 -0.0095164049 0.07290253 4278190080
-0.011298 -0.00779601 0.075229645 4278190080
-0.011192 -0.0081351753 0.075416028 4278190080
0.10198 -0.0066155102 0.074580923 4278190080
0.10274 -0.0081351753 0.075416028 4278190080
-0.011298 -0.0078934096 0.07585597 4278190080
-0.011658 -0.0071946066 0.077127621 4278190080
0.10198 -0.0067835767 0.076901749 4278190080
0.10222 -0.0071946066 0.077127621 4278190080
-0.012017 -0.0062540434 0.078839205 4278190080
0.10176 -0.0062540434 0.078839205 4278190080
0.10198 -0.0066783316 0.078067109 4278190080
-0.012216 -0.0053134747 0.080550797 4278190080
0.10003 -0.0039200112 0.079785049 4278190080
0.10077 -0.0053134747 0.080550797 4278190080
-0.013251 -0.0028585047 0.081430182 4278190080
-0.012545 -0.0043729097 0.082262382 4278190080
0.10003 -0.0040556565 0.082088046 4278190080
0.1002 -0.0043729097 0.082262382 4278190080
-0.013251 -0.0024836026 0.08345376 4278190080
-0.012883 -0.0034318604 0.083974853 4278190080
0.099463001 -0.0034318604 0.083974853 4278190080
0.10003 -0.0041624531 0.082645372 4278190080
-0.013251 -0.0024194308 0.085646957 4278190080
-0.013226 -0.0024912953 0.085686445 4278190080
0.098076999 -0.0021021739 0.085472614 4278190080
0.098241001 -0.0024912953 0.085686445 4278190080
-0.013251 -0.0024373569 0.085784599 4278190080
-0.013643 -0.0015507303 0.087398037 4278190080
0.097707003 -0.0015507303 0.087398037 4278190080
0.098076999 -0.0022529028 0.086120263 4278190080
-0.013863 -0.0006101653 0.089109629 4278190080
0.096124001 0.00033195689 0.088591903 4278190080
0.09674 -0.0006101653 0.089109629 4278190080
-0.014342 0.00033040345 0.090821221 4278190080
0.096064001 0.00033040345 0.090821221 4278190080
0.096124001 0.00020229816 0.0905881 4278190080
-0.014741 0.0012709685 0.092532814 4278190080
0.095285997 0.0012709685 0.092532814 4278190080
-0.015204 0.0031816997 0.093711264 4278190080
-0.014897 0.0022115335 0.094244398 4278190080
0.094171003 0.0023202077 0.094184682 4278190080
0.094241999 0.0022115335 0.094244398 4278190080
-0.015204 0.0029450133 0.095579147 4278190080
-0.015287 0.0031520985 0.09595599 4278190080
0.093652003 0.0031520985 0.09595599 4278190080
0.094171003 0.0022890717 0.094385497 4278190080
-0.015579 0.0040931478 0.097668462 4278190080
0.092217997 0.0051509514 0.097087167 4278190080
0.092745997 0.0040931478 0.097668462 4278190080
-0.015876001 0.0050337166 0.099380054 4278190080
0.091967002 0.0050337166 0.099380054 4278190080
0.092217997 0.0047230832 0.098814785 4278190080
-0.016264999 0.0059742816 0.10109164 4278190080
0.090264998 0.007416822 0.10029893 4278190080
0.091076002 0.0059742816 0.10109164 4278190080
-0.01639 0.0069148466 0.10280323 4278190080
0.089914002 0.0069148466 0.10280323 4278190080
0.090264998 0.0065714642 0.10217836 4278190080
-0.016523 0.0078554153 0.10451483 4278190080
0.088312 0.0092182048 0.10376593 4278190080
0.089313 0.0078554153 0.10451483 4278190080
-0.017157 0.010446224 0.10531956 4278190080
-0.016717 0.0087959804 0.10622641 4278190080
0.088270001 0.0087959804 0.10622641 4278190080
0.088312 0.0087550431 0.10615192 4278190080
-0.017157 0.010948595 0.10727195 4278190080
-0.016814001 0.0097365454 0.10793801 4278190080
0.086358003 0.011391174 0.10702875 4278190080
0.087402001 0.0097365454 0.10793801 4278190080
-0.017157 0.010993578 0.10947797 4278190080
-0.017077999 0.010678075 0.10965135 4278190080
0.086358003 0.011133801 0.10940091 4278190080
0.086698003 0.010678075 0.10965135 4278190080
-0.017157 0.010957405 0.11015966 4278190080
-0.01737 0.011617195 0.11136031 4278190080
0.084404998 0.013249036 0.11046357 4278190080
0.085708998 0.011617195 0.11136031 4278190080
0.086358003 0.011005566 0.1102473 4278190080
-0.017543999 0.012556318 0.11306927 4278190080
0.084404998 0.012785934 0.11294309 4278190080
0.084592 0.012556318 0.11306927 4278190080
-0.017804001 0.013500258 0.114787 4278190080
0.083778001 0.013500258 0.114787 4278190080
0.084404998 0.012700796 0.11333219 4278190080
-0.017968999 0.014439374 0.11649596 4278190080
0.082451999 0.015042331 0.11616462 4278190080
0.082814001 0.014439374 0.11649596 4278190080
-0.018231001 0.015378498 0.11820493 4278190080
0.080499001 0.016915686 0.1173602 4278190080
0.081501 0.015378498 0.11820493 4278190080
0.082451999 0.014737967 0.11703932 4278190080
-0.01911 0.017807923 0.11910634 4278190080
-0.018477 0.016322438 0.11992265 4278190080
0.080499001 0.016542412 0.11980177 4278190080
0.080647998 0.016322438 0.11992265 4278190080
-0.01911 0.018731266 0.12082396 4278190080
-0.018797001 0.017261557 0.12163161 4278190080
0.078546003 0.018285181 0.1210691 4278190080
0.079682 0.017261557 0.12163161 4278190080
0.080499001 0.016500626 0.12024692 4278190080
-0.01911 0.019879848 0.12241783 4278190080
-0.018578 0.018200681 0.12334058 4278190080
0.078546003 0.018256769 0.12330975 4278190080
0.078598 0.018200681 0.12334058 4278190080
-0.01911 0.020435538 0.1243489 4278190080
-0.01863 0.019144613 0.12505829 4278190080
0.076592997 0.01992723 0.12462823 4278190080
0.077170998 0.019144613 0.12505829 4278190080
0.078546003 0.018239208 0.12341069 4278190080
-0.01911 0.02111087 0.12620282 4278190080
-0.018734001 0.020083737 0.12676726 4278190080
0.076079004 0.020083737 0.12676726 4278190080
0.076592997 0.019597318 0.12588212 4278190080
-0.01911 0.021864194 0.12801389 4278190080
-0.018883999 0.02102286 0.12847623 4278190080
0.074639998 0.021827389 0.12803411 4278190080
0.075102001 0.02102286 0.12847623 4278190080
-0.01911 0.022458449 0.12992376 4278190080
-0.018932 0.021966793 0.13019395 4278190080
0.072687 0.023676634 0.12925434 4278190080
0.074010998 0.021966793 0.13019395 4278190080
0.074639998 0.021494828 0.12933509 4278190080
-0.01911 0.022636216 0.13141212 4278190080
-0.019199001 0.022905912 0.1319029 4278190080
0.072658002 0.022905912 0.1319029 4278190080
0.072687 0.022886652 0.13186786 4278190080
-0.019468 0.023845039 0.13361189 4278190080
0.070733003 0.025043942 0.13295305 4278190080
0.071585 0.023845039 0.13361189 4278190080
-0.019653 0.024788976 0.1353296 4278190080
0.070180997 0.024788976 0.1353296 4278190080
0.070733003 0.024384435 0.13459343 4278190080
-0.019602999 0.025728092 0.13703856 4278190080
0.068779998 0.026210107 0.13677368 4278190080
0.069104001 0.025728092 0.13703856 4278190080
-0.019587001 0.026667222 0.13874753 4278190080
0.068190001 0.026667222 0.13874753 4278190080
0.068779998 0.026045948 0.13761698 4278190080
-0.019441999 0.027611159 0.14046526 4278190080
0.066826999 0.02780572 0.14035833 4278190080
0.066977002 0.027611159 0.14046526 4278190080
-0.019393999 0.028550275 0.14217421 4278190080
0.064874001 0.029436309 0.1416873 4278190080
0.065407 0.028550275 0.14217421 4278190080
0.066826999 0.02772674 0.14067557 4278190080
-0.01943 0.029489398 0.14388317 4278190080
0.062921003 0.030635718 0.14325324 4278190080
0.063800998 0.029489398 0.14388317 4278190080
0.064874001 0.028887399 0.14278769 4278190080
-0.019176999 0.030428521 0.14559214 4278190080
0.060968 0.031505607 0.14500025 4278190080
0.062114 0.030428521 0.14559214 4278190080
0.062921003 0.03000471 0.14482091 4278190080
-0.01911 0.031011261 0.14665258 4278190080
-0.01911 0.031448703 0.14726795 4278190080
-0.019073 0.031372458 0.14730985 4278190080
0.060968 0.031541601 0.1472169 4278190080
0.061096001 0.031372458 0.14730985 4278190080
-0.01911 0.032565735 0.14887916 4278190080
-0.019034 0.032311581 0.14901882 4278190080
0.059014998 0.033316802 0.14846642 4278190080
0.059966002 0.032311581 0.14901882 4278190080
0.060968 0.031492852 0.14752895 4278190080
-0.01911 0.034796659 0.14987825 4278190080
-0.018756 0.033250704 0.15072779 4278190080
0.059014998 0.03341021 0.15064014 4278190080
0.059179999 0.033250704 0.15072779 4278190080
-0.018324999 0.034194633 0.15244551 4278190080
0.057062 0.034502245 0.15227647 4278190080
0.057356998 0.034194633 0.15244551 4278190080
0.059014998 0.033347026 0.15090308 4278190080
-0.017874001 0.035133764 0.15415448 4278190080
0.055108 0.035980359 0.15368925 4278190080
0.055876002 0.035133764 0.15415448 4278190080
0.057062 0.034372836 0.15276979 4278190080
-0.017157 0.036979072 0.15536545 4278190080
-0.017378001 0.03607288 0.15586343 4278190080
0.053155001 0.037289314 0.15519497 4278190080
0.054458998 0.03607288 0.15586343 4278190080
0.055108 0.035663515 0.1551185 4278190080
-0.017157 0.03641963 0.15649444 4278190080
-0.016663 0.037016816 0.15758117 4278190080
0.052802 0.037016816 0.15758117 4278190080
0.053155001 0.036795281 0.15717801 4278190080
-0.015204 0.038380105 0.15905702 4278190080
-0.015472 0.037955932 0.15929012 4278190080
0.051121999 0.037955932 0.15929012 4278190080
0.051201999 0.037907779 0.15920249 4278190080
-0.015204 0.038119681 0.15958808 4278190080
-0.013251 0.039941475 0.16042405 4278190080
-0.01404 0.038895063 0.16099909 4278190080
0.049249001 0.039738152 0.16053578 4278190080
0.050106 0.038895063 0.16099909 4278190080
-0.013251 0.039323688 0.16177908 4278190080
-0.011298 0.041423518 0.16184607 4278190080
-0.012169 0.039839 0.16271681 4278190080
0.047295999 0.040542744 0.16233008 4278190080
0.048216999 0.039839 0.16271681 4278190080
0.049249001 0.039362207 0.16184919 4278190080
-0.011298 0.040296525 0.16354939 4278190080
-0.0093448004 0.042026099 0.16373998 4278190080
-0.010339 0.040778115 0.16442578 4278190080
0.045343 0.041754417 0.16388927 4278190080
0.046562999 0.040778115 0.16442578 4278190080
0.047295999 0.040344678 0.16363701 4278190080
-0.0093448004 0.04121156 0.16521452 4278190080
-0.0073917001 0.042033628 0.16596088 4278190080
-0.0076637999 0.041717246 0.16613474 4278190080
0.043389998 0.042701434 0.16559391 4278190080
0.044491 0.041717246 0.16613474 4278190080
0.045343 0.04121156 0.16521452 4278190080
-0.0073917001 0.041784666 0.16625743 4278190080
-0.0054385001 0.042275898 0.16715135 4278190080
-0.0034854 0.042988069 0.16767283 4278190080
-0.0037599001 0.042661175 0.16785246 4278190080
0.041437 0.043802235 0.16722542 4278190080
0.042707998 0.042661175 0.16785246 4278190080
0.043389998 0.042410739 0.16739674 4278190080
-0.0034854 0.042718969 0.16795763 4278190080
-0.0015323 0.043219835 0.16886906 4278190080
0.00042085 0.044322446 0.16916457 4278190080
-3.0114999e-05 0.043600298 0.16956142 4278190080
0.039483 0.045036703 0.16877207 4278190080
0.040614001 0.043600298 0.16956142 4278190080
0.041437 0.043176495 0.16879021 4278190080
0.00042085 0.043686986 0.16971917 4278190080
0.0023739999 0.043971129 0.17023624 4278190080
0.0043270998 0.044298619 0.17083219 4278190080
0.0062802001 0.044790071 0.17113265 4278190080
0.0062211002 0.044539422 0.17127039 4278190080
0.037530001 0.045261569 0.17087355 4278190080
0.038212001 0.044539422 0.17127039 4278190080
0.039483 0.044081897 0.17043781 4278190080
0.0062802001 0.044544242 0.17127915 4278190080
0.0082333004 0.044770591 0.17169106 4278190080
0.010186 0.044886172 0.17190139 4278190080
0.01214 0.045098081 0.172287 4278190080
0.014093 0.045314796 0.17268138 4278190080
0.016046001 0.045478545 0.17297935 4278190080
0.033624001 0.046656419 0.17233208 4278190080
0.035349999 0.045478545 0.17297935 4278190080
0.035576999 0.045425564 0.17288294 4278190080
0.037530001 0.044818752 0.17177869 4278190080
0.017999001 0.045608573 0.17321597 4278190080
0.019951999 0.04569526 0.17337373 4278190080
0.021904999 0.045781948 0.17353147 4278190080
0.023858 0.045887902 0.17372428 4278190080
0.025812 0.046013124 0.17395215 4278190080
0.027765 0.046051644 0.17402224 4278190080
0.029718 0.046066098 0.17404854 4278190080
0.031670999 0.045921616 0.17378563 4278190080
0.033624001 0.045791581 0.17354901 4278190080
0.01214 -0.06497857 -0.02483513 4278190080
0.012392 -0.065344021 -0.024634302 4278190080
0.064874001 -0.065074094 -0.024782635 4278190080
0.064218998 -0.065344021 -0.024634302 4278190080
0.01214 -0.064457878 -0.023021743 4278190080
0.012125 -0.064402968 -0.022921834 4278190080
0.064874001 -0.064223312 -0.023020562 4278190080
0.064549997 -0.064402968 -0.022921834 4278190080
0.066826999 -0.063601956 -0.023362016 4278190080
0.068779998 -0.062822841 -0.02379016 4278190080
0.011668 -0.063462406 -0.021210242 4278190080
0.064874001 -0.064075962 -0.022326764 4278190080
0.066826999 -0.062848933 -0.021547362 4278190080
0.065526001 -0.063462406 -0.021210242 4278190080
0.068779998 -0.062111016 -0.021952869 4278190080
0.011408 -0.062521838 -0.01949865 4278190080
0.066826999 -0.062617198 -0.019672174 4278190080
0.068779998 -0.061470173 -0.020076571 4278190080
0.066956997 -0.062521838 -0.01949865 4278190080
0.010186 -0.060033567 -0.018637568 4278190080
0.01097 -0.061581276 -0.017787062 4278190080
0.068779998 -0.061326243 -0.017927207 4278190080
0.068245001 -0.061581276 -0.017787062 4278190080
0.070733003 -0.060376234 -0.018449264 4278190080
0.010186 -0.059397988 -0.016758375 4278190080
0.010768 -0.060640708 -0.016075466 4278190080
0.068779998 -0.061199363 -0.017092079 4278190080
0.070733003 -0.059987798 -0.016434258 4278190080
0.069563001 -0.060640708 -0.016075466 4278190080
0.072687 -0.059055317 -0.016946683 4278190080
0.010186 -0.059038468 -0.014727486 4278190080
0.010495 -0.059700139 -0.014363877 4278190080
0.070733003 -0.059676476 -0.014376881 4278190080
0.070692003 -0.059700139 -0.014363877 4278190080
0.072687 -0.058888607 -0.014809839 4278190080
0.010186 -0.058329266 -0.012888752 4278190080
0.010426 -0.058759574 -0.012652285 4278190080
0.070733003 -0.059667394 -0.01430428 4278190080
0.072687 -0.058718387 -0.01267492 4278190080
0.072589003 -0.058759574 -0.012652285 4278190080
0.074639998 -0.057537887 -0.013323637 4278190080
0.010186 -0.058120973 -0.011490192 4278190080
0.010075 -0.057819009 -0.010940697 4278190080
0.072687 -0.058673851 -0.012496289 4278190080
0.074639998 -0.057048663 -0.011364024 4278190080
0.073379003 -0.057819009 -0.010940697 4278190080
0.0099215005 -0.056877963 -0.0092282277 4278190080
0.074639998 -0.056756146 -0.0092951711 4278190080
0.074426003 -0.056877963 -0.0092282277 4278190080
0.076592997 -0.05553183 -0.009967966 4278190080
0.0099702999 -0.055937394 -0.0075166374 4278190080
0.074639998 -0.056649685 -0.0088128187 4278190080
0.076592997 -0.054970741 -0.0080478434 4278190080
0.075172998 -0.055937394 -0.0075166374 4278190080
0.0099005997 -0.054996829 -0.0058050454 4278190080
0.076592997 -0.054527961 -0.0060627013 4278190080
0.075773999 -0.054996829 -0.0058050454 4278190080
0.078546003 -0.053384274 -0.0066911895 4278190080
0.0097276997 -0.054056264 -0.0040934533 4278190080
0.076592997 -0.054081306 -0.0041390266 4278190080
0.078546003 -0.052785501 -0.0047917739 4278190080
0.076610997 -0.054056264 -0.0040934533 4278190080
0.0096341996 -0.053115696 -0.0023818612 4278190080
0.078546003 -0.052220024 -0.0028740577 4278190080
0.076866999 -0.053115696 -0.0023818612 4278190080
0.0097255995 -0.052175131 -0.00067027286 4278190080
0.078546003 -0.051467884 -0.0010589231 4278190080
0.077124 -0.052175131 -0.00067027286 4278190080
0.080499001 -0.050481945 -0.0016007256 4278190080
0.0098668998 -0.051234566 0.0010413192 4278190080
0.078546003 -0.050645631 0.00071768276 4278190080
0.077508003 -0.051234566 0.0010413192 4278190080
0.080499001 -0.049638659 0.00016432442 4278190080
0.0099673001 -0.050293516 0.0027537867 4278190080
0.078546003 -0.049831662 0.0024999846 4278190080
0.077848002 -0.050293516 0.0027537867 4278190080
0.080499001 -0.048855361 0.0019634794 4278190080
0.010186 -0.049907271 0.0034566522 4278190080
0.010186 -0.048820984 0.0041730478 4278190080
0.010457 -0.049352951 0.0044653788 4278190080
0.078546003 -0.048948061 0.0042428803 4278190080
0.077815004 -0.049352951 0.0044653788 4278190080
0.080499001 -0.047995422 0.0037193783 4278190080
0.010186 -0.047900572 0.0058957152 4278190080
0.010398 -0.048412383 0.006176969 4278190080
0.078546003 -0.048052188 0.0059790313 4278190080
0.077839002 -0.048412383 0.006176969 4278190080
0.080499001 -0.047306377 0.0055691879 4278190080
0.082451999 -0.046756878 0.0052672252 4278190080
0.010186 -0.046575274 0.007395884 4278190080
0.010622 -0.047471818 0.0078885611 4278190080
0.078546003 -0.047485784 0.0078631463 4278190080
0.080499001 -0.046774212 0.0075052064 4278190080
0.078561001 -0.047471818 0.0078885611 4278190080
0.082451999 -0.046411384 0.0073058233 4278190080
0.084404998 -0.046174761 0.007175792 4278190080
0.086358003 -0.046080112 0.0071237795 4278190080
0.088312 -0.04620631 0.0071931295 4278190080
0.010186 -0.045994025 0.0093049295 4278190080
0.010399 -0.046531253 0.0096001513 4278190080
0.080499001 -0.046085171 0.0093550161 4278190080
0.078893997 -0.046531253 0.0096001513 4278190080
0.082451999 -0.045728479 0.0091590043 4278190080
0.084404998 -0.045683783 0.0091344435 4278190080
0.086358003 -0.045621559 0.009100249 4278190080
0.088312 -0.045846794 0.0092240218 4278190080
0.090264998 -0.045345496 0.0089485459 4278190080
0.010186 -0.045863751 0.01081483 4278190080
0.010101 -0.045590684 0.011311742 4278190080
0.080499001 -0.045613803 0.011269676 4278190080
0.082451999 -0.045247138 0.011122954 4278190080
0.080577001 -0.045590684 0.011311742 4278190080
0.084404998 -0.044768631 0.010860003 4278190080
0.086358003 -0.044821218 0.010888898 4278190080
0.088312 -0.044960566 0.010965471 4278190080
0.090264998 -0.044479422 0.010701072 4278190080
0.0096044 -0.044650119 0.013023334 4278190080
0.082451999 -0.044504639 0.012943389 4278190080
0.081880003 -0.044650119 0.013023334 4278190080
0.084404998 -0.04393148 0.012628421 4278190080
0.086358003 -0.043576542 0.012433374 4278190080
0.088312 -0.043581799 0.012436261 4278190080
0.0091404999 -0.04370936 0.014735276 4278190080
0.082451999 -0.04413259 0.013965104 4278190080
0.084404998 -0.042967059 0.01432736 4278190080
0.082699999 -0.04370936 0.014735276 4278190080
0.086358003 -0.042403538 0.01401769 4278190080
0.0082333004 -0.041824874 0.015928272 4278190080
0.0087147998 -0.042768747 0.016446956 4278190080
0.084404998 -0.042161409 0.016113203 4278190080
0.083389997 -0.042768747 0.016446956 4278190080
0.086358003 -0.041058034 0.01550687 4278190080
0.0082333004 -0.042165156 0.017545335 4278190080
0.0080139004 -0.041828133 0.018158633 4278190080
0.084404998 -0.041815866 0.01815189 4278190080
0.084379002 -0.041828133 0.018158633 4278190080
0.086358003 -0.040141083 0.017231552 4278190080
0.0073298002 -0.040887516 0.019870311 4278190080
0.084404998 -0.04180564 0.018199561 4278190080
0.086358003 -0.040123302 0.019450355 4278190080
0.085167997 -0.040887516 0.019870311 4278190080
0.0062802001 -0.039324645 0.021240098 4278190080
0.0065227998 -0.03994688 0.021582035 4278190080
0.061168 -0.03994688 0.021582035 4278190080
0.062921003 -0.04021896 0.021086918 4278190080
0.064874001 -0.040538214 0.020505957 4278190080
0.066826999 -0.040071324 0.021355575 4278190080
0.066826999 -0.039743558 0.021470305 4278190080
0.067064002 -0.03994688 0.021582035 4278190080
0.086358003 -0.04011067 0.021283975 4278190080
0.088312 -0.038684003 0.020888049 4278190080
0.086617 -0.03994688 0.021582035 4278190080
0.0062802001 -0.039684005 0.022060394 4278190080
0.0056940001 -0.039006241 0.023293758 4278190080
0.059014998 -0.038757347 0.023156982 4278190080
0.059308 -0.039006241 0.023293758 4278190080
0.060968 -0.039924335 0.021623058 4278190080
0.066826999 -0.037494469 0.022462998 4278190080
0.068664998 -0.039006241 0.023293758 4278190080
0.088312 -0.039043419 0.023226099 4278190080
0.090264998 -0.037441008 0.022433618 4278190080
0.088363998 -0.039006241 0.023293758 4278190080
0.0048767002 -0.038065627 0.025005436 4278190080
0.049249001 -0.037508246 0.024699137 4278190080
0.056619 -0.038065627 0.025005436 4278190080
0.057062 -0.03823043 0.024705535 4278190080
0.059014998 -0.038885165 0.023514083 4278190080
0.068779998 -0.038919408 0.02345177 4278190080
0.068779998 -0.037179597 0.024518538 4278190080
0.069343999 -0.038065627 0.025005436 4278190080
0.090264998 -0.037779924 0.024848433 4278190080
0.089896001 -0.038065627 0.025005436 4278190080
0.0043270998 -0.037256151 0.026478473 4278190080
0.0042367 -0.037125014 0.026717115 4278190080
0.055108 -0.035912968 0.026051061 4278190080
0.055629 -0.037125014 0.026717115 4278190080
0.068779998 -0.036022514 0.026111262 4278190080
0.069693998 -0.037125014 0.026717115 4278190080
0.090264998 -0.037802912 0.025483508 4278190080
0.092217997 -0.036110155 0.026159422 4278190080
0.091003999 -0.037125014 0.026717115 4278190080
0.003667 -0.036184397 0.028428793 4278190080
0.053155001 -0.035701506 0.028163431 4278190080
0.051201999 -0.036690176 0.027508408 4278190080
0.052425999 -0.036184397 0.028428793 4278190080
0.051201999 -0.034884483 0.026739091 4278190080
0.054871 -0.036184397 0.028428793 4278190080
0.055108 -0.036621787 0.027632855 4278190080
0.068779998 -0.034479819 0.02749208 4278190080
0.069664001 -0.036184397 0.028428793 4278190080
0.092217997 -0.03634318 0.028139848 4278190080
0.094171003 -0.034799699 0.027667863 4278190080
0.092491999 -0.036184397 0.028428793 4278190080
0.0030481999 -0.035243735 0.03014056 4278190080
0.069747001 -0.035243735 0.03014056 4278190080
0.094171003 -0.03495628 0.029982593 4278190080
0.093741998 -0.035243735 0.03014056 4278190080
0.0023739999 -0.034384318 0.031704478 4278190080
0.0023169001 -0.034302928 0.031852588 4278190080
0.069840997 -0.034302928 0.031852588 4278190080
0.094171003 -0.034872182 0.030816697 4278190080
0.096124001 -0.033309978 0.031306937 4278190080
0.094751 -0.034302928 0.031852588 4278190080
0.0018673 -0.033362363 0.03356418 4278190080
0.066826999 -0.032342244 0.033003598 4278190080
0.067606002 -0.033362363 0.03356418 4278190080
0.068779998 -0.033594012 0.033142637 4278190080
0.096124001 -0.033102952 0.033421628 4278190080
0.095711999 -0.033362363 0.03356418 4278190080
0.0015165 -0.032421798 0.035275772 4278190080
0.010186 -0.031184103 0.033472836 4278190080
0.010186 -0.031589225 0.034818251 4278190080
0.068779998 -0.033037283 0.034155745 4278190080
0.066826999 -0.031343993 0.033181876 4278190080
0.069852002 -0.032421798 0.035275772 4278190080
0.096124001 -0.033070993 0.034094397 4278190080
0.098076999 -0.031062515 0.034528811 4278190080
0.096735999 -0.032421798 0.035275772 4278190080
0.00098766002 -0.031481229 0.036987364 4278190080
0.0091653001 -0.031481229 0.036987364 4278190080
0.010186 -0.031964757 0.036107466 4278190080
0.098076999 -0.030890543 0.036662765 4278190080
0.097456001 -0.031481229 0.036987364 4278190080
0.00042085 -0.030651914 0.038496509 4278190080
0.00033919001 -0.030540664 0.038698956 4278190080
0.0091712996 -0.030540664 0.038698956 4278190080
0.098076999 -0.030800728 0.038225703 4278190080
0.10003 -0.029033273 0.037870601 4278190080
0.098350003 -0.030540664 0.038698956 4278190080
-8.6679996e-05 -0.029600099 0.040410545 4278190080
0.0082333004 -0.028784182 0.039962173 4278190080
0.0091644004 -0.029600099 0.040410545 4278190080
0.10003 -0.028693914 0.03991257 4278190080
0.099086002 -0.029600099 0.040410545 4278190080
-0.00045985999 -0.028659532 0.042122133 4278190080
0.0072158999 -0.028659532 0.042122133 4278190080
0.0082333004 -0.029151727 0.041226465 4278190080
0.10003 -0.028426414 0.041994028 4278190080
0.099831998 -0.028659532 0.042122133 4278190080
-0.0015323 -0.026147995 0.042971574 4278190080
-0.00096292997 -0.027718484 0.043834604 4278190080
0.0072236001 -0.027718484 0.043834604 4278190080
0.10003 -0.028437514 0.042526152 4278190080
0.10198 -0.026211094 0.043006249 4278190080
0.10075 -0.027718484 0.043834604 4278190080
-0.0015323 -0.025930448 0.045080487 4278190080
-0.0012137 -0.026777918 0.045546196 4278190080
0.10198 -0.026387924 0.04533188 4278190080
0.10159 -0.026777918 0.045546196 4278190080
-0.0015323 -0.026119567 0.04674422 4278190080
-0.0017089 -0.025837351 0.047257788 4278190080
0.10198 -0.026184585 0.046625908 4278190080
0.10394 -0.024134524 0.046322037 4278190080
0.10221 -0.025837351 0.047257788 4278190080
-0.0024079999 -0.024896786 0.048969377 4278190080
0.10394 -0.02379692 0.048364967 4278190080
0.10302 -0.024896786 0.048969377 4278190080
-0.0034854 -0.022942236 0.050123755 4278190080
-0.0031393999 -0.023956219 0.050680965 4278190080
0.0062802001 -0.022730567 0.048856124 4278190080
0.0062802001 -0.023153445 0.05023982 4278190080
0.10394 -0.02345317 0.050404526 4278190080
0.10365 -0.023956219 0.050680965 4278190080
-0.0034854 -0.02320444 0.052049015 4278190080
-0.0035788 -0.023015652 0.052392561 4278190080
0.0052594999 -0.023015652 0.052392561 4278190080
0.0062802001 -0.023515074 0.051483743 4278190080
0.10394 -0.023311837 0.051853579 4278190080
0.10413 -0.023015652 0.052392561 4278190080
-0.0042849001 -0.022075087 0.054104149 4278190080
0.0032889999 -0.022075087 0.054104149 4278190080
0.0043270998 -0.022566319 0.053210232 4278190080
0.10589 -0.021068115 0.053550791 4278190080
0.10482 -0.022075087 0.054104149 4278190080
-0.0048934999 -0.02113452 0.055815741 4278190080
0.10589 -0.020620955 0.055533525 4278190080
0.10553 -0.02113452 0.055815741 4278190080
-0.0054385001 -0.020033577 0.057439201 4278190080
-0.0053761001 -0.020193955 0.057527333 4278190080
0.10589 -0.02031002 0.057316121 4278190080
0.10594 -0.020193955 0.057527333 4278190080
-0.0054385001 -0.020108711 0.057682455 4278190080
-0.0060982001 -0.019252906 0.059239801 4278190080
0.10632 -0.019252906 0.059239801 4278190080
-0.0073917001 -0.016780412 0.060109552 4278190080
-0.0067966999 -0.018312341 0.060951389 4278190080
0.10647 -0.018312341 0.060951389 4278190080
-0.0073917001 -0.017497472 0.062434245 4278190080
-0.0074582002 -0.017371774 0.062662981 4278190080
0.10673 -0.017371774 0.062662981 4278190080
-0.0075202999 -0.016431209 0.064374574 4278190080
0.10659 -0.016431209 0.064374574 4278190080
-0.0078662001 -0.015490642 0.066086166 4278190080
0.10633 -0.015490642 0.066086166 4278190080
-0.0083879 -0.014550075 0.06779775 4278190080
0.10589 -0.013033923 0.066964582 4278190080
0.10621 -0.014550075 0.06779775 4278190080
-0.0093448004 -0.012145059 0.06870459 4278190080
-0.0087959003 -0.013609508 0.06950935 4278190080
0.10589 -0.013109969 0.069234833 4278190080
0.10604 -0.013609508 0.06950935 4278190080
-0.0093448004 -0.012236008 0.07098303 4278190080
-0.0092193997 -0.012668943 0.071220934 4278190080
0.10575 -0.012668943 0.071220934 4278190080
0.10589 -0.013011843 0.070596948 4278190080
-0.0093448004 -0.012503752 0.071521543 4278190080
-0.0098203998 -0.011727896 0.072933406 4278190080
0.10479 -0.011727896 0.072933406 4278190080
-0.010219 -0.010787331 0.074644998 4278190080
0.10394 -0.01012215 0.074279457 4278190080
0.10415 -0.010787331 0.074644998 4278190080
-0.010807 -0.0098467637 0.07635659 4278190080
0.10366 -0.0098467637 0.07635659 4278190080
0.10394 -0.010364002 0.075415343 4278190080
-0.011298 -0.0080701206 0.077608734 4278190080
-0.010956 -0.0089061949 0.078068182 4278190080
0.1029 -0.0089061949 0.078068182 4278190080
-0.011298 -0.0078140199 0.079696454 4278190080
-0.011228 -0.0079656318 0.079779774 4278190080
0.10198 -0.007170748 0.079342961 4278190080
0.1022 -0.0079656318 0.079779774 4278190080
-0.011298 -0.0077450573 0.080181159 4278190080
-0.011512 -0.007025063 0.081491366 4278190080
0.10186 -0.007025063 0.081491366 4278190080
0.10198 -0.0074257553 0.080762208 4278190080
-0.011802 -0.006084498 0.083202951 4278190080
0.10122 -0.006084498 0.083202951 4278190080
-0.01218 -0.0051434487 0.084915414 4278190080
0.10003 -0.0048349611 0.084745899 4278190080
0.10019 -0.0051434487 0.084915414 4278190080
-0.012494 -0.0042028837 0.086627007 4278190080
0.099661998 -0.0042028837 0.086627007 4278190080
0.10003 -0.0049084313 0.085343093 4278190080
-0.013251 -0.0025577024 0.087951392 4278190080
-0.012946 -0.0032623187 0.088338599 4278190080
0.098076999 -0.0023035482 0.087811731 4278190080
0.098751999 -0.0032623187 0.088338599 4278190080
-0.013251 -0.0020886362 0.089922085 4278190080
-0.013159 -0.0023217537 0.090050191 4278190080
0.098030001 -0.0023217537 0.090050191 4278190080
0.098076999 -0.0023973659 0.089912593 4278190080
-0.013251 -0.0021247752 0.090408638 4278190080
-0.013631 -0.0013811849 0.091761783 4278190080
0.096124001 0.0002129674 0.090885758 4278190080
0.097226001 -0.0013811849 0.091761783 4278190080
-0.014153 -0.00044061989 0.093473375 4278190080
0.096124001 -0.00033633038 0.093416065 4278190080
0.096202999 -0.00044061989 0.093473375 4278190080
-0.014441 0.00049994513 0.095184967 4278190080
0.095459998 0.00049994513 0.095184967 4278190080
0.096124001 -0.00034911558 0.093639895 4278190080
-0.015204 0.0028015412 0.096148632 4278190080
-0.014794 0.0014405102 0.096896559 4278190080
0.094171003 0.0021644086 0.09649875 4278190080
0.094654001 0.0014405102 0.096896559 4278190080
-0.015204 0.0029853918 0.098277204 4278190080
-0.015006 0.0023815595 0.09860903 4278190080
0.093878999 0.0023815595 0.09860903 4278190080
0.094171003 0.0020463653 0.097999051 4278190080
-0.015204 0.0032681897 0.10022247 4278190080
-0.015216 0.0033221282 0.10032062 4278190080
0.092217997 0.0044500418 0.099700801 4278190080
0.092742004 0.0033221282 0.10032062 4278190080
-0.015516 0.0042626932 0.1020322 4278190080
0.091982 0.0042626932 0.1020322 4278190080
0.092217997 0.0039169043 0.10140295 4278190080
-0.015829001 0.0052032582 0.10374379 4278190080
0.090264998 0.0064635053 0.10305125 4278190080
0.091181003 0.0052032582 0.10374379 4278190080
-0.016061001 0.006143827 0.1054554 4278190080
0.090264998 0.0065005161 0.10525938 4278190080
0.090466 0.006143827 0.1054554 4278190080
-0.016372001 0.007084392 0.10716698 4278190080
0.088312 0.0087214857 0.10626735 4278190080
0.089670002 0.007084392 0.10716698 4278190080
0.090264998 0.0064852796 0.10607675 4278190080
-0.016465001 0.008024957 0.10887857 4278190080
0.088312 0.0084964521 0.10861947 4278190080
0.088698 0.008024957 0.10887857 4278190080
-0.016527001 0.0089664869 0.11059192 4278190080
0.087968998 0.0089664869 0.11059192 4278190080
0.088312 0.0085137822 0.10976811 4278190080
-0.017157 0.010932732 0.11173644 4278190080
-0.016848 0.0099056065 0.11230087 4278190080
0.086358003 0.010813545 0.11180194 4278190080
0.087076999 0.0099056065 0.11230087 4278190080
-0.017157 0.011218071 0.11380468 4278190080
-0.017055999 0.01084473 0.11400984 4278190080
0.086144 0.01084473 0.11400984 4278190080
0.086358003 0.010632824 0.11362423 4278190080
-0.017157 0.01123964 0.11472848 4278190080
-0.017308 0.01178867 0.11572757 4278190080
0.084404998 0.012761462 0.11519299 4278190080
0.085317999 0.01178867 0.11572757 4278190080
-0.017247001 0.012727786 0.11743653 4278190080
0.084256001 0.012727786 0.11743653 4278190080
0.084404998 0.012617018 0.11723496 4278190080
-0.017579 0.013666909 0.1191455 4278190080
0.082451999 0.0144022 0.11874143 4278190080
0.08303 0.013666909 0.1191455 4278190080
-0.017871 0.014610849 0.12086321 4278190080
0.081952997 0.014610849 0.12086321 4278190080
0.082451999 0.014230385 0.12017088 4278190080
-0.018162999 0.015549969 0.12257218 4278190080
0.080499001 0.016236182 0.12219509 4278190080
0.080953002 0.015549969 0.12257218 4278190080
-0.018112 0.016489092 0.12428114 4278190080
0.079723001 0.016489092 0.12428114 4278190080
0.080499001 0.01598341 0.12336093 4278190080
-0.018135 0.017433025 0.12599887 4278190080
0.078546003 0.01772048 0.1258409 4278190080
0.078801997 0.017433025 0.12599887 4278190080
-0.018193999 0.018372148 0.12770782 4278190080
0.076592997 0.019322153 0.12718578 4278190080
0.077432998 0.018372148 0.12770782 4278190080
0.078546003 0.017635301 0.12636696 4278190080
-0.018274 0.019311272 0.12941679 4278190080
0.076063 0.019311272 0.12941679 4278190080
0.076592997 0.01887783 0.12862805 4278190080
-0.018446 0.020255204 0.13113451 4278190080
0.074639998 0.020981733 0.13073526 4278190080
0.075108998 0.020255204 0.13113451 4278190080
-0.01911 0.022618458 0.13206087 4278190080
-0.018736999 0.021194324 0.13284348 4278190080
0.072687 0.022871733 0.13192169 4278190080
0.073991999 0.021194324 0.13284348 4278190080
0.074639998 0.020611595 0.13178305 4278190080
-0.01911 0.022775844 0.13419944 4278190080
-0.018873001 0.022133451 0.13455245 4278190080
0.072687 0.022338524 0.13443975 4278190080
0.072843 0.022133451 0.13455245 4278190080
-0.01911 0.023226373 0.13618828 4278190080
-0.019052999 0.023077387 0.13627017 4278190080
0.070733003 0.023930114 0.13580157 4278190080
0.071509004 0.023077387 0.13627017 4278190080
0.072687 0.022263482 0.13478906 4278190080
-0.01911 0.02414095 0.13791074 4278190080
-0.019076999 0.024016503 0.13797912 4278190080
0.070387997 0.024016503 0.13797912 4278190080
0.070733003 0.023650493 0.13731307 4278190080
-0.01911 0.024555903 0.13896067 4278190080
-0.019134 0.024955634 0.13968809 4278190080
0.068779998 0.02573387 0.13926043 4278190080
0.06927 0.024955634 0.13968809 4278190080
-0.01911 0.025104921 0.13995977 4278190080
-0.01911 0.026429784 0.14111444 4278190080
-0.01898 0.02589957 0.14140582 4278190080
0.067865998 0.02589957 0.14140582 4278190080
0.068779998 0.02526385 0.14024897 4278190080
-0.01911 0.027630065 0.14267989 4278190080
-0.018882001 0.026838686 0.14311478 4278190080
0.066597998 0.026838686 0.14311478 4278190080
0.066826999 0.026723105 0.14290445 4278190080
-0.01911 0.028875049 0.14422077 4278190080
-0.018645 0.02777781 0.14482374 4278190080
0.064874001 0.027949579 0.14472935 4278190080
0.064975999 0.02777781 0.14482374 4278190080
-0.01911 0.030233085 0.14569953 4278190080
-0.018627999 0.028716933 0.1465327 4278190080
0.062921003 0.029739678 0.14597067 4278190080
0.063855 0.028716933 0.1465327 4278190080
0.064874001 0.027864497 0.14498149 4278190080
-0.018444 0.029660869 0.14825042 4278190080
0.062661998 0.029660869 0.14825042 4278190080
0.062921003 0.0294297 0.14782976 4278190080
-0.018285001 0.030599993 0.14995939 4278190080
0.060968 0.031306364 0.14957123 4278190080
0.061581001 0.030599993 0.14995939 4278190080
-0.018169999 0.031539116 0.15166835 4278190080
0.060132001 0.031539116 0.15166835 4278190080
0.060968 0.031062324 0.15080072 4278190080
-0.017767999 0.032483045 0.15338607 4278190080
0.059014998 0.032559291 0.15334417 4278190080
0.059076 0.032483045 0.15338607 4278190080
-0.017657001 0.033422176 0.15509504 4278190080
0.057062 0.033805158 0.15488459 4278190080
0.057424001 0.033422176 0.15509504 4278190080
0.059014998 0.032526392 0.15346494 4278190080
-0.017457999 0.034361292 0.156804 4278190080
0.055108 0.035329703 0.15627183 4278190080
0.055950999 0.034361292 0.156804 4278190080
0.057062 0.033658158 0.15552446 4278190080
-0.017157 0.034919951 0.15782061 4278190080
-0.016888 0.035305228 0.15852173 4278190080
0.053155001 0.036613677 0.1578027 4278190080
0.054444999 0.035305228 0.15852173 4278190080
0.055108 0.03488623 0.15775926 4278190080
-0.015999001 0.036244344 0.16023068 4278190080
0.051201999 0.03786917 0.1593378 4278190080
0.052733 0.036244344 0.16023068 4278190080
0.053155001 0.035989102 0.1597662 4278190080
-0.015204 0.036827084 0.16129112 4278190080
-0.014696 0.037183475 0.16193965 4278190080
0.051201999 0.037714567 0.1616478 4278190080
0.051599 0.037183475 0.16193965 4278190080
-0.013251 0.038454302 0.16347773 4278190080
-0.013521 0.038127411 0.16365737 4278190080
0.049249001 0.03892668 0.16321816 4278190080
0.050163999 0.038127411 0.16365737 4278190080
0.051201999 0.037525412 0.16256188 4278190080
-0.013251 0.038242992 0.1638677 4278190080
-0.011298 0.039056901 0.1653488 4278190080
-0.011275 0.039066527 0.16536634 4278190080
0.047295999 0.040133093 0.16478023 4278190080
0.048422001 0.039066527 0.16536634 4278190080
0.049249001 0.038584936 0.16448995 4278190080
-0.0093448004 0.039875615 0.16683866 4278190080
-0.0088686002 0.040005658 0.16707531 4278190080
0.045343 0.040818073 0.16662887 4278190080
0.046438001 0.040005658 0.16707531 4278190080
0.047295999 0.039581846 0.16630408 4278190080
-0.0073917001 0.040323514 0.16765372 4278190080
-0.0054385001 0.040660631 0.16826719 4278190080
-0.0043009999 0.040949587 0.16879302 4278190080
0.043389998 0.042076625 0.16817369 4278190080
0.044631999 0.040949587 0.16879302 4278190080
0.045343 0.040607657 0.16817079 4278190080
-0.0034854 0.041161496 0.16917863 4278190080
-0.0015323 0.04154196 0.16987099 4278190080
0.00042085 0.04186945 0.17046693 4278190080
0.00042085 0.042188436 0.17033727 4278190080
0.00054406002 0.04188871 0.17050198 4278190080
0.041437 0.042523216 0.1701533 4278190080
0.042121001 0.04188871 0.17050198 4278190080
0.043389998 0.041455265 0.16971323 4278190080
0.0023739999 0.042201754 0.17107163 4278190080
0.0043270998 0.042524423 0.17165881 4278190080
0.0062802001 0.04277486 0.17211455 4278190080
0.0062802001 0.044339605 0.17138019 4278190080
0.0069386 0.042827833 0.17221095 4278190080
0.039483 0.043013625 0.17210886 4278190080
0.039646 0.042827833 0.17221095 4278190080
0.041437 0.0421247 0.17093141 4278190080
0.0082333004 0.042924147 0.17238621 4278190080
0.010186 0.043131236 0.17276306 4278190080
0.01214 0.043314252 0.17309611 4278190080
0.014093 0.043511707 0.17345542 4278190080
0.016046001 0.043675449 0.1737534 4278190080
0.017194999 0.043766957 0.17391992 4278190080
0.035576999 0.045271721 0.17309301 4278190080
0.037227001 0.043766957 0.17391992 4278190080
0.037530001 0.043699529 0.17379722 4278190080
0.039483 0.042875994 0.1722986 4278190080
0.017999001 0.043810297 0.17399879 4278190080
0.019951999 0.043901797 0.17416529 4278190080
0.021904999 0.043969225 0.174288 4278190080
0.023858 0.04407518 0.17448081 4278190080
0.025812 0.044190761 0.17469114 4278190080
0.027765 0.044181135 0.17467362 4278190080
0.029718 0.044344876 0.17497158 4278190080
0.031670999 0.044330422 0.17494528 4278190080
0.033624001 0.044272635 0.17484012 4278190080
0.035576999 0.04409444 0.17451586 4278190080
0.013693 -0.067055613 -0.023693737 4278190080
0.060968 -0.066604272 -0.023941761 4278190080
0.059431002 -0.067055613 -0.023693737 4278190080
0.062921003 -0.065869853 -0.024345342 4278190080
0.01214 -0.064424008 -0.022910276 4278190080
0.013245 -0.06611456 -0.021981269 4278190080
0.060968 -0.066105798 -0.021986084 4278190080
0.060940001 -0.06611456 -0.021981269 4278190080
0.062921003 -0.065188214 -0.022490321 4278190080
0.01214 -0.064330913 -0.020732975 4278190080
0.012847 -0.065173998 -0.020269677 4278190080
0.060968 -0.0660953 -0.021946214 4278190080
0.062921003 -0.064855866 -0.020444497 4278190080
0.061992001 -0.065173998 -0.020269677 4278190080
0.064874001 -0.063798942 -0.021025307 4278190080
0.01214 -0.063855708 -0.018765653 4278190080
0.012431 -0.06423343 -0.018558085 4278190080
0.062921003 -0.064661577 -0.019337196 4278190080
0.064874001 -0.063704088 -0.018848971 4278190080
0.063633002 -0.06423343 -0.018558085 4278190080
0.066826999 -0.062593706 -0.019459158 4278190080
0.01214 -0.063470095 -0.017169006 4278190080
0.012083 -0.063292868 -0.016846497 4278190080
0.064874001 -0.063373774 -0.016993728 4278190080
0.066826999 -0.062327087 -0.017377218 4278190080
0.064974003 -0.063292868 -0.016846497 4278190080
0.011881 -0.0623523 -0.015134901 4278190080
0.066826999 -0.062238369 -0.015197508 4278190080
0.066601001 -0.0623523 -0.015134901 4278190080
0.068779998 -0.061045602 -0.015852967 4278190080
0.011529 -0.061411731 -0.013423312 4278190080
0.066826999 -0.062210709 -0.014877245 4278190080
0.068779998 -0.060863987 -0.013724312 4278190080
0.067810997 -0.061411731 -0.013423312 4278190080
0.011453 -0.060471166 -0.01171172 4278190080
0.068779998 -0.060493805 -0.011752911 4278190080
0.070733003 -0.059567604 -0.012208251 4278190080
0.068814002 -0.060471166 -0.01171172 4278190080
0.010186 -0.0580162 -0.010832338 4278190080
0.011239 -0.059530601 -0.010000132 4278190080
0.070733003 -0.059225619 -0.010167727 4278190080
0.069943003 -0.059530601 -0.010000132 4278190080
0.072687 -0.058251947 -0.010702787 4278190080
0.010186 -0.05729863 -0.0089970585 4278190080
0.010987 -0.058589555 -0.0082876626 4278190080
0.070733003 -0.058583416 -0.008291034 4278190080
0.070717998 -0.058589555 -0.0082876626 4278190080
0.072687 -0.057883181 -0.0086758323 4278190080
0.010186 -0.056386113 -0.0072700586 4278190080
0.010869 -0.057648987 -0.0065760724 4278190080
0.070733003 -0.05857414 -0.0082596168 4278190080
0.072687 -0.05716785 -0.0068404712 4278190080
0.071567997 -0.057648987 -0.0065760724 4278190080
0.074639998 -0.056270428 -0.0073336307 4278190080
0.010186 -0.055730369 -0.0054019466 4278190080
0.010628 -0.056708422 -0.0048644803 4278190080
0.072687 -0.056732502 -0.0049082991 4278190080
0.074639998 -0.05566464 -0.0054380652 4278190080
0.072711997 -0.056708422 -0.0048644803 4278190080
0.010186 -0.055078134 -0.0035319068 4278190080
0.010564 -0.055767857 -0.0031528883 4278190080
0.074639998 -0.05506061 -0.0035415385 4278190080
0.072848 -0.055767857 -0.0031528883 4278190080
0.076592997 -0.054068536 -0.0040867105 4278190080
0.010186 -0.054204173 -0.0017837137 4278190080
0.010558 -0.054827288 -0.0014412962 4278190080
0.074639998 -0.054246243 -0.0017605964 4278190080
0.073262997 -0.054827288 -0.0014412962 4278190080
0.076592997 -0.053261176 -0.0023019165 4278190080
0.010186 -0.053080443 -0.00017277896 4278190080
0.010605 -0.053886723 0.00027029216 4278190080
0.074639998 -0.053541426 8.0542639e-05 4278190080
0.073867999 -0.053886723 0.00027029216 4278190080
0.076592997 -0.052429285 -0.00053060986 4278190080
0.010186 -0.051875208 0.0013933685 4278190080
0.010678 -0.052946158 0.0019818842 4278190080
0.074639998 -0.052590344 0.0017863568 4278190080
0.073918998 -0.052946158 0.0019818842 4278190080
0.076592997 -0.051723592 0.0013100524 4278190080
0.010186 -0.050675623 0.0029637646 4278190080
0.010841 -0.052005108 0.0036943518 4278190080
0.074639998 -0.05175972 0.0035595056 4278190080
0.074165002 -0.052005108 0.0036943518 4278190080
0.076592997 -0.050992001 0.003137622 4278190080
0.011142 -0.051064543 0.0054059438 4278190080
0.074639998 -0.050914682 0.0053235907 4278190080
0.074349999 -0.051064543 0.0054059438 4278190080
0.076592997 -0.049988337 0.0048145391 4278190080
0.011221 -0.050123975 0.0071175341 4278190080
0.074639998 -0.050075777 0.0070910472 4278190080
0.074547999 -0.050123975 0.0071175341 4278190080
0.076592997 -0.049097724 0.006553581 4278190080
0.011259 -0.04918341 0.0088291261 4278190080
0.074639998 -0.049975641 0.0073874621 4278190080
0.076592997 -0.04834646 0.0083691999 4278190080
0.075125001 -0.04918341 0.0088291261 4278190080
0.078546003 -0.047477078 0.0078914519 4278190080
0.011174 -0.048242845 0.010540716 4278190080
0.076592997 -0.047649529 0.010214675 4278190080
0.075508997 -0.048242845 0.010540716 4278190080
0.078546003 -0.046647813 0.009664204 4278190080
0.010186 -0.045772977 0.011411916 4278190080
0.010798 -0.047302276 0.012252307 4278190080
0.076592997 -0.047147155 0.012167065 4278190080
0.076274 -0.047302276 0.012252307 4278190080
0.078546003 -0.046207666 0.01165079 4278190080
0.080499001 -0.045602955 0.011318485 4278190080
0.010186 -0.046020795 0.013776558 4278190080
0.010293 -0.046361711 0.013963899 4278190080
0.076592997 -0.047087003 0.012644054 4278190080
0.078546003 -0.045895472 0.013707688 4278190080
0.077620998 -0.046361711 0.013963899 4278190080
0.080499001 -0.044986654 0.013208268 4278190080
0.010186 -0.046000365 0.014621454 4278190080
0.0099692 -0.045420952 0.015675841 4278190080
0.078546003 -0.045617301 0.015318536 4278190080
0.080499001 -0.044599771 0.015224582 4278190080
0.078829996 -0.045420952 0.015675841 4278190080
0.082451999 -0.04381891 0.014795475 4278190080
0.0096036 -0.044480339 0.017387521 4278190080
0.080499001 -0.044221804 0.017245449 4278190080
0.079929002 -0.044480339 0.017387521 4278190080
0.082451999 -0.043291952 0.01673447 4278190080
0.0082333004 -0.042295251 0.018415326 4278190080
0.0087818 -0.043539725 0.019099198 4278190080
0.080499001 -0.044027779 0.018211063 4278190080
0.082451999 -0.042931508 0.018764969 4278190080
0.081207998 -0.043539725 0.019099198 4278190080
0.0082333004 -0.042854212 0.020346653 4278190080
0.0080541 -0.042599108 0.020810876 4278190080
0.064874001 -0.041944444 0.020451121 4278190080
0.064387001 -0.042599108 0.020810876 4278190080
0.064874001 -0.042766515 0.020506244 4278190080
0.066674002 -0.042599108 0.020810876 4278190080
0.082451999 -0.042770751 0.020498531 4278190080
0.084404998 -0.041429125 0.020167939 4278190080
0.082630999 -0.042599108 0.020810876 4278190080
0.0071967999 -0.041658472 0.0225226 4278190080
0.061524998 -0.041658472 0.0225226 4278190080
0.062921003 -0.042125694 0.02167237 4278190080
0.066826999 -0.04257917 0.02084716 4278190080
0.068779998 -0.042034481 0.021838358 4278190080
0.068779998 -0.041235175 0.022289988 4278190080
0.069424003 -0.041658472 0.0225226 4278190080
0.084404998 -0.041486699 0.022428207 4278190080
0.084104002 -0.041658472 0.0225226 4278190080
0.086358003 -0.040122159 0.021678355 4278190080
0.0062802001 -0.040308557 0.024009416 4278190080
0.0064579002 -0.040717833 0.024234323 4278190080
0.059560999 -0.040717833 0.024234323 4278190080
0.060968 -0.041527379 0.022761155 4278190080
0.068779998 -0.039099138 0.023344807 4278190080
0.070258997 -0.040717833 0.024234323 4278190080
0.084404998 -0.041463494 0.022877408 4278190080
0.086358003 -0.040055282 0.023870233 4278190080
0.085298002 -0.040717833 0.024234323 4278190080
0.088312 -0.039046556 0.023315912 4278190080
0.0062802001 -0.040495429 0.02463904 4278190080
0.0056677 -0.039777219 0.025946001 4278190080
0.057062 -0.038367108 0.025171107 4278190080
0.058284 -0.039777219 0.025946001 4278190080
0.059014998 -0.040355813 0.024893105 4278190080
0.070726998 -0.039777219 0.025946001 4278190080
0.086358003 -0.040175889 0.025220525 4278190080
0.088312 -0.039019141 0.025529418 4278190080
0.087114997 -0.039777219 0.025946001 4278190080
0.0043270998 -0.037387054 0.026861113 4278190080
0.0049013998 -0.038836606 0.02765768 4278190080
0.055482 -0.038836606 0.02765768 4278190080
0.057062 -0.039215144 0.026968837 4278190080
0.070733003 -0.039635628 0.02620366 4278190080
0.070733003 -0.038798921 0.027636973 4278190080
0.070766002 -0.038836606 0.02765768 4278190080
0.088312 -0.039122194 0.02713798 4278190080
0.090264998 -0.037784938 0.027079761 4278190080
0.088831998 -0.038836606 0.02765768 4278190080
0.0043270998 -0.037795205 0.029313974 4278190080
0.004367 -0.037895989 0.029369358 4278190080
0.054598998 -0.037895989 0.029369358 4278190080
0.055108 -0.038492501 0.028283861 4278190080
0.070733003 -0.038357172 0.028530126 4278190080
0.070716999 -0.037895989 0.029369358 4278190080
0.090264998 -0.037877582 0.029359246 4278190080
0.090239003 -0.037895989 0.029369358 4278190080
0.092217997 -0.036390349 0.028541969 4278190080
0.0043270998 -0.037824329 0.029499765 4278190080
0.0038037 -0.036955327 0.031081125 4278190080
0.070427001 -0.036955327 0.031081125 4278190080
0.090264998 -0.037872825 0.029411513 4278190080
0.092217997 -0.036258597 0.030698251 4278190080
0.09127 -0.036955327 0.031081125 4278190080
0.0023739999 -0.03447032 0.031944573 4278190080
0.0030552 -0.03601452 0.032793153 4278190080
0.070059001 -0.03601452 0.032793153 4278190080
0.092217997 -0.036217757 0.032423317 4278190080
0.094171003 -0.034738492 0.032091945 4278190080
0.092473 -0.03601452 0.032793153 4278190080
